#!ascii version of /Users/gilles/git/nukkies/notebooks/data/BI3T_STh_L_dil.asc
918 1834
7.193314  -49.993404  -35.242584  0
7.257743  -49.749168  -35.114277  0
9.277215  -50.305134  -35.038254  0
8.606250  -50.482830  -35.392330  0
8.930470  -50.134781  -35.232479  0
6.956680  -50.286491  -35.313965  0
6.872740  -50.510365  -35.428665  0
6.737596  -50.418167  -35.199722  0
9.264507  -50.812374  -35.019680  0
8.597775  -50.988350  -35.368122  0
8.951631  -50.637230  -35.207993  0
6.588612  -50.747406  -35.289177  0
6.395522  -51.168995  -35.446983  0
9.241845  -51.316383  -35.010273  0
8.579492  -51.506413  -35.353817  0
8.929852  -51.146790  -35.189751  0
6.147608  -51.327442  -35.178852  0
6.237126  -51.597282  -35.361214  0
9.225110  -51.816692  -35.003338  0
8.573285  -52.021755  -35.357277  0
8.912667  -51.656654  -35.185120  0
6.498034  -51.791794  -35.581959  0
6.204456  -51.975899  -35.234592  0
9.209662  -52.291435  -34.981960  0
8.571076  -52.542027  -35.358932  0
8.906295  -52.171932  -35.177811  0
6.537743  -52.201359  -35.537045  0
6.232605  -52.631859  -35.331108  0
6.199018  -52.285393  -35.235497  0
8.541178  -53.044250  -35.346554  0
8.913764  -52.733509  -35.130764  0
5.973384  -52.928196  -35.115803  0
6.212832  -53.160252  -35.334255  0
5.778937  -52.825653  -34.870113  0
8.436209  -53.424637  -35.325157  0
8.761293  -53.351383  -35.128651  0
8.114856  -53.570557  -35.385479  0
7.658608  -53.627831  -35.434883  0
7.185552  -53.658932  -35.432133  0
6.519417  -53.410362  -35.390366  0
6.815762  -53.659927  -35.350922  0
6.219537  -53.361038  -35.145527  0
8.790649  -53.739037  -34.992172  0
8.426953  -53.779713  -35.133774  0
7.899431  -53.915997  -35.158539  0
7.390737  -53.938274  -35.129089  0
6.948600  -53.897461  -35.083580  0
8.110568  -48.618431  -34.680096  0
8.383630  -48.450916  -34.529610  0
9.231703  -49.154072  -34.865288  0
9.288847  -48.908104  -34.599041  0
8.499565  -48.771790  -34.848816  0
8.945862  -48.977161  -34.884415  0
8.770657  -48.619114  -34.622742  0
7.870082  -48.757076  -34.742607  0
7.705048  -48.969326  -34.770851  0
7.704351  -48.761944  -34.605385  0
9.454056  -49.430420  -34.811615  0
9.697844  -49.217159  -34.530457  0
7.554657  -49.292522  -34.929291  0
7.385405  -49.568832  -35.043831  0
7.258902  -49.410946  -34.728378  0
9.563029  -49.979908  -34.837540  0
9.805627  -49.678593  -34.592892  0
7.057493  -49.743729  -34.775539  0
6.850939  -50.140926  -34.995453  0
9.573114  -50.496552  -34.829018  0
9.845273  -50.200890  -34.605770  0
6.588964  -50.391331  -34.843349  0
9.552237  -51.001305  -34.817844  0
9.833114  -50.710815  -34.597782  0
6.339809  -50.662476  -34.741463  0
6.226097  -50.990826  -35.026833  0
6.150580  -50.868435  -34.621181  0
9.532052  -51.505501  -34.811768  0
9.815121  -51.217358  -34.590775  0
6.058467  -51.170860  -34.711330  0
9.499345  -52.003078  -34.806080  0
9.792432  -51.739498  -34.588562  0
6.022143  -51.655960  -34.833992  0
9.433602  -52.398540  -34.810932  0
9.724739  -52.308720  -34.590248  0
9.233767  -52.648087  -34.918964  0
5.929054  -52.311123  -34.790421  0
5.822552  -52.697632  -34.816158  0
5.734426  -52.545929  -34.549484  0
9.753615  -52.792618  -34.478912  0
9.140088  -53.054844  -34.912853  0
9.456473  -52.747955  -34.728680  0
5.704727  -52.689480  -34.637897  0
5.794423  -52.885170  -34.793777  0
5.729115  -52.742287  -34.628208  0
9.045985  -53.522305  -34.880608  0
9.438169  -53.239765  -34.621784  0
6.012310  -53.175331  -34.886868  0
6.266583  -53.551834  -34.785843  0
8.950433  -53.807369  -34.857323  0
9.212077  -53.761551  -34.636795  0
8.759036  -54.051186  -34.787506  0
8.175141  -54.163551  -34.875805  0
7.615201  -54.206245  -34.753159  0
7.105289  -54.103447  -34.720573  0
6.597806  -53.775848  -34.990349  0
6.756912  -53.992638  -34.722900  0
8.828203  -54.346302  -34.494381  0
8.408889  -54.390991  -34.582489  0
7.945794  -54.408646  -34.553265  0
8.436305  -48.232712  -34.164177  0
9.463267  -48.668659  -34.217232  0
8.612958  -48.350021  -34.366558  0
8.991944  -48.446110  -34.267933  0
8.707344  -48.230022  -34.113514  0
8.107017  -48.366177  -34.237488  0
7.830979  -48.606808  -34.449966  0
9.643235  -48.935589  -34.386490  0
9.822451  -49.089489  -34.360367  0
9.848736  -48.925426  -34.157101  0
7.589794  -48.812443  -34.315884  0
7.387036  -49.142467  -34.507637  0
9.990913  -49.369419  -34.309437  0
10.175890  -49.179218  -34.000896  0
7.135331  -49.422432  -34.304947  0
10.080401  -49.922081  -34.349842  0
10.288838  -49.659916  -34.068836  0
6.896364  -49.769108  -34.156822  0
6.732353  -50.058662  -34.506142  0
10.086190  -50.445385  -34.353142  0
10.323648  -50.195938  -34.092804  0
6.476284  -50.362175  -34.301086  0
6.255906  -50.656540  -34.346909  0
10.070072  -50.953075  -34.346420  0
10.313021  -50.713795  -34.093460  0
6.125025  -50.913338  -34.270515  0
10.060810  -51.466213  -34.344551  0
10.304922  -51.220093  -34.092903  0
6.011531  -51.336517  -34.279942  0
10.042644  -51.993179  -34.343788  0
10.306313  -51.731812  -34.094208  0
5.901158  -51.943600  -34.244370  0
5.757867  -52.301056  -34.417095  0
10.011672  -52.484646  -34.321548  0
10.286899  -52.239876  -34.091881  0
5.688041  -52.474648  -34.418915  0
5.723528  -52.567757  -34.397633  0
5.757863  -52.322433  -34.251163  0
9.974765  -52.793163  -34.294979  0
10.216001  -52.726593  -34.077915  0
9.888530  -53.109756  -34.262424  0
5.836205  -52.784458  -34.500488  0
9.598628  -53.548534  -34.369423  0
9.920638  -53.437328  -34.097248  0
6.052154  -53.307880  -34.349392  0
6.244772  -53.644081  -34.188019  0
9.446949  -53.827408  -34.395199  0
9.724544  -53.784153  -34.126888  0
9.276026  -54.107174  -34.362640  0
7.244233  -54.255005  -34.239304  0
6.490183  -53.860416  -34.475338  0
6.806002  -54.060081  -34.296867  0
9.062960  -54.421959  -34.255985  0
9.389306  -54.343357  -34.064903  0
8.648388  -54.580349  -34.208054  0
8.129733  -54.567688  -34.254616  0
7.611401  -54.396511  -34.376541  0
7.791978  -54.509113  -34.237915  0
8.763390  -48.140572  -33.793465  0
8.354012  -48.183548  -33.850975  0
9.679858  -48.603741  -33.942474  0
9.718776  -48.403576  -33.604935  0
8.960780  -48.234753  -33.953148  0
9.318978  -48.386753  -33.936260  0
9.180874  -48.211205  -33.719501  0
8.104232  -48.284306  -33.904682  0
8.265854  -48.268219  -33.613152  0
7.890128  -48.514534  -33.926041  0
10.020999  -48.803093  -33.844635  0
10.270199  -49.028118  -33.802166  0
10.319984  -48.825211  -33.573471  0
7.605611  -48.773308  -33.938622  0
7.775304  -48.763218  -33.617855  0
7.413473  -49.079269  -33.908104  0
10.462978  -49.362389  -33.767971  0
10.701166  -49.227261  -33.490635  0
7.131293  -49.536942  -33.715546  0
7.404854  -49.276711  -33.508682  0
10.551443  -49.945549  -33.824146  0
10.781760  -49.717270  -33.561687  0
6.862377  -49.954575  -33.653461  0
6.672700  -50.080318  -34.010628  0
10.566417  -50.488716  -33.837963  0
10.823308  -50.252403  -33.590103  0
6.528431  -50.284184  -33.929569  0
6.633874  -50.270172  -33.661671  0
6.370389  -50.580524  -33.889027  0
10.553289  -51.000214  -33.849808  0
10.865378  -50.822750  -33.589874  0
6.172030  -51.019981  -33.868855  0
6.368403  -50.835392  -33.570602  0
11.114889  -51.269806  -33.438297  0
10.560785  -51.488873  -33.849777  0
10.785879  -51.266251  -33.659889  0
6.077349  -51.478558  -33.842812  0
6.294796  -51.198853  -33.531654  0
10.565303  -51.988842  -33.841831  0
10.900252  -51.711060  -33.568832  0
6.047856  -51.911362  -33.788933  0
6.252594  -51.661015  -33.509853  0
10.515055  -52.463627  -33.843925  0
10.811047  -52.245010  -33.589428  0
5.937054  -52.425610  -33.986446  0
6.221470  -52.174919  -33.527344  0
10.448644  -52.772606  -33.843208  0
10.703875  -52.717319  -33.595589  0
10.317179  -53.115498  -33.838837  0
6.054253  -53.030380  -33.944992  0
6.234379  -52.749664  -33.556713  0
10.095942  -53.557365  -33.858372  0
10.419225  -53.411491  -33.600639  0
6.149761  -53.430759  -33.940338  0
6.266523  -53.606857  -33.863575  0
6.336693  -53.373337  -33.610832  0
9.964555  -53.802608  -33.866058  0
10.243279  -53.747692  -33.607086  0
9.806095  -54.084759  -33.853935  0
7.250463  -54.270576  -33.770916  0
6.494052  -53.802841  -33.917709  0
6.906353  -54.039040  -33.752731  0
6.634640  -53.705017  -33.483723  0
9.622676  -54.402302  -33.773205  0
9.930816  -54.310940  -33.554543  0
9.197158  -54.588875  -33.899750  0
8.748612  -54.794346  -33.794937  0
8.249265  -54.727016  -33.827713  0
7.522661  -54.427502  -34.004704  0
7.825948  -54.569008  -33.904217  0
8.838799  -54.949402  -33.523994  0
8.519210  -54.918213  -33.523735  0
9.834281  -48.147320  -33.161945  0
9.229973  -48.135834  -33.426624  0
8.705193  -48.139084  -33.421398  0
10.766537  -48.341946  -33.002567  0
10.155041  -48.434582  -33.361141  0
10.474478  -48.621094  -33.335175  0
10.405343  -48.352020  -33.160114  0
8.475394  -48.252197  -33.340103  0
8.705701  -48.259197  -33.083797  0
8.231666  -48.494987  -33.336002  0
11.127736  -48.656555  -32.982826  0
10.649537  -48.887291  -33.383358  0
10.890506  -49.101521  -33.303360  0
10.805216  -48.723045  -33.189991  0
7.984212  -48.763878  -33.323849  0
8.201670  -48.798763  -33.059258  0
7.752919  -49.037334  -33.339493  0
11.017499  -49.511986  -33.323700  0
11.206722  -49.174538  -33.095383  0
7.551532  -49.273361  -33.301891  0
7.756405  -49.289299  -33.087807  0
7.421016  -49.501335  -33.239597  0
11.077157  -50.022118  -33.360489  0
11.379970  -49.831924  -33.114960  0
7.144928  -49.905029  -33.206135  0
7.434369  -49.739021  -32.968288  0
11.652530  -50.331196  -33.018925  0
11.116590  -50.518650  -33.385002  0
11.337605  -50.300175  -33.212513  0
6.857029  -50.360397  -33.244011  0
6.573921  -50.596672  -33.436203  0
11.782111  -50.763206  -33.002197  0
11.178112  -50.915649  -33.383022  0
11.365065  -51.119995  -33.288605  0
11.451063  -50.756084  -33.201313  0
6.531392  -50.973331  -33.305649  0
6.739579  -50.770870  -33.156727  0
11.384254  -51.323322  -33.279327  0
11.666299  -51.197662  -33.086639  0
11.360349  -51.596722  -33.243553  0
6.506028  -51.420189  -33.261650  0
6.756924  -51.178688  -33.054646  0
11.146415  -52.044907  -33.322903  0
11.465970  -51.920868  -33.074463  0
6.487870  -51.923660  -33.251408  0
6.754674  -51.681271  -33.024197  0
11.026769  -52.469463  -33.341293  0
11.340484  -52.281933  -33.085907  0
6.483299  -52.463432  -33.250961  0
6.746819  -52.199509  -33.014866  0
10.943989  -52.759491  -33.346252  0
11.210661  -52.710228  -33.092918  0
10.813556  -53.098194  -33.345928  0
6.520375  -53.024857  -33.267292  0
6.759546  -52.745888  -33.015148  0
10.611732  -53.530788  -33.347137  0
10.931326  -53.412148  -33.075520  0
6.588125  -53.429443  -33.298283  0
6.720713  -53.595470  -33.253708  0
6.841611  -53.367531  -33.075169  0
10.482459  -53.774082  -33.351307  0
10.729905  -53.780418  -33.083443  0
10.296446  -54.069050  -33.367645  0
6.897164  -53.804268  -33.311092  0
7.144364  -54.098949  -33.451771  0
7.238935  -53.882271  -33.079514  0
10.101520  -54.343403  -33.362156  0
10.319687  -54.366215  -33.144581  0
9.796938  -54.603195  -33.379074  0
9.173780  -54.833935  -33.547340  0
7.500731  -54.352623  -33.528805  0
7.877303  -54.603912  -33.547291  0
7.758811  -54.385616  -33.113262  0
9.916893  -54.869087  -32.970036  0
9.077799  -55.002815  -33.321587  0
9.475785  -54.941204  -33.168171  0
8.800659  -55.039082  -33.249939  0
8.155092  -54.772068  -33.384094  0
8.470603  -54.948826  -33.168697  0
8.166512  -54.725231  -33.041840  0
10.744782  -48.116272  -32.851254  0
10.743749  -47.922474  -32.585762  0
10.343356  -48.036076  -32.882545  0
10.100224  -47.765564  -32.557205  0
9.750261  -47.912922  -32.756111  0
9.700723  -47.763813  -32.461452  0
9.219316  -48.076843  -32.983765  0
11.033494  -48.295509  -32.839943  0
11.283154  -48.531696  -32.839478  0
11.336969  -48.295387  -32.620308  0
8.950336  -48.277298  -32.656506  0
8.579100  -48.537285  -32.859188  0
11.473899  -48.866306  -32.807846  0
11.706629  -48.648201  -32.504883  0
8.454954  -48.944851  -32.622864  0
8.080647  -49.102833  -32.933678  0
11.604256  -49.487888  -32.872879  0
11.813557  -49.183479  -32.584316  0
7.972826  -49.302345  -32.871208  0
8.170696  -49.307575  -32.649616  0
7.770624  -49.539684  -32.827248  0
11.695137  -49.943798  -32.910488  0
11.834842  -50.157566  -32.855194  0
11.938270  -49.835732  -32.651543  0
7.570346  -49.772869  -32.784161  0
7.734115  -49.824287  -32.588314  0
7.412914  -50.001247  -32.767750  0
11.984307  -50.444561  -32.791378  0
12.206185  -50.212254  -32.480976  0
7.157454  -50.348995  -32.861172  0
7.397800  -50.330074  -32.579346  0
12.016604  -50.953762  -32.836330  0
12.253744  -50.698715  -32.556057  0
7.002603  -50.847919  -32.876942  0
7.306910  -50.694866  -32.570786  0
11.964363  -51.260803  -32.859539  0
12.200470  -51.216507  -32.583462  0
11.822690  -51.607204  -32.854031  0
7.008845  -51.428425  -32.804398  0
7.265983  -51.187286  -32.560524  0
11.665617  -52.072067  -32.840805  0
11.942155  -51.919926  -32.617947  0
7.006256  -51.947598  -32.789856  0
7.259200  -51.702507  -32.552620  0
11.547213  -52.468628  -32.838066  0
11.855805  -52.274738  -32.591316  0
7.003968  -52.462242  -32.782650  0
7.252508  -52.204220  -32.548573  0
11.458898  -52.753212  -32.841690  0
11.725611  -52.706726  -32.591320  0
11.320971  -53.091434  -32.831970  0
7.042065  -53.002316  -32.794228  0
7.268863  -52.728722  -32.551708  0
11.134687  -53.589027  -32.710377  0
11.453238  -53.341198  -32.539211  0
7.130710  -53.437683  -32.839771  0
7.287176  -53.633350  -32.798576  0
7.375385  -53.358860  -32.609222  0
10.898747  -54.015930  -32.695438  0
10.622877  -54.152184  -32.987873  0
7.510459  -53.890835  -32.802437  0
7.746494  -54.165520  -32.810020  0
7.776079  -53.892948  -32.562572  0
10.550680  -54.377178  -32.922657  0
10.709249  -54.358265  -32.706394  0
10.353806  -54.643642  -32.849670  0
7.982940  -54.409256  -32.819775  0
8.212926  -54.646999  -32.830513  0
8.233988  -54.397961  -32.539436  0
10.141193  -54.942066  -32.679054  0
10.403249  -54.873844  -32.496563  0
9.710074  -55.069172  -32.692181  0
9.187725  -55.080372  -32.964588  0
8.427999  -54.819916  -32.839142  0
8.814392  -55.024929  -32.807602  0
8.621804  -54.777977  -32.494686  0
10.848194  -47.672157  -32.110413  0
10.278798  -47.644798  -32.245823  0
9.869324  -47.656342  -32.306534  0
11.167093  -47.919971  -32.396580  0
11.406724  -48.050182  -32.405403  0
11.390171  -47.877121  -32.140255  0
9.582892  -47.760830  -32.179058  0
9.350605  -47.990307  -32.440556  0
11.608077  -48.223629  -32.353699  0
11.836388  -48.445210  -32.243408  0
11.742850  -48.115158  -32.040222  0
9.029095  -48.403046  -32.135803  0
8.769795  -48.620621  -32.436020  0
11.952411  -48.829269  -32.258915  0
8.676802  -48.996773  -32.207111  0
8.830808  -48.757488  -32.101871  0
12.058095  -49.336346  -32.294670  0
8.434824  -49.416080  -32.234173  0
8.070269  -49.632893  -32.447910  0
12.183725  -49.778389  -32.300797  0
12.330284  -50.024197  -32.214653  0
12.314554  -49.758194  -32.075268  0
7.931823  -49.922192  -32.338970  0
8.208740  -49.882774  -32.129143  0
7.654804  -50.124420  -32.446327  0
12.419296  -50.389519  -32.243835  0
8.203131  -50.288280  -31.918058  0
7.605007  -50.495728  -32.338352  0
7.921738  -50.218376  -32.185898  0
12.466011  -50.883804  -32.245121  0
7.553113  -50.955040  -32.303856  0
7.902344  -50.675941  -32.054928  0
12.453591  -51.419266  -32.146595  0
12.169464  -51.660748  -32.461102  0
7.519932  -51.457241  -32.303703  0
7.803463  -51.205502  -32.057285  0
12.128867  -52.048306  -32.372593  0
12.332805  -51.829514  -32.189728  0
7.505055  -51.954441  -32.303761  0
7.767045  -51.703716  -32.055431  0
12.050222  -52.456020  -32.335449  0
12.304008  -52.209541  -32.095886  0
7.502347  -52.454666  -32.302902  0
7.751581  -52.200008  -32.051365  0
11.959500  -52.751621  -32.337341  0
12.185147  -52.691803  -32.059734  0
11.777333  -53.066532  -32.352673  0
7.546838  -52.982727  -32.324783  0
7.767012  -52.718445  -32.061897  0
11.601652  -53.347939  -32.354679  0
11.757029  -53.359375  -32.101376  0
11.428394  -53.573853  -32.306004  0
7.648355  -53.419533  -32.375313  0
7.804649  -53.610237  -32.328911  0
7.862747  -53.315567  -32.125267  0
11.144394  -53.948109  -32.275433  0
11.364597  -53.801727  -32.038807  0
8.007499  -53.836189  -32.291149  0
8.270566  -54.079121  -32.180965  0
8.145872  -53.692593  -32.016365  0
10.894820  -54.328632  -32.313316  0
10.646477  -54.645523  -32.415043  0
8.510234  -54.427483  -32.191467  0
8.770005  -54.720497  -32.135414  0
10.487844  -54.902882  -32.151814  0
10.133138  -55.062401  -32.312305  0
9.725887  -55.136368  -32.248058  0
8.911405  -54.951572  -32.367950  0
9.274949  -55.086510  -32.423756  0
11.173745  -47.647724  -31.736620  0
10.786299  -47.558804  -31.783340  0
10.367744  -47.594631  -31.821617  0
9.880427  -47.644695  -32.026703  0
11.572215  -47.839691  -31.812225  0
11.816390  -48.054291  -31.641441  0
10.330709  -47.685547  -31.476181  0
9.617428  -47.763145  -31.933159  0
9.870769  -47.782715  -31.668468  0
9.388356  -48.036064  -31.866728  0
11.968698  -48.437668  -31.930660  0
9.144645  -48.478897  -31.646147  0
9.335955  -48.266048  -31.499527  0
12.157814  -48.913147  -31.877491  0
12.288089  -48.788250  -31.486414  0
8.931477  -48.864864  -31.752655  0
8.781082  -49.030457  -31.934074  0
12.242351  -49.441299  -32.024261  0
12.356955  -49.599659  -31.917183  0
12.412810  -49.292885  -31.672585  0
8.684125  -49.361439  -31.889009  0
8.822410  -49.242023  -31.696447  0
12.495658  -49.933796  -31.907127  0
12.689186  -49.672035  -31.529627  0
8.544960  -49.923294  -31.736971  0
8.802516  -49.604454  -31.535120  0
12.629443  -50.533878  -31.936460  0
12.792681  -50.207722  -31.623268  0
8.403666  -50.481411  -31.637421  0
8.178559  -50.637966  -31.815466  0
12.668608  -51.038456  -31.882912  0
12.851605  -50.737122  -31.631485  0
8.079731  -50.991364  -31.828634  0
8.291841  -50.827015  -31.648680  0
12.694538  -51.497868  -31.716335  0
12.866042  -51.171566  -31.549366  0
8.031671  -51.453827  -31.813868  0
8.279289  -51.205734  -31.588264  0
12.511554  -51.875599  -31.895704  0
8.008409  -51.947029  -31.801258  0
8.262237  -51.695164  -31.557533  0
12.488425  -52.349159  -31.761305  0
8.004156  -52.453575  -31.799616  0
8.255283  -52.203873  -31.548676  0
12.433392  -52.778362  -31.647705  0
12.111593  -53.088024  -31.881205  0
8.041070  -52.977875  -31.825537  0
8.271775  -52.730865  -31.562159  0
12.004934  -53.383266  -31.686022  0
11.640165  -53.609112  -31.893246  0
8.109317  -53.374420  -31.868681  0
8.247746  -53.591087  -31.825197  0
8.351923  -53.348160  -31.618927  0
11.508407  -53.857521  -31.689041  0
11.272794  -54.019814  -31.865671  0
8.454519  -53.978931  -31.847315  0
8.665432  -53.813690  -31.471367  0
11.080381  -54.319530  -31.785465  0
10.735844  -54.651913  -31.881063  0
8.679399  -54.450943  -31.927813  0
8.831863  -54.632496  -31.896685  0
8.862751  -54.396404  -31.638311  0
10.455185  -54.890987  -31.783806  0
10.268435  -55.034775  -31.955967  0
10.144135  -54.938850  -31.620674  0
9.931827  -55.086300  -31.923054  0
9.703158  -54.908310  -31.572641  0
9.052284  -54.845390  -31.973686  0
9.493583  -55.034817  -31.928040  0
9.268967  -54.752098  -31.587635  0
11.170791  -47.667122  -31.382038  0
10.753966  -47.608746  -31.498930  0
11.518278  -47.779575  -31.469437  0
11.726263  -48.032173  -31.141876  0
11.362185  -47.805374  -31.172821  0
10.544383  -47.718170  -31.303038  0
10.883306  -47.792786  -31.152500  0
10.236625  -47.934002  -31.209759  0
9.629651  -48.084076  -31.429422  0
12.068452  -48.413284  -31.428846  0
12.287656  -48.622517  -31.128931  0
10.298537  -48.204098  -30.893753  0
9.474744  -48.283596  -31.310919  0
9.809639  -48.302956  -31.086254  0
9.366477  -48.522198  -31.261889  0
12.440547  -48.927143  -31.320141  0
9.132703  -48.875904  -31.355808  0
9.363171  -48.855721  -31.072893  0
12.633249  -49.253067  -31.322517  0
12.802685  -49.526844  -31.319433  0
12.892445  -49.365616  -31.086399  0
8.983411  -49.328152  -31.382545  0
9.256184  -49.217159  -31.064747  0
12.979127  -49.875774  -31.312492  0
13.221709  -49.699673  -31.050476  0
8.940013  -49.683758  -31.294209  0
9.138659  -49.696671  -31.053946  0
8.867453  -49.993553  -31.267311  0
13.066470  -50.468372  -31.373053  0
13.316762  -50.197411  -31.118914  0
8.667120  -50.399017  -31.351355  0
8.895061  -50.373394  -31.078888  0
13.060583  -50.951591  -31.359741  0
13.333254  -50.745018  -31.111349  0
8.521983  -50.888523  -31.377710  0
8.810125  -50.732418  -31.078384  0
13.015204  -51.235935  -31.337421  0
13.221059  -51.231544  -31.087885  0
12.942005  -51.520821  -31.322191  0
8.507049  -51.437778  -31.318878  0
8.760265  -51.202408  -31.070383  0
12.734773  -51.979092  -31.475500  0
12.959601  -51.861652  -31.126463  0
8.512455  -51.964882  -31.303253  0
8.764551  -51.721916  -31.062410  0
12.667036  -52.492523  -31.407839  0
12.883281  -52.232388  -31.099586  0
8.517215  -52.480846  -31.318253  0
8.816378  -52.294518  -31.063074  0
12.596585  -52.798946  -31.382048  0
12.772049  -52.726589  -31.079538  0
12.417416  -53.111450  -31.393742  0
9.061900  -52.785404  -30.950613  0
8.554357  -52.985058  -31.340374  0
8.757466  -52.753067  -31.152285  0
12.186809  -53.399990  -31.400522  0
12.376959  -53.405491  -31.136332  0
11.930749  -53.646732  -31.400406  0
9.221762  -53.254692  -30.930851  0
8.640653  -53.405575  -31.341028  0
8.857795  -53.667675  -31.233240  0
8.889930  -53.236103  -31.129780  0
11.649534  -53.898483  -31.410439  0
11.869028  -53.918758  -31.109480  0
11.453152  -54.146656  -31.386892  0
8.977064  -54.077717  -31.287531  0
9.238968  -53.784489  -31.041023  0
11.219283  -54.434349  -31.288260  0
11.463522  -54.395634  -31.014629  0
10.939405  -54.568813  -31.322996  0
10.467585  -54.678158  -31.303734  0
10.117116  -54.426487  -30.994152  0
9.923972  -54.685341  -31.280088  0
9.651537  -54.279564  -31.042707  0
9.140502  -54.448372  -31.355474  0
9.472309  -54.598705  -31.296396  0
9.269474  -54.265301  -31.170679  0
11.689248  -48.150097  -30.752264  0
11.285748  -48.021919  -30.855701  0
10.702209  -48.068398  -30.873957  0
11.980227  -48.380665  -30.797049  0
12.286403  -48.647167  -30.769325  0
11.741482  -48.289280  -30.581497  0
11.450288  -48.272022  -30.541727  0
10.542959  -48.259201  -30.733959  0
10.893721  -48.309830  -30.595253  0
10.250932  -48.501820  -30.696585  0
9.679856  -48.663170  -30.921190  0
12.554499  -48.911858  -30.986147  0
12.863556  -49.080494  -30.634150  0
12.458685  -48.816212  -30.617321  0
10.238876  -48.901680  -30.480690  0
9.571079  -49.034130  -30.835443  0
9.906355  -48.842785  -30.683819  0
13.153521  -49.393284  -30.886627  0
13.345067  -49.568176  -30.891298  0
13.376009  -49.410126  -30.641230  0
10.176723  -49.302414  -30.391502  0
9.488348  -49.473095  -30.791611  0
9.854661  -49.207325  -30.599274  0
13.535520  -49.870415  -30.851988  0
13.752352  -49.691429  -30.518938  0
9.378922  -49.881821  -30.781052  0
9.779285  -49.768272  -30.535404  0
9.117117  -50.142021  -30.933746  0
13.626321  -50.455200  -30.864117  0
13.860402  -50.148762  -30.610931  0
9.707730  -50.350025  -30.478460  0
9.086379  -50.541649  -30.855433  0
9.395361  -50.246120  -30.688442  0
13.591969  -51.005455  -30.734970  0
13.886135  -50.638744  -30.536955  0
9.693602  -50.788422  -30.412027  0
9.051997  -50.987110  -30.823429  0
9.370511  -50.704536  -30.628363  0
13.398415  -51.393265  -30.724583  0
13.159842  -51.612923  -30.934362  0
9.028961  -51.480465  -30.826221  0
9.410374  -51.249096  -30.543695  0
13.095694  -51.953304  -30.790041  0
9.541377  -51.748951  -30.434235  0
9.052680  -51.988255  -30.842878  0
9.270054  -51.751575  -30.652931  0
13.011434  -52.356396  -30.695276  0
9.111461  -52.395748  -30.853540  0
9.248563  -52.608234  -30.794800  0
9.412603  -52.306705  -30.622828  0
12.933371  -52.842228  -30.602571  0
12.680552  -53.148701  -30.952223  0
9.422672  -52.937302  -30.750069  0
9.765019  -52.831211  -30.503412  0
12.577474  -53.392246  -30.882380  0
12.740243  -53.296783  -30.643682  0
12.340418  -53.639812  -30.838633  0
10.081028  -53.351341  -30.465380  0
9.523903  -53.480206  -30.813581  0
9.737215  -53.260624  -30.641989  0
12.094985  -53.925690  -30.805716  0
12.282660  -53.893147  -30.500170  0
11.845002  -54.184681  -30.775866  0
10.219348  -54.240288  -30.791681  0
10.308802  -53.966980  -30.579298  0
9.649459  -53.884533  -30.867493  0
9.972820  -54.100037  -30.815598  0
9.882594  -53.683853  -30.690603  0
11.608694  -54.456192  -30.708006  0
11.828830  -54.379242  -30.452412  0
11.277901  -54.540352  -30.849541  0
10.452896  -54.379868  -30.816582  0
10.870666  -54.513878  -30.779028  0
10.680774  -54.255188  -30.507109  0
11.655770  -48.539444  -30.374453  0
11.173984  -48.554321  -30.334171  0
10.685228  -48.664440  -30.395687  0
13.187659  -49.169792  -30.192776  0
12.750197  -49.020638  -30.214958  0
12.102913  -48.756996  -30.355751  0
12.500808  -48.905567  -30.359039  0
11.663116  -48.891953  -30.125042  0
11.282038  -48.873386  -30.147627  0
10.556561  -49.032715  -30.277666  0
10.920764  -48.849323  -30.214773  0
13.587827  -49.394833  -30.285681  0
13.855259  -49.624767  -30.128813  0
11.888803  -49.098621  -29.961943  0
11.367984  -49.282558  -29.951210  0
10.443567  -49.370022  -30.241758  0
10.842335  -49.253822  -30.117582  0
10.185037  -49.629589  -30.325954  0
13.978754  -49.929153  -30.336254  0
10.862065  -49.770596  -29.978029  0
10.078521  -50.025841  -30.323139  0
10.460270  -49.701561  -30.180155  0
14.049233  -50.318298  -30.283039  0
10.672637  -50.286171  -29.923590  0
9.996808  -50.483494  -30.284409  0
10.379786  -50.169468  -30.128878  0
14.021233  -50.732994  -30.135656  0
13.841314  -50.999546  -30.346830  0
9.932462  -50.777946  -30.258255  0
10.247854  -50.694927  -30.061462  0
9.841180  -51.086857  -30.244303  0
13.599959  -51.341763  -30.273487  0
13.318160  -51.668598  -30.512133  0
9.660004  -51.430893  -30.327085  0
9.704074  -51.613613  -30.279461  0
9.900067  -51.484619  -30.128229  0
13.173924  -51.994205  -30.325909  0
9.792754  -51.835167  -30.231386  0
10.117451  -51.860970  -29.993246  0
9.668825  -52.106834  -30.376434  0
13.028241  -52.385437  -30.201241  0
12.875312  -52.585072  -29.959270  0
10.319132  -52.341877  -29.975435  0
9.733334  -52.421242  -30.401579  0
9.941210  -52.634209  -30.315407  0
9.954962  -52.269325  -30.201563  0
12.990638  -52.781380  -30.246181  0
12.872454  -52.963493  -30.057787  0
10.597525  -52.743530  -29.909784  0
10.064138  -52.940800  -30.334715  0
10.304276  -53.178524  -30.246679  0
10.250987  -52.759724  -30.142962  0
12.910804  -53.120388  -30.330616  0
12.639125  -53.514179  -30.287893  0
12.833302  -53.228771  -30.133530  0
10.481090  -53.616459  -30.279276  0
10.646097  -53.259995  -30.019135  0
12.428848  -53.845093  -30.157328  0
12.121806  -54.116169  -30.202394  0
12.353504  -53.908443  -29.996857  0
10.637449  -54.000591  -30.333670  0
10.797904  -54.153908  -30.292074  0
10.885233  -53.913731  -30.083475  0
11.836769  -54.368519  -30.188414  0
11.589452  -54.503887  -30.431520  0
11.582696  -54.378857  -30.086329  0
10.964615  -54.313065  -30.324778  0
11.267098  -54.485905  -30.394638  0
11.250113  -54.247463  -30.040358  0
13.192092  -49.179882  -29.808619  0
12.826818  -49.118767  -29.895021  0
12.363592  -49.035439  -30.012119  0
13.522178  -49.381821  -29.797045  0
13.859154  -49.686604  -29.728146  0
13.266376  -49.265842  -29.617168  0
12.959677  -49.264744  -29.579924  0
12.103099  -49.216782  -29.799341  0
12.413026  -49.299587  -29.641678  0
11.785684  -49.477909  -29.687410  0
11.291516  -49.677357  -29.801064  0
14.045215  -50.006760  -29.931414  0
13.945859  -49.943520  -29.508821  0
11.711975  -49.859695  -29.464813  0
11.065234  -50.039612  -29.774378  0
11.421096  -49.855091  -29.648394  0
14.102933  -50.434090  -29.917786  0
10.887995  -50.400837  -29.747183  0
11.285606  -50.288376  -29.542919  0
10.611969  -50.619133  -29.841589  0
14.017940  -50.740898  -29.661112  0
13.855562  -51.074596  -29.895075  0
11.179646  -50.849682  -29.455389  0
10.454396  -50.905956  -29.842274  0
10.814182  -50.785519  -29.665388  0
10.165846  -51.151100  -29.973297  0
13.586853  -51.370480  -29.626726  0
13.359288  -51.664700  -29.957891  0
11.153428  -51.362362  -29.435760  0
10.859330  -51.186581  -29.570347  0
10.181093  -51.475006  -29.905855  0
10.377542  -51.655506  -29.793526  0
10.492443  -51.260502  -29.745968  0
13.074166  -51.944756  -29.733236  0
12.836851  -52.227417  -29.734320  0
11.241347  -51.919445  -29.463972  0
10.491500  -52.031773  -29.800152  0
10.763257  -51.670933  -29.623529  0
12.622801  -52.431076  -29.673422  0
12.191298  -52.517326  -29.515190  0
11.603923  -52.333904  -29.450956  0
11.236555  -52.310146  -29.532324  0
10.618188  -52.407219  -29.816771  0
10.853147  -52.634289  -29.744278  0
10.904803  -52.248474  -29.649324  0
12.606398  -52.792168  -29.775425  0
12.220945  -53.057903  -29.620731  0
11.741679  -52.870800  -29.521910  0
10.956041  -53.026180  -29.760361  0
11.232321  -52.677940  -29.593561  0
12.606838  -53.258656  -29.900862  0
12.461131  -53.676872  -29.939129  0
12.222943  -53.529922  -29.699402  0
11.818790  -53.381474  -29.566126  0
11.083093  -53.534336  -29.783466  0
11.374896  -53.216648  -29.603035  0
12.188766  -53.897530  -29.849672  0
11.883609  -54.162830  -29.914074  0
11.865756  -53.825932  -29.675966  0
11.237339  -53.941147  -29.816898  0
11.550167  -54.094837  -29.800177  0
11.476377  -53.698181  -29.644363  0
13.199408  -49.485855  -29.346457  0
12.667386  -49.525379  -29.316521  0
12.147682  -49.630604  -29.393192  0
13.603287  -49.780117  -29.263716  0
13.864544  -50.129189  -29.208046  0
13.245277  -49.735352  -29.064127  0
12.841458  -49.829765  -29.006994  0
11.964123  -49.906509  -29.275167  0
12.325599  -49.860950  -29.143974  0
11.690080  -50.125530  -29.334021  0
14.036119  -50.337765  -29.493454  0
13.865074  -50.482769  -29.079708  0
12.359887  -50.269218  -28.917759  0
11.566864  -50.501949  -29.297709  0
11.954671  -50.192776  -29.154840  0
13.961070  -50.686195  -29.276348  0
13.765167  -51.017258  -29.268505  0
13.841740  -50.752926  -29.064348  0
12.219017  -50.831455  -28.863113  0
11.499915  -51.006420  -29.266148  0
11.883911  -50.649155  -29.081079  0
13.499617  -51.338707  -29.164621  0
13.245859  -51.568882  -29.271664  0
13.348998  -51.383858  -28.980150  0
12.248951  -51.383545  -28.938881  0
11.518303  -51.514908  -29.281487  0
11.846698  -51.177536  -29.082605  0
12.925486  -51.766144  -29.253441  0
12.789550  -51.962090  -29.422810  0
12.587298  -51.723961  -29.086664  0
12.468938  -52.105602  -29.396868  0
12.222894  -51.801765  -29.152094  0
11.631594  -51.910263  -29.323395  0
11.992558  -52.062786  -29.314999  0
11.887178  -51.655811  -29.163397  0
13.197022  -50.050941  -28.833408  0
12.783058  -50.175194  -28.754082  0
13.596138  -50.255344  -28.915821  0
13.241048  -50.501060  -28.661627  0
12.600061  -50.544662  -28.679728  0
12.934424  -50.371754  -28.626572  0
13.591900  -50.740616  -28.860640  0
13.443093  -51.156651  -28.892494  0
13.198573  -50.950069  -28.661963  0
12.545509  -51.012440  -28.692869  0
12.882735  -50.747776  -28.582909  0
13.166665  -51.321342  -28.827513  0
12.610042  -51.383511  -28.800495  0
12.895382  -51.518314  -28.924355  0
12.868058  -51.171547  -28.668903  0
11 16 0 0
1 13 0 0
0 13 11 0
1 19 13 0
16 18 0 0
0 18 1 0
1 18 20 0
1 20 19 0
28 33 2 0
3 30 2 0
2 30 28 0
3 36 30 0
33 35 2 0
2 35 3 0
3 35 37 0
3 37 36 0
46 51 4 0
5 48 4 0
4 48 46 0
5 53 48 0
4 51 6 0
6 51 57 0
4 7 5 0
4 6 7 0
53 5 54 0
5 8 54 0
5 7 8 0
8 59 54 0
6 57 9 0
9 57 63 0
6 10 7 0
6 9 10 0
7 12 8 0
7 10 12 0
59 8 60 0
8 14 60 0
8 12 14 0
14 65 60 0
9 63 15 0
15 63 68 0
9 17 10 0
9 15 17 0
17 16 11 0
12 17 11 0
10 17 12 0
12 11 13 0
12 13 14 0
21 66 19 0
19 66 13 0
66 65 13 0
65 14 13 0
21 70 66 0
15 68 22 0
22 68 73 0
15 23 17 0
15 22 23 0
24 18 16 0
17 24 16 0
23 24 17 0
25 20 18 0
25 18 24 0
25 75 20 0
20 75 19 0
75 71 19 0
71 21 19 0
21 71 70 0
22 73 26 0
26 73 78 0
22 27 23 0
22 26 27 0
23 29 24 0
23 27 29 0
24 31 25 0
24 29 31 0
75 25 80 0
80 25 31 0
26 78 32 0
32 78 83 0
26 34 27 0
26 32 34 0
34 33 28 0
29 34 28 0
27 34 29 0
29 28 30 0
29 30 31 0
38 81 36 0
36 81 30 0
81 80 30 0
80 31 30 0
38 85 81 0
32 83 39 0
39 83 88 0
32 40 34 0
32 39 40 0
41 35 33 0
34 41 33 0
40 41 34 0
42 37 35 0
42 35 41 0
42 93 37 0
37 93 36 0
93 86 36 0
86 38 36 0
38 86 85 0
88 90 39 0
39 90 40 0
40 90 91 0
40 91 41 0
41 91 92 0
41 92 42 0
42 92 94 0
42 94 93 0
101 105 43 0
43 108 101 0
103 111 44 0
45 106 44 0
44 106 103 0
106 45 105 0
45 43 105 0
45 47 43 0
108 43 109 0
43 49 109 0
43 47 49 0
49 113 109 0
44 111 50 0
50 111 116 0
44 52 45 0
44 50 52 0
52 51 46 0
47 52 46 0
45 52 47 0
47 46 48 0
47 48 49 0
55 114 53 0
53 114 48 0
114 113 48 0
113 49 48 0
55 118 114 0
50 116 56 0
56 116 120 0
50 58 52 0
50 56 58 0
58 57 51 0
58 51 52 0
54 55 53 0
61 119 59 0
59 119 54 0
119 118 54 0
118 55 54 0
61 122 119 0
56 120 62 0
62 120 123 0
56 64 58 0
56 62 64 0
64 63 57 0
64 57 58 0
60 61 59 0
60 65 61 0
65 122 61 0
65 125 122 0
62 123 67 0
67 123 128 0
62 69 64 0
62 67 69 0
69 68 63 0
69 63 64 0
126 125 65 0
126 65 66 0
66 70 126 0
126 70 130 0
67 128 72 0
72 128 131 0
67 74 69 0
67 72 74 0
74 73 68 0
74 68 69 0
75 76 71 0
76 133 71 0
133 70 71 0
133 130 70 0
72 131 77 0
77 131 134 0
72 79 74 0
72 77 79 0
79 78 73 0
79 73 74 0
80 82 76 0
80 76 75 0
133 76 137 0
137 76 82 0
134 136 77 0
141 84 136 0
84 77 136 0
84 79 77 0
84 83 78 0
84 78 79 0
81 82 80 0
87 138 85 0
85 138 81 0
138 137 81 0
137 82 81 0
87 143 138 0
84 141 89 0
89 141 146 0
89 88 83 0
89 83 84 0
93 95 86 0
95 148 86 0
86 148 85 0
148 144 85 0
144 87 85 0
87 144 143 0
89 146 96 0
96 146 150 0
97 90 88 0
89 97 88 0
96 97 89 0
98 91 90 0
98 90 97 0
99 92 91 0
99 91 98 0
100 94 92 0
100 92 99 0
100 156 94 0
94 156 93 0
156 149 93 0
149 95 93 0
95 149 148 0
150 152 96 0
96 152 97 0
97 152 153 0
97 153 98 0
98 153 154 0
98 154 99 0
99 154 155 0
99 155 100 0
100 155 157 0
100 157 156 0
161 163 102 0
102 166 161 0
162 168 104 0
107 164 104 0
104 164 162 0
164 107 163 0
163 107 102 0
107 105 102 0
105 101 102 0
110 167 108 0
108 167 101 0
167 166 101 0
166 102 101 0
110 171 167 0
169 173 112 0
169 112 168 0
168 112 104 0
112 111 104 0
111 103 104 0
104 103 106 0
104 106 107 0
107 106 105 0
109 110 108 0
115 172 113 0
113 172 109 0
172 171 109 0
171 110 109 0
115 175 172 0
112 173 117 0
117 173 176 0
117 116 111 0
117 111 112 0
114 115 113 0
114 118 115 0
118 175 115 0
118 178 175 0
117 176 121 0
121 176 180 0
121 120 116 0
121 116 117 0
179 178 118 0
179 118 119 0
119 122 179 0
179 122 182 0
121 180 124 0
124 180 184 0
124 123 120 0
124 120 121 0
125 127 183 0
182 125 183 0
122 125 182 0
127 186 183 0
124 184 129 0
129 184 187 0
129 128 123 0
129 123 124 0
126 127 125 0
126 130 127 0
130 186 127 0
130 189 186 0
129 187 132 0
132 187 190 0
132 131 128 0
132 128 129 0
133 189 130 0
133 192 189 0
132 190 135 0
135 190 194 0
135 134 131 0
135 131 132 0
137 139 193 0
192 137 193 0
133 137 192 0
139 196 193 0
135 194 140 0
140 194 199 0
142 136 134 0
135 142 134 0
140 142 135 0
142 141 136 0
202 138 145 0
202 137 138 0
202 137 139 0
197 202 139 0
143 197 145 0
143 196 197 0
143 138 139 0
196 143 139 0
199 201 140 0
203 147 201 0
147 140 201 0
147 142 140 0
147 146 141 0
147 141 142 0
202 145 144 0
148 202 144 0
205 202 148 0
144 145 143 0
147 203 151 0
151 203 207 0
151 150 146 0
151 146 147 0
211 206 149 0
211 149 156 0
148 149 205 0
205 149 206 0
207 209 151 0
209 213 158 0
209 158 152 0
151 209 152 0
150 151 152 0
159 153 152 0
159 152 158 0
160 154 153 0
160 153 159 0
154 160 217 0
210 154 217 0
155 154 210 0
155 212 157 0
210 212 155 0
156 157 211 0
211 157 212 0
213 215 158 0
158 215 159 0
159 215 216 0
159 216 160 0
160 216 218 0
160 218 217 0
219 223 165 0
163 161 165 0
161 219 165 0
161 220 219 0
161 166 220 0
220 166 226 0
221 229 170 0
168 162 170 0
162 221 170 0
162 224 221 0
164 165 223 0
224 164 223 0
162 164 224 0
165 164 163 0
228 226 166 0
228 166 167 0
167 171 228 0
228 171 232 0
230 235 174 0
230 174 229 0
229 174 170 0
174 173 170 0
173 169 170 0
170 169 168 0
234 232 171 0
234 171 172 0
172 175 234 0
234 175 237 0
174 235 177 0
177 235 239 0
177 176 173 0
177 173 174 0
178 237 175 0
178 241 237 0
177 239 181 0
181 239 243 0
181 180 176 0
181 176 177 0
242 241 178 0
242 178 179 0
179 182 242 0
242 182 245 0
181 243 185 0
185 243 248 0
185 184 180 0
185 180 181 0
247 245 182 0
247 182 183 0
183 186 247 0
247 186 250 0
185 248 188 0
188 248 253 0
188 187 184 0
188 184 185 0
189 250 186 0
189 255 250 0
188 253 191 0
191 253 257 0
191 190 187 0
191 187 188 0
192 255 189 0
192 259 255 0
191 257 195 0
195 257 261 0
195 194 190 0
195 190 191 0
192 193 198 0
263 192 198 0
259 192 263 0
196 198 193 0
195 261 200 0
200 261 265 0
200 199 194 0
200 194 195 0
263 198 197 0
202 263 197 0
268 263 202 0
197 198 196 0
265 267 200 0
267 270 204 0
267 204 201 0
200 267 201 0
199 200 201 0
204 203 201 0
205 268 202 0
205 272 268 0
204 270 208 0
208 270 275 0
208 207 203 0
208 203 204 0
279 273 206 0
279 206 211 0
205 206 272 0
272 206 273 0
275 277 208 0
277 282 214 0
277 214 209 0
208 277 209 0
207 208 209 0
214 213 209 0
287 278 210 0
287 210 217 0
210 280 212 0
278 280 210 0
211 212 279 0
279 212 280 0
282 284 214 0
214 284 213 0
284 215 213 0
284 285 215 0
215 286 216 0
285 286 215 0
216 288 218 0
286 288 216 0
217 218 287 0
287 218 288 0
291 295 222 0
225 292 222 0
222 292 291 0
223 219 225 0
219 292 225 0
219 293 292 0
298 293 227 0
293 220 227 0
293 219 220 0
226 227 220 0
296 302 231 0
296 231 295 0
295 231 222 0
231 229 222 0
229 221 222 0
222 221 224 0
222 224 225 0
225 224 223 0
300 298 227 0
305 300 233 0
233 300 228 0
300 227 228 0
227 226 228 0
232 233 228 0
303 308 236 0
303 236 302 0
302 236 231 0
236 235 231 0
235 230 231 0
231 230 229 0
307 305 233 0
310 307 238 0
238 307 234 0
307 233 234 0
233 232 234 0
237 238 234 0
236 308 240 0
240 308 313 0
240 239 235 0
240 235 236 0
312 310 238 0
238 237 312 0
237 315 312 0
237 241 315 0
240 313 244 0
244 313 318 0
244 243 239 0
244 239 240 0
241 242 246 0
320 241 246 0
315 241 320 0
245 246 242 0
244 318 249 0
249 318 323 0
249 248 243 0
249 243 244 0
321 320 246 0
326 321 251 0
251 321 247 0
321 246 247 0
246 245 247 0
250 251 247 0
324 328 252 0
324 252 323 0
252 249 323 0
252 254 249 0
254 253 248 0
254 248 249 0
326 251 256 0
326 256 331 0
255 256 250 0
250 256 251 0
328 330 252 0
333 258 330 0
258 252 330 0
258 254 252 0
258 257 253 0
258 253 254 0
331 256 260 0
331 260 335 0
259 260 255 0
255 260 256 0
258 333 262 0
262 333 337 0
262 261 257 0
262 257 258 0
335 260 264 0
335 264 339 0
263 264 259 0
259 264 260 0
262 337 266 0
266 337 341 0
266 265 261 0
266 261 262 0
339 264 269 0
339 269 344 0
268 269 263 0
263 269 264 0
341 343 266 0
343 346 271 0
343 271 267 0
266 343 267 0
265 266 267 0
271 270 267 0
344 269 274 0
344 274 348 0
272 274 268 0
268 274 269 0
271 346 276 0
276 346 351 0
276 275 270 0
276 270 271 0
354 349 281 0
281 349 348 0
281 348 274 0
279 281 274 0
273 279 274 0
273 274 272 0
351 353 276 0
353 357 283 0
353 283 277 0
276 353 277 0
275 276 277 0
283 282 277 0
361 355 278 0
361 278 287 0
281 280 354 0
280 355 354 0
280 278 355 0
280 281 279 0
357 359 283 0
283 359 282 0
359 284 282 0
359 360 284 0
360 365 289 0
285 360 289 0
284 360 285 0
290 286 285 0
290 285 289 0
286 290 368 0
362 286 368 0
288 286 362 0
287 288 361 0
361 288 362 0
365 367 289 0
289 367 290 0
290 367 369 0
290 369 368 0
371 378 294 0
297 373 294 0
294 373 371 0
295 291 297 0
291 373 297 0
291 375 373 0
377 291 292 0
377 375 291 0
381 377 299 0
377 293 299 0
377 292 293 0
298 299 293 0
379 383 301 0
379 301 378 0
301 294 378 0
301 304 294 0
304 302 296 0
297 304 296 0
294 304 297 0
297 296 295 0
382 381 299 0
385 382 306 0
306 382 300 0
382 299 300 0
299 298 300 0
305 306 300 0
301 383 309 0
309 383 387 0
309 308 303 0
304 309 303 0
301 309 304 0
304 303 302 0
386 385 306 0
389 386 311 0
311 386 307 0
386 306 307 0
306 305 307 0
310 311 307 0
309 387 314 0
314 387 392 0
314 313 308 0
314 308 309 0
391 389 311 0
395 391 316 0
316 391 312 0
391 311 312 0
311 310 312 0
315 316 312 0
393 398 317 0
393 317 392 0
317 314 392 0
317 319 314 0
319 318 313 0
319 313 314 0
397 395 316 0
316 315 397 0
315 400 397 0
315 320 400 0
317 398 322 0
322 398 402 0
317 325 319 0
317 322 325 0
325 323 318 0
325 318 319 0
320 321 327 0
404 320 327 0
400 320 404 0
326 327 321 0
322 402 329 0
329 402 406 0
329 328 324 0
325 329 324 0
322 329 325 0
325 324 323 0
404 327 332 0
404 332 409 0
331 332 326 0
326 332 327 0
406 408 329 0
408 411 334 0
408 334 330 0
329 408 330 0
328 329 330 0
334 333 330 0
409 332 336 0
409 336 413 0
335 336 331 0
331 336 332 0
334 411 338 0
338 411 415 0
338 337 333 0
338 333 334 0
413 336 340 0
413 340 417 0
339 340 335 0
335 340 336 0
338 415 342 0
342 415 419 0
342 341 337 0
342 337 338 0
417 340 345 0
417 345 422 0
344 345 339 0
339 345 340 0
419 421 342 0
421 424 347 0
421 347 343 0
342 421 343 0
341 342 343 0
347 346 343 0
422 345 350 0
422 350 426 0
348 350 344 0
344 350 345 0
347 424 352 0
352 424 429 0
352 351 346 0
352 346 347 0
431 427 356 0
356 427 426 0
356 426 350 0
354 356 350 0
349 354 350 0
349 350 348 0
429 430 352 0
430 434 358 0
430 358 353 0
352 430 353 0
351 352 353 0
358 357 353 0
437 432 363 0
363 432 431 0
363 431 356 0
361 363 356 0
355 361 356 0
355 356 354 0
434 436 358 0
436 440 364 0
436 364 359 0
358 436 359 0
357 358 359 0
366 360 359 0
366 359 364 0
366 365 360 0
444 438 370 0
370 438 437 0
370 437 363 0
368 370 363 0
362 368 363 0
362 363 361 0
440 442 364 0
364 442 366 0
366 442 443 0
366 443 365 0
443 367 365 0
443 445 367 0
370 369 444 0
369 445 444 0
369 367 445 0
369 370 368 0
447 450 372 0
374 448 372 0
372 448 447 0
376 449 374 0
374 449 448 0
376 453 449 0
451 455 380 0
451 380 450 0
450 380 372 0
380 378 372 0
378 371 372 0
372 371 373 0
372 373 374 0
374 373 375 0
374 375 376 0
454 453 376 0
375 454 376 0
377 454 375 0
377 381 454 0
454 381 458 0
456 460 384 0
456 384 455 0
455 384 380 0
384 383 380 0
383 379 380 0
380 379 378 0
459 458 381 0
459 381 382 0
382 385 459 0
459 385 461 0
384 460 388 0
388 460 463 0
388 387 383 0
388 383 384 0
385 386 390 0
464 385 390 0
461 385 464 0
389 390 386 0
388 463 394 0
394 463 466 0
394 392 387 0
394 387 388 0
465 464 390 0
469 465 396 0
396 465 391 0
465 390 391 0
390 389 391 0
395 396 391 0
467 472 399 0
467 399 466 0
466 399 394 0
399 398 394 0
398 393 394 0
394 393 392 0
471 469 396 0
474 471 401 0
401 471 397 0
471 396 397 0
396 395 397 0
400 401 397 0
399 472 403 0
403 472 476 0
403 402 398 0
403 398 399 0
474 401 405 0
474 405 477 0
404 405 400 0
400 405 401 0
403 476 407 0
407 476 479 0
407 406 402 0
407 402 403 0
477 405 410 0
477 410 481 0
409 410 404 0
404 410 405 0
479 480 407 0
480 483 412 0
480 412 408 0
407 480 408 0
406 407 408 0
412 411 408 0
481 410 414 0
481 414 485 0
413 414 409 0
409 414 410 0
412 483 416 0
416 483 487 0
416 415 411 0
416 411 412 0
485 414 418 0
485 418 489 0
417 418 413 0
413 418 414 0
416 487 420 0
420 487 491 0
420 419 415 0
420 415 416 0
489 418 423 0
489 423 494 0
422 423 417 0
417 423 418 0
491 493 420 0
493 496 425 0
493 425 421 0
420 493 421 0
419 420 421 0
425 424 421 0
494 423 428 0
494 428 499 0
426 428 422 0
422 428 423 0
496 498 425 0
424 425 498 0
502 424 498 0
429 424 502 0
504 500 433 0
433 500 499 0
433 499 428 0
431 433 428 0
427 431 428 0
427 428 426 0
430 429 435 0
429 507 435 0
429 502 507 0
435 434 430 0
509 505 439 0
439 505 504 0
439 504 433 0
437 439 433 0
432 437 433 0
432 433 431 0
507 508 435 0
508 511 441 0
508 441 436 0
435 508 436 0
434 435 436 0
441 440 436 0
514 510 446 0
446 510 509 0
446 509 439 0
444 446 439 0
438 444 439 0
438 439 437 0
511 512 441 0
441 512 440 0
512 442 440 0
512 513 442 0
442 515 443 0
513 515 442 0
446 445 514 0
445 515 514 0
445 443 515 0
445 446 444 0
516 520 452 0
450 447 452 0
447 516 452 0
447 517 516 0
518 447 448 0
518 517 447 0
519 448 449 0
519 518 448 0
449 453 519 0
519 453 523 0
521 526 457 0
521 457 520 0
520 457 452 0
457 455 452 0
455 451 452 0
452 451 450 0
525 523 453 0
525 453 454 0
454 458 525 0
525 458 527 0
457 526 456 0
526 460 456 0
526 529 460 0
457 456 455 0
458 459 462 0
531 458 462 0
527 458 531 0
461 462 459 0
529 463 460 0
533 463 529 0
532 531 462 0
462 461 532 0
461 536 532 0
461 464 536 0
534 538 468 0
533 534 468 0
466 533 468 0
463 533 466 0
464 465 470 0
540 464 470 0
536 464 540 0
469 470 465 0
468 538 467 0
538 472 467 0
538 542 472 0
468 467 466 0
540 470 473 0
540 473 544 0
471 475 469 0
475 470 469 0
475 473 470 0
474 475 471 0
542 476 472 0
546 476 542 0
545 544 473 0
478 548 545 0
473 478 545 0
475 478 473 0
477 478 474 0
474 478 475 0
546 479 476 0
550 479 546 0
548 478 482 0
548 482 552 0
481 482 477 0
477 482 478 0
480 479 484 0
479 554 484 0
479 550 554 0
484 483 480 0
552 482 486 0
552 486 555 0
485 486 481 0
481 486 482 0
484 554 488 0
488 554 557 0
488 487 483 0
488 483 484 0
555 486 490 0
555 490 558 0
489 490 485 0
485 490 486 0
488 557 492 0
492 557 560 0
492 491 487 0
492 487 488 0
558 490 495 0
558 495 562 0
494 495 489 0
489 495 490 0
560 561 492 0
561 564 497 0
561 497 493 0
492 561 493 0
491 492 493 0
497 496 493 0
562 495 501 0
562 501 566 0
499 501 494 0
494 501 495 0
564 565 497 0
565 569 503 0
565 503 498 0
497 565 498 0
496 497 498 0
503 502 498 0
571 567 506 0
506 567 566 0
506 566 501 0
504 506 501 0
500 504 501 0
500 501 499 0
569 570 503 0
502 503 570 0
573 502 570 0
507 502 573 0
571 506 505 0
509 571 505 0
575 571 509 0
505 506 504 0
573 574 507 0
507 574 508 0
511 508 574 0
511 574 578 0
583 576 510 0
583 510 514 0
509 510 575 0
575 510 576 0
578 579 511 0
511 579 512 0
512 581 513 0
579 581 512 0
513 584 515 0
581 584 513 0
514 515 583 0
583 515 584 0
586 588 516 0
516 588 520 0
587 516 517 0
587 586 516 0
591 587 522 0
587 518 522 0
587 517 518 0
519 524 518 0
518 524 522 0
523 524 519 0
589 595 521 0
521 595 526 0
521 520 588 0
521 588 589 0
593 591 522 0
593 522 524 0
593 524 594 0
598 594 528 0
528 594 525 0
594 524 525 0
524 523 525 0
527 528 525 0
596 601 530 0
595 596 530 0
529 595 530 0
526 595 529 0
600 598 528 0
528 527 600 0
527 602 600 0
527 531 602 0
530 601 535 0
535 601 604 0
535 533 529 0
535 529 530 0
531 532 537 0
607 531 537 0
602 531 607 0
536 537 532 0
605 609 539 0
605 539 604 0
604 539 535 0
539 538 535 0
538 534 535 0
535 534 533 0
607 537 541 0
607 541 611 0
540 541 536 0
536 541 537 0
539 609 543 0
543 609 614 0
543 542 538 0
543 538 539 0
613 611 541 0
541 540 613 0
540 616 613 0
540 544 616 0
543 614 547 0
547 614 618 0
547 546 542 0
547 542 543 0
544 545 549 0
620 544 549 0
616 544 620 0
548 549 545 0
547 618 551 0
551 618 622 0
551 550 546 0
551 546 547 0
620 549 553 0
620 553 625 0
552 553 548 0
548 553 549 0
622 624 551 0
550 551 624 0
627 550 624 0
554 550 627 0
625 553 556 0
625 556 629 0
555 556 552 0
552 556 553 0
627 557 554 0
631 557 627 0
629 556 559 0
629 559 633 0
558 559 555 0
555 559 556 0
631 560 557 0
635 560 631 0
633 559 563 0
633 563 639 0
562 563 558 0
558 563 559 0
635 637 560 0
560 637 561 0
564 561 637 0
564 637 641 0
639 563 568 0
639 568 645 0
566 568 562 0
562 568 563 0
641 643 564 0
564 643 565 0
569 565 643 0
569 643 648 0
651 646 572 0
572 646 645 0
572 645 568 0
571 572 568 0
567 571 568 0
567 568 566 0
648 650 569 0
569 650 570 0
573 570 650 0
573 650 653 0
651 572 577 0
651 577 660 0
575 577 571 0
571 577 572 0
653 655 573 0
573 655 574 0
656 580 578 0
574 656 578 0
655 656 574 0
658 582 580 0
658 580 656 0
661 585 582 0
661 582 658 0
585 661 660 0
585 660 577 0
583 585 577 0
576 583 577 0
576 577 575 0
580 579 578 0
579 580 581 0
581 580 582 0
581 582 584 0
