#!ascii version of /Users/gilles/git/nukkies/notebooks/data/FMFT_STh_R_dil.asc
890 1778
-4.949894  -48.172741  -35.900967  0
-5.302518  -48.191559  -35.985779  0
-7.093955  -42.911766  -35.778389  0
-7.042426  -42.690422  -35.516506  0
-7.418646  -42.851482  -35.787033  0
-7.614583  -42.541359  -35.548725  0
-7.932927  -42.826405  -35.777462  0
-8.145151  -42.529831  -35.531593  0
-8.495503  -42.851143  -35.667557  0
-8.483737  -42.545601  -35.469784  0
-6.807834  -43.084930  -35.779625  0
-6.525283  -43.289219  -35.791916  0
-6.496274  -43.071930  -35.507225  0
-8.793331  -43.145412  -35.681625  0
-9.047923  -43.302910  -35.519020  0
-6.246703  -43.548103  -35.798771  0
-5.966431  -43.812023  -35.808254  0
-5.972974  -43.584221  -35.511009  0
-8.817417  -43.501194  -35.716427  0
-9.074895  -43.717957  -35.503239  0
-5.703568  -44.077923  -35.808880  0
-5.446003  -44.328102  -35.805614  0
-5.470719  -44.083046  -35.495735  0
-8.819955  -44.037975  -35.639336  0
-8.620702  -44.443497  -35.686714  0
-9.085875  -44.005310  -35.452003  0
-5.221670  -44.531841  -35.762623  0
-4.973880  -44.756012  -35.664680  0
-5.099119  -44.437042  -35.442299  0
-8.389168  -44.631630  -35.800404  0
-8.579154  -44.832073  -35.576508  0
-4.827705  -45.114521  -35.678268  0
-8.256337  -45.019810  -35.747623  0
-8.097656  -45.375938  -35.697716  0
-8.422022  -45.336273  -35.470421  0
-4.671562  -45.606129  -35.585228  0
-4.493379  -46.019146  -35.613514  0
-7.863325  -45.533409  -35.794727  0
-7.632812  -45.773224  -35.856426  0
-7.991577  -45.749325  -35.594074  0
-8.351551  -45.830219  -35.288132  0
-4.385660  -46.342216  -35.727852  0
-4.418211  -46.275730  -35.438366  0
-7.344321  -46.070354  -35.969116  0
-7.634957  -46.175278  -35.683956  0
-7.976985  -46.247959  -35.368393  0
-4.332743  -46.726021  -35.809853  0
-7.311299  -46.537506  -35.824303  0
-7.615956  -46.692513  -35.479420  0
-4.319073  -47.136765  -35.719112  0
-7.274745  -47.113071  -35.614716  0
-7.091300  -47.477833  -35.613209  0
-7.538591  -47.067352  -35.383781  0
-4.380118  -47.564209  -35.563663  0
-4.653738  -47.927200  -35.798805  0
-6.199688  -47.931892  -35.893780  0
-6.871899  -47.717449  -35.617710  0
-6.556137  -47.930786  -35.661041  0
-7.094041  -47.675613  -35.482140  0
-4.824939  -48.199394  -35.564266  0
-5.191240  -48.337738  -35.666691  0
-5.738491  -48.103165  -35.977879  0
-5.616418  -48.330978  -35.692379  0
-5.979059  -48.227470  -35.702526  0
-6.327354  -48.201397  -35.507805  0
-6.969417  -42.461761  -35.134918  0
-7.360263  -42.305813  -35.172615  0
-7.731133  -42.062618  -34.957706  0
-7.898160  -42.268822  -35.278225  0
-8.177964  -42.065559  -35.004463  0
-8.478899  -42.291451  -35.201729  0
-8.486920  -42.076733  -34.963589  0
-6.734734  -42.678879  -35.242722  0
-6.488305  -42.848553  -35.073086  0
-8.796476  -42.589329  -35.338062  0
-8.954355  -42.929211  -35.462048  0
-9.261043  -42.722153  -35.102287  0
-9.610344  -42.747807  -34.849846  0
-6.233062  -43.157669  -35.218861  0
-5.987870  -43.387974  -35.051830  0
-9.237814  -43.102703  -35.296989  0
-9.531881  -43.160969  -35.029083  0
-5.726283  -43.698589  -35.202694  0
-5.489883  -43.919827  -35.024738  0
-9.302651  -43.488586  -35.290230  0
-9.543203  -43.728226  -35.034607  0
-5.247976  -44.177288  -35.168266  0
-5.036741  -44.420071  -35.066479  0
-9.275826  -43.930439  -35.279144  0
-9.117033  -44.265980  -35.336681  0
-9.449591  -44.296352  -35.008434  0
-4.884952  -44.740009  -35.361900  0
-8.863943  -44.553211  -35.451050  0
-9.145440  -44.688793  -35.153461  0
-9.427436  -44.803642  -34.858536  0
-4.784092  -45.110977  -35.272469  0
-8.833203  -45.021881  -35.286449  0
-9.146286  -45.160454  -34.971382  0
-4.800612  -45.537952  -35.077713  0
-4.965669  -45.668880  -34.790443  0
-8.790230  -45.561401  -35.088818  0
-8.573811  -45.933567  -35.075138  0
-9.083823  -45.480118  -34.900646  0
-4.615874  -46.038673  -35.223999  0
-4.477679  -46.440796  -35.141628  0
-8.349969  -46.205944  -35.093945  0
-8.093708  -46.496765  -35.136787  0
-8.578093  -46.103161  -34.982250  0
-4.319899  -46.726879  -35.385670  0
-4.450007  -46.744404  -34.954075  0
-7.882627  -46.663994  -35.238506  0
-8.032485  -46.814583  -35.027607  0
-4.271849  -47.215153  -35.346050  0
-7.791765  -47.084278  -35.116192  0
-7.531970  -47.375584  -35.216106  0
-8.010330  -47.054428  -34.930325  0
-4.335297  -47.499336  -35.133556  0
-4.555795  -47.878292  -35.224121  0
-4.429197  -47.642700  -34.940594  0
-7.306904  -47.657444  -35.247433  0
-7.073923  -47.922310  -35.255985  0
-7.540754  -47.654388  -35.019440  0
-4.817783  -48.192856  -35.203487  0
-5.107251  -48.351799  -35.287231  0
-5.041006  -48.274616  -34.951328  0
-5.562766  -48.433716  -35.303886  0
-6.001208  -48.393768  -35.373024  0
-6.752841  -48.181400  -35.225544  0
-6.407022  -48.439438  -35.096420  0
-7.032551  -48.181767  -35.008705  0
-6.493191  -48.615192  -34.783764  0
-7.684763  -41.966713  -34.557030  0
-8.073241  -41.911560  -34.675728  0
-8.493276  -41.947899  -34.715214  0
-7.404352  -42.117664  -34.781860  0
-7.073878  -42.331123  -34.740891  0
-8.796617  -42.085667  -34.817677  0
-9.034369  -42.336014  -34.968327  0
-9.233838  -42.105579  -34.593712  0
-9.532702  -42.376781  -34.647652  0
-9.502337  -42.121208  -34.427994  0
-6.748175  -42.567532  -34.898342  0
-6.535033  -42.804214  -34.650120  0
-9.800598  -42.640255  -34.624302  0
-10.023130  -42.790520  -34.436947  0
-6.261351  -43.079613  -34.832706  0
-6.046164  -43.359837  -34.612526  0
-9.825538  -42.983776  -34.731911  0
-10.065241  -43.227840  -34.508949  0
-5.764043  -43.664158  -34.760769  0
-5.546451  -43.925812  -34.651241  0
-9.818804  -43.468082  -34.784260  0
-10.065658  -43.740288  -34.526752  0
-5.303195  -44.186661  -34.721569  0
-5.065187  -44.486214  -34.737129  0
-5.510231  -44.065605  -34.466213  0
-9.796244  -44.014038  -34.751766  0
-10.056750  -44.246841  -34.460381  0
-4.900265  -44.731838  -34.977001  0
-5.036309  -44.798725  -34.628750  0
-9.787591  -44.597572  -34.605320  0
-9.605820  -44.969940  -34.638763  0
-10.054501  -44.560612  -34.379875  0
-4.886676  -45.084747  -34.884125  0
-4.953500  -45.376465  -34.784260  0
-5.038435  -45.142025  -34.611874  0
-9.411748  -45.127281  -34.754738  0
-9.566701  -45.306496  -34.552940  0
-5.135772  -45.529583  -34.510738  0
-5.068146  -45.916790  -34.597637  0
-9.292408  -45.432468  -34.744381  0
-9.069384  -45.743580  -34.792454  0
-9.423143  -45.783195  -34.495129  0
-4.869700  -46.000969  -34.840714  0
-5.031308  -46.297550  -34.494759  0
-8.774048  -45.976967  -34.903084  0
-8.599005  -46.291183  -34.862480  0
-8.981347  -46.200352  -34.637699  0
-9.358636  -46.269943  -34.354908  0
-4.736564  -46.568081  -34.697258  0
-4.530267  -46.971088  -34.696358  0
-4.990814  -46.598553  -34.384579  0
-8.306393  -46.575569  -34.927677  0
-8.598513  -46.658112  -34.681419  0
-8.981149  -46.679932  -34.429546  0
-4.352032  -47.121449  -34.968220  0
-4.402702  -47.449360  -34.833527  0
-4.499478  -47.277073  -34.661797  0
-8.237889  -46.949425  -34.799885  0
-8.072303  -47.273006  -34.775181  0
-8.517480  -47.196327  -34.494934  0
-4.639413  -47.634243  -34.633831  0
-4.838997  -48.041500  -34.800304  0
-7.812889  -47.625893  -34.774765  0
-7.547836  -47.899387  -34.787212  0
-8.183333  -47.560879  -34.534912  0
-8.429160  -47.657295  -34.315052  0
-5.194004  -48.201832  -34.520123  0
-5.485445  -48.405888  -34.803776  0
-6.121599  -48.539734  -34.866253  0
-7.294074  -48.159237  -34.759918  0
-6.922184  -48.438614  -34.726109  0
-7.566407  -48.144169  -34.517731  0
-6.508707  -48.670010  -34.644951  0
-6.679225  -48.573112  -34.738029  0
-6.711566  -48.703796  -34.505146  0
-6.648338  -48.696617  -34.518555  0
-6.839889  -48.655170  -34.453117  0
-7.721122  -41.980835  -34.119614  0
-8.039160  -41.849041  -34.256607  0
-8.460530  -41.815582  -34.310200  0
-8.974415  -41.894245  -34.338272  0
-9.408050  -41.983067  -34.264206  0
-7.376839  -42.195183  -34.288544  0
-7.059849  -42.458504  -34.291241  0
-7.569030  -42.123016  -33.991051  0
-9.718976  -42.125919  -34.141106  0
-9.913929  -42.447010  -34.316071  0
-6.806308  -42.584213  -34.490013  0
-6.644900  -42.835396  -34.299683  0
-6.904379  -42.764763  -34.065117  0
-10.163423  -42.604675  -34.123749  0
-6.389036  -43.162949  -34.288197  0
-6.111829  -43.472649  -34.253441  0
-6.689910  -43.019718  -34.030415  0
-6.875391  -43.051540  -33.811123  0
-10.289740  -42.974148  -34.160854  0
-10.519870  -43.279057  -33.988754  0
-5.918555  -43.621262  -34.390583  0
-6.038096  -43.774353  -34.048241  0
-10.300825  -43.490025  -34.265209  0
-10.540205  -43.754723  -34.031719  0
-5.765659  -43.999561  -34.234982  0
-5.502538  -44.315517  -34.282875  0
-5.999273  -44.024773  -33.901871  0
-10.305012  -44.006756  -34.255116  0
-10.550275  -44.246490  -33.984730  0
-5.257269  -44.557796  -34.428059  0
-5.508223  -44.778439  -34.072872  0
-10.305899  -44.553642  -34.135071  0
-10.060829  -44.849987  -34.268803  0
-10.552620  -44.564262  -33.905392  0
-5.259540  -45.061272  -34.323467  0
-5.523165  -45.284679  -33.973278  0
-9.820498  -45.075294  -34.409710  0
-10.072460  -45.287281  -34.110229  0
-5.354823  -45.535107  -34.189430  0
-5.517888  -45.773346  -33.921219  0
-9.803213  -45.527119  -34.277237  0
-10.081673  -45.742699  -33.972328  0
-5.285395  -46.056168  -34.208832  0
-5.502986  -46.178440  -33.839214  0
-9.794904  -46.071613  -34.114372  0
-9.566176  -46.432224  -34.160717  0
-10.091619  -46.048313  -33.881939  0
-5.170732  -46.588001  -34.157917  0
-4.989589  -46.896866  -34.220821  0
-9.317386  -46.578876  -34.267559  0
-9.165833  -46.841488  -34.256763  0
-9.470027  -46.827824  -34.061825  0
-4.741523  -47.184711  -34.406731  0
-5.021532  -47.324543  -34.028454  0
-8.918303  -47.085167  -34.299015  0
-9.153683  -47.169914  -34.119373  0
-9.435307  -47.288368  -33.863224  0
-4.882380  -47.545837  -34.211140  0
-5.065941  -47.855911  -34.193642  0
-5.040854  -47.598503  -34.008190  0
-8.154112  -47.918423  -34.308399  0
-8.820542  -47.587620  -34.103729  0
-8.515665  -47.931572  -34.085114  0
-9.176210  -47.523991  -33.917816  0
-5.371662  -48.126408  -34.090549  0
-5.586695  -48.324821  -34.235897  0
-5.633885  -48.200676  -33.866524  0
-6.010996  -48.499588  -34.351765  0
-6.549906  -48.629353  -34.492046  0
-7.784999  -48.055210  -34.427380  0
-7.631111  -48.392189  -34.179031  0
-8.010981  -48.235645  -34.105347  0
-8.360988  -48.226292  -33.931252  0
-6.764281  -48.728016  -34.159348  0
-7.184808  -48.538116  -34.359367  0
-7.004433  -48.726337  -34.173737  0
-8.066253  -41.911659  -33.741833  0
-8.373849  -41.784542  -33.903538  0
-8.843596  -41.720222  -33.779999  0
-9.202471  -41.569130  -33.429806  0
-9.481136  -41.788525  -33.738571  0
-9.446412  -41.568314  -33.403248  0
-7.774876  -42.147232  -33.665436  0
-7.508195  -42.361397  -33.770061  0
-7.988006  -42.058437  -33.478004  0
-9.907654  -42.014378  -33.697395  0
-10.151456  -42.276657  -33.798409  0
-10.116325  -42.052868  -33.513355  0
-7.237760  -42.623867  -33.840851  0
-7.463904  -42.699867  -33.461113  0
-10.410133  -42.625092  -33.830555  0
-10.530853  -42.923126  -33.864792  0
-10.764637  -42.735069  -33.559933  0
-11.098004  -42.758087  -33.332321  0
-6.692660  -43.376614  -33.692360  0
-7.072665  -42.940403  -33.705521  0
-7.000837  -43.189892  -33.542004  0
-10.711750  -43.105453  -33.753014  0
-11.022975  -43.171307  -33.521473  0
-6.314395  -43.592056  -33.900719  0
-6.513463  -43.806252  -33.493824  0
-10.780934  -43.509373  -33.787964  0
-11.143024  -43.777885  -33.539768  0
-6.246201  -44.045040  -33.604427  0
-5.995179  -44.313828  -33.733074  0
-6.460736  -44.042065  -33.348610  0
-10.806494  -44.015560  -33.792152  0
-11.050869  -44.234322  -33.593487  0
-11.381716  -44.261971  -33.352036  0
-5.754305  -44.529430  -33.900692  0
-6.005551  -44.780659  -33.489761  0
-10.810541  -44.568470  -33.660130  0
-10.555488  -44.877625  -33.774818  0
-11.130469  -44.531410  -33.438549  0
-5.767886  -45.089283  -33.685371  0
-6.003736  -45.185932  -33.339134  0
-10.313320  -45.068504  -33.947105  0
-10.548158  -45.337593  -33.602890  0
-5.682337  -45.547585  -33.706310  0
-10.324244  -45.539673  -33.788055  0
-10.545041  -45.777313  -33.467010  0
-5.690784  -46.016998  -33.570290  0
-5.584286  -46.431278  -33.607506  0
-10.341055  -46.072685  -33.609512  0
-10.095746  -46.367634  -33.756557  0
-10.557789  -46.071659  -33.360794  0
-5.398535  -46.539711  -33.853928  0
-5.549935  -46.832405  -33.521713  0
-9.816864  -46.583248  -33.909615  0
-10.081146  -46.827503  -33.568340  0
-5.269269  -47.027740  -33.830585  0
-5.513414  -47.302109  -33.486965  0
-9.809528  -47.133621  -33.638008  0
-9.624479  -47.492561  -33.586548  0
-10.067512  -47.116314  -33.433334  0
-5.261456  -47.546368  -33.779327  0
-5.523689  -47.909367  -33.684090  0
-5.503359  -47.611317  -33.519939  0
-9.416853  -47.718872  -33.602818  0
-9.114563  -47.913944  -33.701736  0
-9.622938  -47.705627  -33.437946  0
-5.813151  -48.156818  -33.600544  0
-5.991344  -48.360096  -33.792652  0
-6.078637  -48.215794  -33.416267  0
-6.426299  -48.580322  -33.923145  0
-7.711952  -48.655098  -33.756516  0
-8.090324  -48.514103  -33.759926  0
-8.802351  -48.196606  -33.704025  0
-8.509156  -48.474731  -33.622391  0
-9.105910  -48.213345  -33.490009  0
-6.800038  -48.702564  -33.537403  0
-7.368493  -48.684456  -33.932713  0
-7.160973  -48.806442  -33.671551  0
-7.544131  -48.794376  -33.583599  0
-7.922325  -48.771381  -33.446136  0
-8.379940  -48.712948  -33.374634  0
-9.175814  -41.495316  -33.009228  0
-9.405911  -41.482780  -33.179237  0
-8.907145  -41.614544  -33.269024  0
-8.506666  -41.824066  -33.282345  0
-9.707830  -41.575951  -33.148663  0
-10.035098  -41.841396  -33.287575  0
-8.164031  -42.021271  -33.292351  0
-7.979397  -42.281815  -33.132248  0
-10.366906  -42.063797  -33.299118  0
-10.584359  -42.344723  -33.440422  0
-10.763421  -42.090378  -33.031376  0
-11.045080  -42.377483  -33.110439  0
-11.022935  -42.109344  -32.867489  0
-7.690958  -42.561813  -33.257790  0
-7.543246  -42.883881  -33.149437  0
-11.317930  -42.644249  -33.116390  0
-11.577934  -42.790810  -32.942081  0
-7.299414  -43.093067  -33.245846  0
-7.003408  -43.474224  -33.216698  0
-7.520729  -43.068523  -32.953487  0
-11.342283  -42.982883  -33.239697  0
-11.627681  -43.194267  -33.057934  0
-6.773036  -43.769234  -33.203808  0
-6.979043  -43.787254  -32.884666  0
-11.392706  -43.412308  -33.310413  0
-11.605611  -43.813175  -33.214714  0
-11.632058  -43.493412  -33.147038  0
-6.609896  -44.013691  -33.179848  0
-6.483304  -44.279110  -33.112316  0
-11.784022  -44.231956  -33.063366  0
-11.574550  -44.488716  -33.149464  0
-12.030167  -44.133820  -32.873341  0
-6.237250  -44.526066  -33.304195  0
-11.359022  -44.686485  -33.141918  0
-11.059518  -44.891140  -33.250172  0
-11.563004  -44.649841  -33.023968  0
-6.294164  -45.056953  -33.009018  0
-6.094394  -45.439983  -33.129761  0
-6.537009  -45.121475  -32.709717  0
-10.804567  -45.178234  -33.354965  0
-11.022026  -45.269470  -32.992443  0
-5.879233  -45.589062  -33.387268  0
-6.060941  -45.824287  -33.052525  0
-10.713866  -45.607315  -33.284428  0
-5.880562  -46.046009  -33.246479  0
-6.036476  -46.287037  -32.980770  0
-10.714497  -46.038334  -33.103416  0
-10.569438  -46.377655  -33.189110  0
-5.786051  -46.506252  -33.282745  0
-6.047201  -46.786434  -32.942741  0
-10.358933  -46.683029  -33.318127  0
-10.585573  -46.778366  -32.941597  0
-5.791740  -47.072987  -33.214108  0
-6.154857  -47.331696  -32.920227  0
-10.236716  -47.125469  -33.217167  0
-10.063524  -47.375675  -33.235081  0
-5.781606  -47.591740  -33.290367  0
-5.918141  -47.982605  -33.351120  0
-6.156854  -47.804146  -33.071804  0
-6.467986  -47.709572  -32.797401  0
-9.827869  -47.667500  -33.214584  0
-9.599606  -47.937572  -33.247444  0
-10.057011  -47.631622  -32.979824  0
-6.213010  -48.098152  -33.195560  0
-6.504685  -48.370094  -33.247208  0
-6.420599  -48.020271  -32.993214  0
-9.354841  -48.182178  -33.258850  0
-9.079011  -48.446133  -33.273254  0
-9.572780  -48.158604  -33.054691  0
-6.905162  -48.651653  -33.091339  0
-7.151026  -48.819050  -33.190155  0
-7.149199  -48.729088  -32.868111  0
-7.604540  -48.874424  -33.212627  0
-8.168707  -48.869900  -33.084095  0
-8.770872  -48.600945  -33.338043  0
-8.645963  -48.808826  -33.037342  0
-8.976996  -48.689278  -33.032887  0
-9.235573  -41.498959  -32.553017  0
-9.564383  -41.442677  -32.754852  0
-8.884214  -41.694485  -32.706341  0
-8.588231  -41.958065  -32.677963  0
-9.078366  -41.609810  -32.394329  0
-9.937146  -41.494404  -32.719402  0
-10.106098  -41.632439  -32.879436  0
-10.286631  -41.556992  -32.521194  0
-10.525286  -41.807194  -32.772900  0
-10.599942  -41.634651  -32.339771  0
-10.930119  -41.965389  -32.699562  0
-8.313807  -42.182201  -32.758877  0
-8.077849  -42.470276  -32.675488  0
-8.532698  -42.135353  -32.457264  0
-11.224940  -42.127174  -32.596565  0
-11.444261  -42.447556  -32.808640  0
-7.882587  -42.676300  -32.753864  0
-8.027072  -42.724323  -32.426003  0
-11.703467  -42.609478  -32.603340  0
-7.675828  -42.941193  -32.823639  0
-7.519623  -43.288853  -32.622555  0
-11.865494  -42.985317  -32.654648  0
-12.114587  -43.307621  -32.496906  0
-7.221272  -43.602180  -32.719761  0
-7.061490  -43.922226  -32.590176  0
-11.875200  -43.489964  -32.911480  0
-11.966022  -43.904213  -32.937061  0
-12.130448  -43.664013  -32.676895  0
-6.824853  -44.143875  -32.752262  0
-6.618217  -44.473682  -32.763451  0
-7.049722  -44.089405  -32.446728  0
-12.189416  -43.977421  -32.625938  0
-12.053322  -44.334541  -32.664272  0
-6.455520  -44.652500  -32.907135  0
-6.613427  -44.889545  -32.652302  0
-6.603575  -44.658047  -32.680458  0
-11.745569  -44.550167  -32.898041  0
-11.561934  -44.829803  -32.715069  0
-6.760768  -45.202175  -32.464020  0
-6.518046  -45.376480  -32.667282  0
-6.979183  -45.170174  -32.267906  0
-11.247311  -45.108032  -32.782021  0
-11.094522  -45.460186  -32.671307  0
-6.280389  -45.578690  -32.859726  0
-6.508780  -45.796272  -32.551777  0
-10.906151  -45.701706  -32.879650  0
-11.057297  -45.736912  -32.446217  0
-6.264871  -46.037464  -32.754532  0
-6.506637  -46.258694  -32.465767  0
-10.841550  -46.123009  -32.774487  0
-6.270787  -46.510612  -32.694492  0
-6.525030  -46.713505  -32.451389  0
-10.747084  -46.546249  -32.685654  0
-10.660144  -46.995789  -32.632450  0
-6.337664  -46.955070  -32.667126  0
-6.562389  -47.318352  -32.570080  0
-6.544008  -47.009445  -32.484573  0
-10.470911  -47.164291  -32.821999  0
-10.613068  -47.273365  -32.421368  0
-6.744301  -47.682056  -32.559349  0
-6.990695  -47.845791  -32.411915  0
-10.233323  -47.490875  -32.865704  0
-9.976101  -47.871407  -32.607666  0
-6.746207  -48.035564  -32.728786  0
-7.040723  -48.416397  -32.689503  0
-7.018283  -48.105030  -32.504826  0
-9.705928  -48.074966  -32.906433  0
-9.522693  -48.292824  -32.894314  0
-9.546168  -48.298607  -32.541737  0
-7.341538  -48.675468  -32.625809  0
-7.453826  -48.835945  -32.842918  0
-7.704854  -48.720688  -32.510586  0
-7.924578  -48.871376  -32.781204  0
-8.194312  -48.731712  -32.437107  0
-8.446083  -48.851128  -32.729481  0
-8.701653  -48.691833  -32.421310  0
-9.259319  -48.517708  -32.859879  0
-8.903547  -48.753258  -32.734638  0
-9.147058  -48.564976  -32.463570  0
-9.588310  -41.469746  -32.278881  0
-10.013031  -41.466187  -32.327518  0
-10.411946  -41.526806  -32.216679  0
-9.314659  -41.630707  -32.133873  0
-9.019613  -41.806492  -32.197697  0
-9.597597  -41.569538  -32.009747  0
-9.896949  -41.564335  -31.971483  0
-10.644190  -41.632172  -32.076511  0
-10.339034  -41.581150  -31.970428  0
-10.929940  -41.836708  -32.248203  0
-8.773238  -42.088860  -32.217590  0
-8.493265  -42.378338  -32.246796  0
-8.996045  -42.021580  -31.986284  0
-11.321296  -42.066875  -32.072556  0
-11.558428  -42.331711  -32.341133  0
-8.230452  -42.557053  -32.356232  0
-8.130418  -42.846527  -32.171955  0
-8.409167  -42.799732  -31.962908  0
-11.828090  -42.633995  -32.170353  0
-12.046004  -42.971939  -32.251125  0
-7.881785  -43.115688  -32.260372  0
-7.626689  -43.498562  -32.180603  0
-8.182731  -43.061707  -31.955904  0
-8.393785  -43.143497  -31.736839  0
-12.188165  -43.188026  -32.097881  0
-7.423653  -43.640766  -32.327003  0
-7.548272  -43.840290  -32.013981  0
-12.301812  -43.608196  -32.230930  0
-7.255160  -43.960899  -32.294807  0
-7.093438  -44.307629  -32.302269  0
-7.449522  -44.296097  -31.952038  0
-12.416461  -44.137665  -32.099426  0
-12.154040  -44.502060  -32.278519  0
-12.644531  -44.142860  -31.791821  0
-6.826134  -44.597198  -32.488392  0
-6.928738  -44.953926  -32.335232  0
-7.210570  -44.717484  -32.098114  0
-7.524681  -44.685394  -31.826065  0
-11.882593  -44.665909  -32.492306  0
-11.725253  -44.938274  -32.120815  0
-12.027956  -44.715691  -32.109325  0
-7.205218  -45.150558  -32.053028  0
-7.005561  -45.398159  -32.183868  0
-7.448557  -44.961117  -31.865730  0
-11.435611  -45.127850  -32.357269  0
-6.761319  -45.581261  -32.360527  0
-7.021744  -45.787224  -32.054024  0
-11.232075  -45.458187  -32.267761  0
-11.082471  -45.864674  -32.039425  0
-6.761474  -46.016407  -32.248116  0
-7.040267  -46.248741  -31.962841  0
-10.915257  -46.148453  -32.395061  0
-6.778569  -46.501068  -32.202194  0
-7.124235  -46.789719  -31.936001  0
-10.751756  -46.686813  -32.079918  0
-10.637643  -46.609001  -31.757530  0
-6.793592  -47.016487  -32.276546  0
-6.912167  -47.475033  -32.329113  0
-7.168475  -47.309795  -32.053669  0
-7.444218  -47.198078  -31.795893  0
-10.715910  -47.041004  -32.288937  0
-10.610162  -47.382137  -32.069653  0
-7.189606  -47.684570  -32.177940  0
-7.578639  -47.729759  -31.936268  0
-9.616982  -48.073711  -32.040100  0
-10.389812  -47.564201  -32.362534  0
-10.116152  -47.833584  -32.079399  0
-7.279948  -48.070999  -32.280369  0
-7.480464  -48.453918  -32.364838  0
-7.667906  -48.188099  -32.102844  0
-7.925468  -48.480701  -32.209751  0
-8.103889  -48.129887  -31.931767  0
-8.433990  -48.483292  -32.150757  0
-8.690941  -48.220963  -31.923363  0
-9.312371  -48.365231  -32.218945  0
-8.930128  -48.460716  -32.171204  0
-9.142998  -48.244747  -31.996574  0
-9.634315  -41.817963  -31.767120  0
-10.174808  -41.796276  -31.674107  0
-10.710897  -41.807446  -31.780291  0
-11.104702  -41.938347  -31.840630  0
-9.216204  -41.951427  -31.872826  0
-9.026011  -42.255474  -31.803581  0
-9.379596  -42.246029  -31.577467  0
-9.889194  -42.194347  -31.406601  0
-10.485097  -42.071095  -31.419073  0
-11.288369  -42.068756  -31.767439  0
-11.043324  -42.100491  -31.543125  0
-11.504835  -42.313084  -31.784271  0
-8.750496  -42.543690  -31.859663  0
-9.081022  -42.627235  -31.546001  0
-9.468219  -42.630325  -31.320190  0
-11.780167  -42.568729  -31.785593  0
-11.634653  -42.587357  -31.498493  0
-11.973700  -42.866280  -31.763617  0
-8.174547  -43.408440  -31.748505  0
-8.763016  -43.041710  -31.556709  0
-8.498227  -43.372719  -31.548851  0
-9.148619  -42.929714  -31.356989  0
-12.245173  -43.304222  -31.652355  0
-11.993130  -43.052197  -31.380224  0
-7.835217  -43.619148  -31.879673  0
-8.085916  -43.858582  -31.582214  0
-8.425005  -43.714130  -31.446354  0
-12.485891  -43.738628  -31.736153  0
-12.632381  -43.998947  -31.750673  0
-7.776179  -44.048485  -31.729122  0
-8.004972  -44.240067  -31.523077  0
-8.328772  -44.186501  -31.353338  0
-12.703004  -44.098610  -31.565962  0
-12.597851  -44.308956  -31.586061  0
-7.760949  -44.477280  -31.659782  0
-8.063502  -44.665295  -31.427982  0
-11.693913  -45.042812  -31.536158  0
-12.299392  -44.537910  -31.876865  0
-12.043483  -44.802929  -31.703320  0
-7.717031  -44.900452  -31.650637  0
-7.539633  -45.272007  -31.739649  0
-7.920627  -45.265347  -31.442629  0
-11.444326  -45.260429  -31.887077  0
-7.285337  -45.555843  -31.886091  0
-7.643473  -45.750572  -31.566298  0
-7.976990  -45.730774  -31.335775  0
-11.237285  -45.593376  -31.739862  0
-11.065042  -45.899372  -31.597860  0
-7.310491  -46.007233  -31.766365  0
-7.633762  -46.303493  -31.530972  0
-7.945594  -46.155289  -31.342861  0
-10.853728  -46.265003  -31.824856  0
-10.496819  -46.448883  -31.493586  0
-7.341292  -46.479900  -31.718149  0
-7.422750  -46.854393  -31.702726  0
-7.666638  -46.772316  -31.551163  0
-8.056607  -46.722111  -31.353315  0
-9.778865  -46.676590  -31.203064  0
-10.464438  -46.679321  -31.605293  0
-10.173379  -46.733028  -31.398172  0
-10.495883  -46.900917  -31.666553  0
-7.656569  -47.095936  -31.622648  0
-8.049114  -47.226524  -31.497660  0
-8.551512  -47.235523  -31.305340  0
-10.647192  -47.150024  -31.892059  0
-10.576290  -47.399113  -31.799826  0
-10.416011  -47.308964  -31.571135  0
-7.804229  -47.447155  -31.672379  0
-8.009602  -47.779812  -31.739328  0
-8.162343  -47.614853  -31.602945  0
-8.427969  -47.909939  -31.713848  0
-8.558468  -47.622414  -31.518879  0
-9.031969  -47.967590  -31.725246  0
-9.121614  -47.618927  -31.394100  0
-9.525361  -47.868114  -31.624897  0
-9.700575  -47.648914  -31.387304  0
-10.375506  -47.596821  -31.821928  0
-9.963946  -47.810734  -31.699505  0
-10.126419  -47.550323  -31.446936  0
-10.254294  -42.415653  -31.185335  0
-10.767970  -42.357857  -31.218290  0
-11.245828  -42.419083  -31.340200  0
-9.846135  -42.560680  -31.196785  0
-9.647019  -42.844604  -31.153677  0
-10.029364  -42.834332  -31.057516  0
-10.533933  -42.701714  -31.024206  0
-11.410579  -42.680840  -31.197836  0
-11.023352  -42.679359  -31.062754  0
-11.719281  -42.854202  -31.296007  0
-9.378481  -42.991901  -31.214521  0
-9.124177  -43.255768  -31.259737  0
-9.586704  -43.262833  -31.066317  0
-10.036648  -43.226929  -30.938471  0
-10.351170  -43.037487  -30.921019  0
-10.807804  -43.104599  -30.827503  0
-11.795341  -43.084183  -31.088421  0
-11.384974  -42.997799  -30.957588  0
-12.072713  -43.279903  -31.130615  0
-8.775014  -43.518036  -31.341858  0
-9.162536  -43.715248  -31.102104  0
-9.518263  -43.661880  -30.978125  0
-9.860421  -43.652523  -30.864502  0
-10.370435  -43.471218  -30.756580  0
-12.378520  -43.578823  -31.166269  0
-12.624452  -43.897705  -31.372364  0
-8.712269  -43.959618  -31.224083  0
-8.616677  -44.348042  -31.166138  0
-8.980712  -44.303360  -31.015368  0
-9.473756  -44.060322  -30.881128  0
-12.692003  -44.140457  -31.191565  0
-12.636722  -44.387959  -31.072884  0
-8.396091  -44.584633  -31.235666  0
-8.689890  -44.756458  -31.056889  0
-8.979359  -44.693565  -30.924635  0
-9.283804  -44.639881  -30.801302  0
-11.529137  -44.992222  -30.995283  0
-12.381775  -44.598644  -31.372265  0
-12.028912  -44.815456  -31.181984  0
-8.310282  -45.011646  -31.224953  0
-8.623453  -45.313370  -31.028839  0
-9.025944  -45.090374  -30.850864  0
-10.805003  -45.245235  -30.738373  0
-11.321192  -45.348793  -31.349192  0
-11.129478  -45.222092  -30.948503  0
-8.250653  -45.517662  -31.198540  0
-8.581723  -45.823738  -31.033590  0
-9.040419  -45.695549  -30.867088  0
-11.152222  -45.670307  -31.388634  0
-11.031652  -45.831463  -31.322910  0
-10.927695  -45.622414  -31.037367  0
-8.242672  -45.993855  -31.177448  0
-8.607444  -46.299362  -31.058771  0
-8.935593  -46.130112  -30.962917  0
-9.546226  -46.541073  -31.089142  0
-9.491235  -46.178673  -30.920450  0
-9.995445  -46.438007  -31.184299  0
-10.119975  -46.129822  -30.930466  0
-10.806540  -46.063763  -31.343798  0
-10.424529  -46.240604  -31.188231  0
-10.566569  -45.965801  -30.974058  0
-8.295417  -46.468113  -31.182575  0
-8.437957  -46.868759  -31.192335  0
-8.680734  -46.749214  -31.090067  0
-9.522120  -46.761799  -31.113932  0
-9.135242  -46.610603  -31.031694  0
-9.829922  -46.908546  -31.207266  0
-10.180268  -47.060741  -31.357395  0
-8.724970  -47.078228  -31.145445  0
-8.969564  -47.316982  -31.193172  0
-9.056018  -47.063911  -31.090790  0
-9.381722  -47.387882  -31.188992  0
-9.515216  -47.057156  -31.107695  0
-10.135242  -47.314003  -31.298244  0
-9.828632  -47.383938  -31.213371  0
-9.912637  -47.157146  -31.186565  0
-11.219601  -43.377068  -30.624056  0
-11.734770  -43.342369  -30.760187  0
-12.126656  -43.475117  -30.829838  0
-10.207583  -43.928986  -30.656599  0
-10.859926  -43.616177  -30.515558  0
-10.553335  -43.852825  -30.534456  0
-11.170461  -43.625732  -30.414150  0
-11.505669  -43.629742  -30.406729  0
-12.292001  -43.633923  -30.774895  0
-12.031179  -43.684334  -30.513729  0
-12.478042  -43.916393  -30.784319  0
-9.858191  -44.073566  -30.735804  0
-10.107496  -44.353931  -30.591221  0
-10.591271  -44.247040  -30.450972  0
-12.664612  -44.225048  -30.822235  0
-12.625968  -44.378109  -30.763191  0
-12.460392  -44.272797  -30.517666  0
-9.691104  -44.448792  -30.689756  0
-9.578568  -44.834980  -30.638741  0
-9.941693  -44.784554  -30.564312  0
-10.587591  -45.044960  -30.589029  0
-10.482653  -44.716393  -30.521896  0
-11.007877  -44.930733  -30.674774  0
-11.086673  -44.570374  -30.405319  0
-11.464724  -44.777119  -30.612112  0
-11.680755  -44.576359  -30.359535  0
-12.385529  -44.552853  -30.825396  0
-11.919333  -44.729469  -30.705465  0
-12.146441  -44.484596  -30.397354  0
-9.369493  -45.058529  -30.685783  0
-9.717257  -45.226559  -30.573198  0
-10.523467  -45.273033  -30.598761  0
-10.219819  -45.158504  -30.534637  0
-10.661613  -45.470005  -30.711315  0
-9.359174  -45.439510  -30.686533  0
-9.466532  -45.799877  -30.723982  0
-9.672248  -45.622608  -30.607067  0
-9.847374  -45.896519  -30.705477  0
-10.022486  -45.570309  -30.572205  0
-10.597920  -45.702312  -30.767057  0
-10.284010  -45.833092  -30.715273  0
-10.393211  -45.513084  -30.601652  0
-11.246078  -43.880138  -30.242321  0
-11.752359  -43.914539  -30.187426  0
-12.188863  -44.025070  -30.294662  0
-10.874710  -44.017784  -30.324839  0
-11.008429  -44.291229  -30.256153  0
-11.197445  -44.161728  -30.152203  0
-11.404187  -44.374508  -30.168520  0
-11.569645  -44.151737  -30.078384  0
-12.181873  -44.266006  -30.197233  0
-11.860545  -44.354038  -30.133884  0
-11.944763  -44.146126  -30.082109  0
32 40 0 0
1 34 0 0
0 34 32 0
2 36 1 0
1 36 34 0
2 43 36 0
41 46 3 0
41 3 40 0
3 0 40 0
3 4 0 0
0 5 1 0
0 4 5 0
1 6 2 0
1 5 6 0
43 2 49 0
49 2 6 0
47 52 7 0
47 7 46 0
7 3 46 0
7 8 3 0
3 9 4 0
3 8 9 0
4 10 5 0
4 9 10 0
50 6 54 0
6 10 54 0
6 5 10 0
6 50 49 0
7 52 11 0
11 52 57 0
7 12 8 0
7 11 12 0
8 13 9 0
8 12 13 0
9 14 10 0
9 13 14 0
54 10 60 0
60 10 14 0
58 63 15 0
58 15 57 0
15 11 57 0
15 16 11 0
11 17 12 0
11 16 17 0
12 18 13 0
12 17 18 0
61 14 65 0
14 18 65 0
14 13 18 0
14 61 60 0
15 63 19 0
19 63 67 0
15 20 16 0
15 19 20 0
16 21 17 0
16 20 21 0
17 22 18 0
17 21 22 0
65 18 69 0
69 18 22 0
19 67 23 0
23 67 72 0
19 24 20 0
19 23 24 0
20 25 21 0
20 24 25 0
70 22 74 0
22 25 74 0
22 21 25 0
22 70 69 0
23 72 26 0
26 72 78 0
23 27 24 0
23 26 27 0
75 25 81 0
25 27 81 0
25 24 27 0
25 75 74 0
78 80 26 0
26 80 27 0
27 80 82 0
27 82 81 0
87 95 28 0
29 89 28 0
28 89 87 0
30 91 29 0
29 91 89 0
31 93 30 0
30 93 91 0
31 98 93 0
96 100 33 0
96 33 95 0
33 28 95 0
33 35 28 0
28 37 29 0
28 35 37 0
29 38 30 0
29 37 38 0
30 39 31 0
30 38 39 0
98 31 103 0
103 31 39 0
101 105 42 0
101 42 100 0
100 42 33 0
42 40 33 0
40 32 33 0
33 32 34 0
33 34 35 0
35 34 36 0
35 36 37 0
37 36 43 0
44 37 43 0
38 37 44 0
38 45 39 0
38 44 45 0
103 39 108 0
108 39 45 0
106 111 48 0
106 48 105 0
105 48 42 0
48 46 42 0
46 41 42 0
42 41 40 0
49 51 44 0
49 44 43 0
109 45 114 0
45 51 114 0
45 44 51 0
45 109 108 0
112 116 53 0
112 53 111 0
111 53 48 0
53 52 48 0
52 47 48 0
48 47 46 0
54 55 50 0
51 49 50 0
55 51 50 0
56 51 55 0
114 51 117 0
117 51 56 0
53 116 59 0
59 116 120 0
59 57 52 0
59 52 53 0
60 62 55 0
60 55 54 0
118 56 122 0
56 62 122 0
56 55 62 0
56 118 117 0
121 126 64 0
121 64 120 0
120 64 59 0
64 63 59 0
63 58 59 0
59 58 57 0
65 66 61 0
66 128 61 0
61 128 60 0
128 123 60 0
123 62 60 0
62 123 122 0
64 126 68 0
68 126 131 0
68 67 63 0
68 63 64 0
69 71 66 0
69 66 65 0
128 66 132 0
132 66 71 0
68 131 73 0
73 131 134 0
73 72 67 0
73 67 68 0
74 76 70 0
71 69 70 0
76 71 70 0
77 71 76 0
132 71 135 0
135 71 77 0
73 134 79 0
79 134 138 0
79 78 72 0
79 72 73 0
81 83 75 0
76 74 75 0
83 76 75 0
84 76 83 0
136 77 141 0
77 84 141 0
77 76 84 0
77 136 135 0
138 139 79 0
139 144 85 0
139 85 80 0
79 139 80 0
78 79 80 0
86 82 80 0
86 80 85 0
86 146 82 0
82 146 81 0
146 140 81 0
140 83 81 0
83 140 84 0
84 140 142 0
84 142 141 0
144 145 85 0
85 145 86 0
86 145 147 0
86 147 146 0
150 157 88 0
90 151 88 0
88 151 150 0
92 153 90 0
90 153 151 0
94 155 92 0
92 155 153 0
94 159 155 0
158 163 97 0
158 97 157 0
157 97 88 0
97 95 88 0
95 87 88 0
88 87 89 0
88 89 90 0
90 89 91 0
90 91 92 0
92 91 93 0
92 93 94 0
99 160 98 0
98 160 93 0
160 159 93 0
159 94 93 0
99 165 160 0
164 167 102 0
164 102 163 0
163 102 97 0
102 100 97 0
100 96 97 0
97 96 95 0
103 104 99 0
103 99 98 0
165 99 169 0
169 99 104 0
168 171 107 0
168 107 167 0
167 107 102 0
107 105 102 0
105 101 102 0
102 101 100 0
108 110 104 0
108 104 103 0
169 104 173 0
173 104 110 0
172 176 113 0
172 113 171 0
171 113 107 0
113 111 107 0
111 106 107 0
107 106 105 0
114 115 109 0
115 177 109 0
109 177 108 0
177 174 108 0
174 110 108 0
110 174 173 0
113 176 112 0
176 116 112 0
176 180 116 0
113 112 111 0
117 119 115 0
117 115 114 0
177 115 181 0
181 115 119 0
180 120 116 0
183 120 180 0
122 124 118 0
119 117 118 0
124 119 118 0
125 119 124 0
181 119 185 0
185 119 125 0
127 126 121 0
188 127 121 0
120 188 121 0
183 188 120 0
128 129 123 0
124 122 123 0
129 124 123 0
130 124 129 0
186 125 190 0
125 130 190 0
125 124 130 0
125 186 185 0
189 193 127 0
193 126 127 0
193 131 126 0
189 127 188 0
132 133 129 0
132 129 128 0
191 130 195 0
130 133 195 0
130 129 133 0
130 191 190 0
193 134 131 0
197 134 193 0
135 137 133 0
135 133 132 0
195 133 198 0
198 133 137 0
197 138 134 0
201 138 197 0
141 143 136 0
143 204 136 0
136 204 135 0
204 199 135 0
199 137 135 0
137 199 198 0
201 202 138 0
138 202 139 0
144 139 202 0
144 202 207 0
146 148 140 0
149 142 140 0
149 140 148 0
149 212 142 0
142 212 141 0
212 205 141 0
205 143 141 0
143 205 204 0
207 208 144 0
144 208 145 0
145 210 147 0
208 210 145 0
146 147 148 0
147 211 148 0
147 210 211 0
148 211 149 0
149 211 213 0
149 213 212 0
216 219 152 0
154 217 152 0
152 217 216 0
156 218 154 0
154 218 217 0
156 221 218 0
220 226 150 0
150 226 157 0
151 152 219 0
220 151 219 0
150 151 220 0
152 151 153 0
152 153 154 0
154 153 155 0
154 155 156 0
161 222 159 0
159 222 155 0
222 221 155 0
221 156 155 0
162 224 161 0
161 224 222 0
162 228 224 0
227 230 158 0
158 230 163 0
158 157 226 0
158 226 227 0
160 161 159 0
161 160 165 0
166 161 165 0
162 161 166 0
228 162 232 0
232 162 166 0
231 234 164 0
164 234 167 0
164 163 230 0
164 230 231 0
169 170 166 0
169 166 165 0
232 166 236 0
236 166 170 0
235 238 168 0
168 238 171 0
168 167 234 0
168 234 235 0
173 175 170 0
173 170 169 0
236 170 241 0
241 170 175 0
239 243 172 0
172 243 176 0
172 171 238 0
172 238 239 0
177 178 174 0
175 173 174 0
178 175 174 0
179 175 178 0
241 175 245 0
245 175 179 0
243 180 176 0
248 180 243 0
181 182 178 0
181 178 177 0
246 179 251 0
179 182 251 0
179 178 182 0
179 246 245 0
184 183 249 0
183 248 249 0
183 180 248 0
253 184 249 0
185 187 182 0
185 182 181 0
251 182 255 0
255 182 187 0
254 258 184 0
258 183 184 0
258 188 183 0
254 184 253 0
190 192 186 0
192 260 186 0
186 260 185 0
260 256 185 0
256 187 185 0
187 256 255 0
194 193 189 0
264 194 189 0
188 264 189 0
258 264 188 0
195 196 191 0
196 267 191 0
191 267 190 0
267 261 190 0
261 192 190 0
192 261 260 0
265 270 194 0
270 193 194 0
270 197 193 0
265 194 264 0
198 200 196 0
198 196 195 0
267 196 273 0
273 196 200 0
203 201 271 0
201 270 271 0
201 197 270 0
276 203 271 0
204 206 199 0
206 278 199 0
199 278 198 0
278 274 198 0
274 200 198 0
200 274 273 0
203 202 201 0
277 209 207 0
277 207 202 0
276 277 202 0
203 276 202 0
282 209 277 0
212 214 205 0
214 285 205 0
205 285 204 0
285 279 204 0
279 206 204 0
206 279 278 0
209 208 207 0
282 283 209 0
283 208 209 0
283 210 208 0
210 284 211 0
283 284 210 0
284 288 215 0
213 284 215 0
211 284 213 0
215 289 213 0
213 289 212 0
289 286 212 0
286 214 212 0
214 286 285 0
288 290 215 0
215 290 289 0
293 298 216 0
216 298 219 0
294 216 217 0
294 293 216 0
295 217 218 0
295 294 217 0
223 296 221 0
296 218 221 0
296 295 218 0
225 297 223 0
223 297 296 0
225 301 297 0
299 303 220 0
220 303 226 0
220 219 298 0
220 298 299 0
222 223 221 0
223 222 224 0
223 224 225 0
229 302 228 0
228 302 224 0
302 301 224 0
301 225 224 0
229 306 302 0
304 307 227 0
227 307 230 0
227 226 303 0
227 303 304 0
232 233 229 0
232 229 228 0
306 229 311 0
311 229 233 0
308 313 231 0
231 313 234 0
231 230 307 0
231 307 308 0
236 237 233 0
236 233 232 0
311 233 315 0
315 233 237 0
240 238 235 0
317 240 235 0
234 317 235 0
313 317 234 0
241 242 237 0
241 237 236 0
315 237 320 0
320 237 242 0
244 243 239 0
322 244 239 0
322 239 238 0
318 322 238 0
240 318 238 0
318 240 317 0
245 247 242 0
245 242 241 0
320 242 324 0
324 242 247 0
250 248 244 0
244 248 243 0
244 322 327 0
244 327 250 0
251 252 246 0
252 329 246 0
246 329 245 0
329 325 245 0
325 247 245 0
247 325 324 0
250 249 248 0
253 249 250 0
327 253 250 0
331 253 327 0
255 257 252 0
255 252 251 0
329 252 333 0
333 252 257 0
259 258 254 0
335 259 254 0
253 335 254 0
331 335 253 0
260 262 256 0
257 255 256 0
262 257 256 0
263 257 262 0
333 257 337 0
337 257 263 0
266 264 259 0
259 264 258 0
259 335 340 0
259 340 266 0
267 268 261 0
262 260 261 0
268 262 261 0
269 262 268 0
338 263 342 0
263 269 342 0
263 262 269 0
263 338 337 0
272 270 265 0
345 272 265 0
345 265 264 0
341 345 264 0
266 341 264 0
341 266 340 0
273 275 268 0
273 268 267 0
343 269 347 0
269 275 347 0
269 268 275 0
269 343 342 0
272 271 270 0
276 271 272 0
345 276 272 0
350 276 345 0
278 280 274 0
275 273 274 0
280 275 274 0
281 275 280 0
347 275 354 0
354 275 281 0
350 351 276 0
276 351 277 0
282 277 351 0
282 351 357 0
285 287 279 0
287 362 279 0
279 362 278 0
362 353 278 0
353 280 278 0
280 353 281 0
281 353 355 0
281 355 354 0
357 358 282 0
282 358 283 0
283 360 284 0
358 360 283 0
361 291 288 0
284 361 288 0
360 361 284 0
361 289 291 0
361 286 289 0
361 366 292 0
286 361 292 0
292 367 286 0
286 367 285 0
367 363 285 0
363 287 285 0
287 363 362 0
291 290 288 0
290 366 291 0
290 368 366 0
290 289 292 0
368 290 292 0
292 368 367 0
300 298 293 0
300 293 375 0
293 369 375 0
293 294 369 0
370 294 295 0
370 369 294 0
371 295 296 0
371 370 295 0
373 296 297 0
373 371 296 0
297 301 373 0
373 301 378 0
305 303 299 0
381 305 299 0
381 299 298 0
376 381 298 0
300 376 298 0
376 300 375 0
379 378 301 0
379 301 302 0
302 306 379 0
379 306 383 0
309 307 304 0
303 305 304 0
305 309 304 0
305 310 309 0
305 381 388 0
305 388 310 0
311 312 384 0
383 311 384 0
306 311 383 0
312 390 384 0
314 313 308 0
392 314 308 0
392 308 307 0
387 392 307 0
309 387 307 0
387 309 310 0
387 310 389 0
389 310 388 0
315 316 312 0
315 312 311 0
390 312 394 0
394 312 316 0
319 317 314 0
314 317 313 0
314 392 396 0
314 396 319 0
320 321 316 0
320 316 315 0
394 316 399 0
399 316 321 0
323 322 318 0
402 323 318 0
402 318 317 0
397 402 317 0
319 397 317 0
397 319 396 0
324 326 321 0
324 321 320 0
399 321 404 0
404 321 326 0
328 327 323 0
323 327 322 0
323 402 407 0
323 407 328 0
329 330 325 0
330 409 325 0
325 409 324 0
409 405 324 0
405 326 324 0
326 405 404 0
332 331 328 0
328 331 327 0
328 407 411 0
328 411 332 0
333 334 330 0
333 330 329 0
409 330 412 0
412 330 334 0
336 335 332 0
332 335 331 0
332 411 414 0
332 414 336 0
337 339 334 0
337 334 333 0
412 334 416 0
416 334 339 0
415 419 336 0
419 335 336 0
419 340 335 0
415 336 414 0
342 344 338 0
344 421 338 0
338 421 337 0
421 417 337 0
417 339 337 0
339 417 416 0
346 345 341 0
423 346 341 0
340 423 341 0
419 423 340 0
347 348 343 0
344 342 343 0
348 344 343 0
349 344 348 0
421 344 425 0
425 344 349 0
352 350 346 0
346 350 345 0
346 423 428 0
346 428 352 0
354 356 348 0
354 348 347 0
426 349 431 0
349 356 431 0
349 348 356 0
349 426 425 0
352 351 350 0
429 359 357 0
429 357 351 0
428 429 351 0
352 428 351 0
434 359 429 0
362 364 353 0
365 355 353 0
365 353 364 0
365 440 355 0
355 440 354 0
440 432 354 0
432 356 354 0
356 432 431 0
359 358 357 0
434 435 359 0
435 358 359 0
435 360 358 0
360 437 361 0
435 437 360 0
366 361 437 0
366 437 443 0
444 438 363 0
444 363 367 0
362 363 364 0
363 439 364 0
363 438 439 0
364 439 365 0
365 439 441 0
365 441 440 0
443 445 366 0
366 445 368 0
367 368 444 0
444 368 445 0
449 451 372 0
374 450 372 0
372 450 449 0
374 453 450 0
377 375 369 0
377 369 455 0
369 452 455 0
369 370 452 0
371 372 451 0
452 371 451 0
370 371 452 0
372 371 373 0
372 373 374 0
380 454 378 0
378 454 373 0
454 453 373 0
453 374 373 0
380 457 454 0
382 381 376 0
462 382 376 0
462 376 375 0
456 462 375 0
377 456 375 0
456 377 455 0
379 380 378 0
385 458 383 0
383 458 379 0
458 457 379 0
457 380 379 0
386 460 385 0
385 460 458 0
386 464 460 0
463 466 382 0
466 381 382 0
466 388 381 0
463 382 462 0
384 385 383 0
385 384 390 0
391 385 390 0
386 385 391 0
464 386 469 0
469 386 391 0
393 392 387 0
393 387 471 0
387 467 471 0
387 389 467 0
389 388 466 0
389 466 467 0
394 395 391 0
394 391 390 0
469 391 473 0
473 391 395 0
398 396 393 0
393 396 392 0
393 471 476 0
393 476 398 0
399 400 395 0
399 395 394 0
473 395 474 0
395 401 474 0
395 400 401 0
401 478 474 0
403 402 397 0
481 403 397 0
481 397 396 0
477 481 396 0
398 477 396 0
477 398 476 0
404 406 400 0
404 400 399 0
479 401 482 0
401 406 482 0
401 400 406 0
401 479 478 0
408 407 403 0
403 407 402 0
403 481 485 0
403 485 408 0
409 410 405 0
410 488 405 0
405 488 404 0
488 483 404 0
483 406 404 0
406 483 482 0
486 490 408 0
490 407 408 0
490 411 407 0
486 408 485 0
412 413 410 0
412 410 409 0
488 410 492 0
492 410 413 0
490 414 411 0
493 414 490 0
416 418 413 0
416 413 412 0
492 413 495 0
495 413 418 0
420 419 415 0
497 420 415 0
414 497 415 0
493 497 414 0
421 422 417 0
422 499 417 0
417 499 416 0
499 496 416 0
496 418 416 0
418 496 495 0
424 423 420 0
420 423 419 0
420 497 501 0
420 501 424 0
425 427 422 0
425 422 421 0
499 422 503 0
503 422 427 0
430 428 424 0
424 428 423 0
424 501 505 0
424 505 430 0
431 433 426 0
433 509 426 0
426 509 425 0
509 504 425 0
504 427 425 0
427 504 503 0
430 429 428 0
506 436 434 0
506 434 429 0
505 506 429 0
430 505 429 0
512 436 506 0
440 442 432 0
442 515 432 0
432 515 431 0
515 510 431 0
510 433 431 0
433 510 509 0
436 435 434 0
512 513 436 0
513 435 436 0
513 437 435 0
443 437 513 0
443 513 518 0
444 446 438 0
447 439 438 0
447 438 446 0
448 441 439 0
448 439 447 0
448 523 441 0
441 523 440 0
523 516 440 0
516 442 440 0
442 516 515 0
518 519 443 0
443 519 445 0
444 445 446 0
445 521 446 0
445 519 521 0
446 521 447 0
447 521 522 0
447 522 448 0
448 522 524 0
448 524 523 0
526 528 449 0
449 528 451 0
527 449 450 0
527 526 449 0
450 453 527 0
527 453 531 0
529 537 452 0
452 537 455 0
452 451 528 0
452 528 529 0
532 531 453 0
532 453 454 0
459 534 457 0
534 454 457 0
534 532 454 0
461 536 459 0
459 536 534 0
461 540 536 0
538 542 456 0
456 542 462 0
456 455 537 0
456 537 538 0
458 459 457 0
459 458 460 0
459 460 461 0
465 541 464 0
464 541 460 0
541 540 460 0
540 461 460 0
465 544 541 0
468 466 463 0
545 468 463 0
462 545 463 0
542 545 462 0
469 470 465 0
469 465 464 0
544 465 547 0
547 465 470 0
472 471 467 0
549 472 467 0
549 467 466 0
546 549 466 0
468 546 466 0
546 468 545 0
473 475 470 0
473 470 469 0
547 470 551 0
551 470 475 0
550 554 472 0
554 471 472 0
554 476 471 0
550 472 549 0
474 475 473 0
480 552 478 0
478 552 474 0
552 551 474 0
551 475 474 0
480 557 552 0
555 559 477 0
477 559 481 0
477 476 554 0
477 554 555 0
482 484 479 0
484 562 479 0
479 562 478 0
562 558 478 0
558 480 478 0
480 558 557 0
487 485 560 0
485 559 560 0
485 481 559 0
564 487 560 0
488 489 483 0
489 567 483 0
483 567 482 0
567 563 482 0
563 484 482 0
484 563 562 0
491 490 486 0
569 491 486 0
569 486 485 0
565 569 485 0
487 565 485 0
565 487 564 0
571 568 489 0
488 571 489 0
492 571 488 0
489 568 567 0
494 493 491 0
491 493 490 0
491 569 573 0
491 573 494 0
495 571 492 0
495 575 571 0
498 497 494 0
494 497 493 0
494 573 576 0
494 576 498 0
499 500 496 0
500 578 496 0
578 495 496 0
578 575 495 0
502 501 498 0
498 501 497 0
498 576 580 0
498 580 502 0
583 579 500 0
499 583 500 0
503 583 499 0
500 579 578 0
507 505 502 0
502 505 501 0
502 580 581 0
508 502 581 0
507 502 508 0
585 508 581 0
509 511 504 0
511 587 504 0
587 503 504 0
587 583 503 0
507 506 505 0
506 507 512 0
507 514 512 0
507 508 514 0
508 585 589 0
508 589 514 0
515 517 510 0
517 592 510 0
510 592 509 0
592 588 509 0
588 511 509 0
511 588 587 0
514 513 512 0
590 520 518 0
590 518 513 0
589 590 513 0
514 589 513 0
595 520 590 0
523 525 516 0
525 602 516 0
516 602 515 0
602 593 515 0
593 517 515 0
517 593 592 0
520 519 518 0
595 596 520 0
596 519 520 0
596 521 519 0
521 598 522 0
596 598 521 0
522 600 524 0
598 600 522 0
523 524 525 0
524 603 525 0
524 600 603 0
525 603 602 0
530 528 526 0
530 526 608 0
526 605 608 0
526 527 605 0
533 606 531 0
606 527 531 0
606 605 527 0
535 607 533 0
533 607 606 0
535 612 607 0
539 537 529 0
615 539 529 0
615 529 528 0
609 615 528 0
530 609 528 0
609 530 608 0
532 533 531 0
533 532 534 0
533 534 535 0
614 612 535 0
534 614 535 0
536 614 534 0
536 540 614 0
614 540 618 0
543 542 538 0
620 543 538 0
620 538 537 0
616 620 537 0
539 616 537 0
616 539 615 0
619 618 540 0
619 540 541 0
541 544 619 0
619 544 623 0
621 625 543 0
625 542 543 0
625 545 542 0
621 543 620 0
547 548 624 0
623 547 624 0
544 547 623 0
548 629 624 0
626 630 546 0
546 630 549 0
546 545 625 0
546 625 626 0
551 553 548 0
551 548 547 0
629 548 632 0
632 548 553 0
556 554 550 0
633 556 550 0
549 633 550 0
630 633 549 0
552 553 551 0
552 557 553 0
557 632 553 0
557 636 632 0
561 559 555 0
639 561 555 0
639 555 554 0
634 639 554 0
556 634 554 0
634 556 633 0
643 637 558 0
643 558 562 0
557 558 636 0
636 558 637 0
561 560 559 0
640 566 564 0
640 564 560 0
639 640 560 0
561 639 560 0
646 566 640 0
649 644 563 0
649 563 567 0
562 563 643 0
643 563 644 0
570 569 565 0
650 570 565 0
650 565 564 0
647 650 564 0
566 647 564 0
647 566 646 0
571 572 568 0
572 652 568 0
652 567 568 0
652 649 567 0
574 573 570 0
570 573 569 0
570 650 654 0
570 654 574 0
656 653 572 0
571 656 572 0
575 656 571 0
572 653 652 0
577 576 574 0
574 576 573 0
574 654 657 0
574 657 577 0
578 656 575 0
578 659 656 0
582 580 577 0
577 580 576 0
577 657 661 0
577 661 582 0
583 584 579 0
584 665 579 0
665 578 579 0
665 659 578 0
582 581 580 0
662 586 585 0
662 585 581 0
661 662 581 0
582 661 581 0
667 586 662 0
670 666 584 0
583 670 584 0
587 670 583 0
584 666 665 0
591 589 586 0
586 589 585 0
586 667 672 0
586 672 591 0
679 669 594 0
588 592 594 0
669 588 594 0
671 588 669 0
587 588 670 0
670 588 671 0
591 590 589 0
673 597 595 0
673 595 590 0
672 673 590 0
591 672 590 0
675 599 597 0
675 597 673 0
677 601 599 0
677 599 675 0
680 604 601 0
680 601 677 0
604 680 679 0
604 679 594 0
602 604 594 0
593 602 594 0
593 594 592 0
597 596 595 0
596 597 598 0
598 597 599 0
598 599 600 0
600 599 601 0
600 601 603 0
603 601 604 0
603 604 602 0
610 608 605 0
606 611 605 0
605 611 610 0
607 613 606 0
606 613 611 0
612 613 607 0
617 615 609 0
686 617 609 0
686 609 608 0
682 686 608 0
610 682 608 0
682 610 611 0
682 611 683 0
683 611 613 0
683 613 684 0
684 613 612 0
614 684 612 0
685 684 614 0
614 618 685 0
685 618 691 0
622 620 616 0
694 622 616 0
694 616 615 0
687 694 615 0
617 687 615 0
687 617 686 0
693 691 618 0
693 618 619 0
619 623 693 0
693 623 697 0
627 625 621 0
620 622 621 0
622 627 621 0
622 628 627 0
622 694 701 0
622 701 628 0
699 697 623 0
699 623 624 0
624 629 699 0
699 629 704 0
631 630 626 0
706 631 626 0
706 626 625 0
700 706 625 0
627 700 625 0
700 627 628 0
700 628 702 0
702 628 701 0
632 704 629 0
632 709 704 0
635 633 631 0
631 633 630 0
631 706 711 0
631 711 635 0
636 638 710 0
709 636 710 0
632 636 709 0
638 714 710 0
641 639 634 0
633 635 634 0
635 641 634 0
635 642 641 0
635 711 716 0
