#!ascii version of /Users/gilles/git/nukkies/notebooks/data/HCBT_STh_L.asc
530 1062
10.728627  -59.391705  -26.355923  0
10.334791  -59.410225  -26.197180  0
10.084970  -59.396877  -26.030111  0
9.859056  -59.344791  -26.005110  0
11.044935  -57.082371  -25.617237  0
11.231134  -57.844360  -26.123747  0
10.743920  -57.840755  -26.073769  0
10.249136  -57.851391  -26.028610  0
11.224885  -58.372772  -26.083601  0
10.775809  -58.345707  -26.030422  0
10.343402  -58.333168  -25.995295  0
9.862127  -58.336716  -26.009869  0
11.215443  -58.882504  -26.091694  0
10.738997  -59.127048  -26.210058  0
10.771036  -58.863865  -26.007694  0
10.347674  -59.129578  -26.105106  0
10.411955  -58.852398  -25.931528  0
10.116476  -59.142689  -25.999676  0
10.059647  -58.836987  -25.956558  0
9.897149  -59.145187  -25.854303  0
11.703493  -59.391136  -26.109297  0
10.931504  -59.391026  -26.214268  0
11.205951  -59.384319  -26.055773  0
10.671670  -59.654274  -26.089571  0
10.263357  -59.637012  -25.917526  0
10.026862  -59.547527  -25.881548  0
9.791115  -59.308945  -25.938829  0
9.895081  -59.489498  -25.931715  0
11.196085  -59.894810  -26.102861  0
10.664584  -59.902843  -26.024038  0
10.143617  -59.902599  -25.902321  0
9.725569  -59.846684  -25.822235  0
10.690975  -60.400822  -26.103146  0
10.174125  -60.410038  -26.063192  0
9.676378  -60.394295  -26.008150  0
11.050764  -56.911671  -25.484362  0
11.185766  -57.069172  -25.520519  0
11.414597  -57.072674  -25.454197  0
10.912996  -57.103939  -25.491188  0
11.081030  -57.267559  -25.539827  0
10.705526  -57.114918  -25.511438  0
11.557273  -57.456482  -25.636827  0
11.180496  -57.614719  -25.924383  0
11.097611  -57.447357  -25.592739  0
10.685143  -57.648460  -25.899641  0
10.677473  -57.472893  -25.654423  0
10.217045  -57.673676  -25.853867  0
10.210654  -57.495014  -25.617250  0
12.194211  -57.881107  -25.644379  0
11.468829  -57.859673  -25.894457  0
11.660684  -57.884384  -25.669577  0
9.954083  -57.911125  -25.816135  0
9.742130  -58.117023  -25.762835  0
12.202728  -58.392624  -25.616318  0
11.455949  -58.388775  -25.860750  0
11.708658  -58.379959  -25.631931  0
9.545902  -58.360497  -25.778498  0
9.714447  -58.387268  -25.536760  0
12.202728  -58.892624  -25.616318  0
11.454052  -58.891457  -25.863991  0
11.702728  -59.142624  -25.866318  0
11.702728  -58.892624  -25.616318  0
9.793401  -58.811737  -25.803015  0
9.882272  -59.069714  -25.658173  0
12.702728  -59.392624  -25.616318  0
11.952728  -59.392624  -25.866318  0
12.202728  -59.392624  -25.616318  0
11.701945  -59.642925  -25.865938  0
9.727719  -59.225861  -25.659147  0
9.693344  -59.454613  -25.651709  0
9.777063  -59.228825  -25.566231  0
12.202728  -59.892624  -25.616318  0
11.451788  -59.892982  -25.865866  0
11.702728  -59.892624  -25.616318  0
11.201727  -60.143829  -25.865923  0
9.610829  -59.766479  -25.653315  0
10.953002  -60.395195  -25.866461  0
11.202728  -60.392624  -25.616318  0
10.701036  -60.650623  -25.862877  0
10.202191  -60.655922  -25.847752  0
9.475331  -60.345356  -25.747353  0
9.715302  -60.640575  -25.826614  0
11.430535  -56.832172  -25.206429  0
11.551419  -56.435513  -25.066313  0
11.063815  -56.875694  -25.155598  0
10.739079  -56.908249  -25.199173  0
11.783589  -56.973846  -25.329632  0
12.139855  -56.907784  -25.117992  0
10.501137  -57.034023  -25.353287  0
10.228693  -57.288929  -25.381805  0
12.702728  -57.392624  -25.116318  0
11.881521  -57.408363  -25.387060  0
12.202728  -57.642624  -25.366318  0
12.157354  -57.406612  -25.117640  0
9.947109  -57.457771  -25.348665  0
10.220025  -57.493362  -25.123693  0
12.452728  -57.892624  -25.366318  0
12.702728  -57.892624  -25.116318  0
9.951832  -57.893353  -25.352255  0
12.452728  -58.392624  -25.366318  0
12.702728  -58.392624  -25.116318  0
9.951246  -58.395088  -25.330492  0
10.201625  -58.395802  -25.096916  0
9.721004  -58.639984  -25.305851  0
12.452728  -58.892624  -25.366318  0
12.702728  -59.142624  -25.366318  0
12.702728  -58.892624  -25.116318  0
9.561866  -58.847664  -25.314909  0
9.724560  -58.883823  -25.070707  0
12.952728  -59.392624  -25.366318  0
13.202728  -59.392624  -25.116318  0
12.702728  -59.642624  -25.366318  0
9.663630  -59.284275  -25.321255  0
9.758595  -59.357224  -25.085205  0
12.452728  -59.892624  -25.366318  0
12.702728  -59.892624  -25.116318  0
12.202728  -60.142624  -25.366318  0
11.702728  -60.142624  -25.366318  0
9.536140  -59.808598  -25.294992  0
12.702728  -60.392624  -25.116318  0
12.202728  -60.392624  -25.116318  0
11.452728  -60.392624  -25.366318  0
11.702728  -60.392624  -25.116318  0
11.203279  -60.643475  -25.366516  0
10.704251  -60.644470  -25.366686  0
10.209352  -60.648323  -25.365812  0
9.485769  -60.363213  -25.334784  0
9.716647  -60.642899  -25.359255  0
9.725359  -60.378204  -25.109144  0
11.702728  -60.892624  -25.116318  0
11.202728  -60.892624  -25.116318  0
12.202728  -55.892624  -24.616318  0
11.665657  -56.147297  -24.867142  0
12.702728  -56.392624  -24.616318  0
11.929560  -56.395546  -24.866833  0
12.202728  -56.642624  -24.866318  0
12.202728  -56.392624  -24.616318  0
11.379840  -56.394966  -24.852280  0
11.070957  -56.733673  -24.787378  0
10.694940  -56.783020  -24.812002  0
12.452728  -56.892624  -24.866318  0
12.702728  -57.142624  -24.866318  0
12.702728  -56.892624  -24.616318  0
10.481765  -56.959419  -24.889811  0
10.710494  -56.905876  -24.623575  0
12.952728  -57.392624  -24.866318  0
10.473995  -57.446178  -24.882553  0
10.702728  -57.392624  -24.616318  0
10.202728  -57.642624  -24.866318  0
13.702728  -57.892624  -24.616318  0
12.952728  -57.892624  -24.866318  0
13.202728  -57.892624  -24.616318  0
9.951967  -57.894264  -24.860771  0
10.202274  -58.143612  -24.862986  0
10.202728  -57.892624  -24.616318  0
12.952728  -58.392624  -24.866318  0
13.202728  -58.392624  -24.616318  0
10.451858  -58.394512  -24.859945  0
10.702359  -58.393436  -24.613617  0
10.203420  -58.644024  -24.844887  0
12.952728  -58.892624  -24.866318  0
13.202728  -59.142624  -24.866318  0
13.202728  -58.892624  -24.616318  0
9.961506  -58.886402  -24.844543  0
10.203386  -58.892883  -24.608789  0
13.453756  -59.393253  -24.865845  0
13.202728  -59.642624  -24.866318  0
9.971026  -59.376419  -24.851931  0
10.209959  -59.385891  -24.610558  0
9.748348  -59.607368  -24.857201  0
12.952728  -59.892624  -24.866318  0
13.203543  -59.893112  -24.615824  0
9.507808  -59.846256  -24.851669  0
9.720095  -60.126709  -24.862597  0
9.716327  -59.879692  -24.614214  0
12.952728  -60.392624  -24.866318  0
13.199916  -60.391342  -24.615505  0
12.697165  -60.639927  -24.866713  0
12.201834  -60.642204  -24.866474  0
10.702728  -60.642624  -24.866318  0
9.960498  -60.388023  -24.863859  0
10.205279  -60.643410  -24.866062  0
10.204158  -60.390930  -24.615772  0
12.682577  -60.875607  -24.625612  0
11.950864  -60.891197  -24.867317  0
12.195560  -60.885513  -24.621176  0
11.701896  -61.141758  -24.867039  0
10.952728  -60.892624  -24.866318  0
11.202728  -61.142624  -24.866318  0
11.202728  -60.892624  -24.616318  0
12.202728  -55.642624  -24.366318  0
12.452728  -55.892624  -24.366318  0
12.702728  -56.142624  -24.366318  0
12.702728  -55.892624  -24.116318  0
11.952728  -55.892624  -24.366318  0
12.202728  -55.892624  -24.116318  0
11.702728  -56.142624  -24.366318  0
13.702728  -56.392624  -24.116318  0
12.952728  -56.392624  -24.366318  0
13.202728  -56.392624  -24.116318  0
11.452728  -56.392624  -24.366318  0
11.702728  -56.392624  -24.116318  0
11.174903  -56.649876  -24.360434  0
13.702728  -56.892624  -24.116318  0
12.952728  -56.892624  -24.366318  0
13.202728  -56.892624  -24.116318  0
10.952728  -56.892624  -24.366318  0
11.202728  -56.892624  -24.116318  0
14.202728  -57.392624  -24.116318  0
13.702728  -57.642624  -24.366318  0
13.702728  -57.392624  -24.116318  0
12.952728  -57.392624  -24.366318  0
13.202728  -57.642624  -24.366318  0
13.202728  -57.392624  -24.116318  0
10.952728  -57.392624  -24.366318  0
11.202728  -57.392624  -24.116318  0
10.702728  -57.642624  -24.366318  0
13.952728  -57.892624  -24.366318  0
14.202728  -57.892624  -24.116318  0
13.702728  -58.142624  -24.366318  0
10.452728  -57.892624  -24.366318  0
10.702728  -58.142624  -24.366318  0
10.702728  -57.892624  -24.116318  0
14.199121  -58.391506  -24.112032  0
13.452728  -58.392624  -24.366318  0
13.702728  -58.392624  -24.116318  0
10.952728  -58.392624  -24.366318  0
10.702399  -58.643349  -24.363920  0
14.183568  -58.884766  -24.089998  0
13.452806  -58.892891  -24.365290  0
13.700131  -58.891949  -24.112642  0
11.202728  -58.892624  -24.116318  0
10.453330  -58.891941  -24.366133  0
10.702728  -58.892624  -24.116318  0
14.153808  -59.359921  -24.045223  0
13.451564  -59.391155  -24.358709  0
13.692275  -59.387825  -24.098122  0
10.454321  -59.390816  -24.365829  0
10.703144  -59.392151  -24.116188  0
10.208564  -59.636707  -24.365219  0
13.448989  -59.886318  -24.358761  0
13.676295  -59.863041  -24.075649  0
9.955018  -59.889938  -24.365484  0
10.202728  -60.142624  -24.366318  0
10.203350  -59.891914  -24.116129  0
13.442347  -60.381813  -24.361328  0
13.657824  -60.330635  -24.101332  0
13.167191  -60.608116  -24.372257  0
11.202728  -60.642624  -24.366318  0
10.452728  -60.392624  -24.366318  0
10.702728  -60.642624  -24.366318  0
12.897182  -60.831524  -24.398548  0
13.106420  -60.782578  -24.158026  0
12.668139  -61.094662  -24.396919  0
12.195650  -61.129635  -24.376936  0
12.202534  -60.890034  -24.119390  0
11.452728  -60.892624  -24.366318  0
11.701896  -61.141758  -24.367039  0
11.702728  -60.892624  -24.116318  0
12.702728  -55.642624  -23.866318  0
13.702728  -56.142624  -23.866318  0
13.702728  -55.892624  -23.616318  0
12.952728  -55.892624  -23.866318  0
13.202728  -56.142624  -23.866318  0
13.202728  -55.892624  -23.616318  0
12.452728  -55.892624  -23.866318  0
12.702728  -55.892624  -23.616318  0
12.202728  -56.142624  -23.866318  0
13.952728  -56.392624  -23.866318  0
14.202728  -56.392624  -23.616318  0
11.952728  -56.392624  -23.866318  0
12.202728  -56.392624  -23.616318  0
11.702728  -56.642624  -23.866318  0
13.952728  -56.892624  -23.866318  0
14.202728  -57.142624  -23.866318  0
14.202728  -56.892624  -23.616318  0
11.452728  -56.892624  -23.866318  0
11.702728  -56.892624  -23.616318  0
14.452728  -57.392624  -23.866318  0
11.452728  -57.392624  -23.866318  0
11.702728  -57.392624  -23.616318  0
11.202728  -57.642624  -23.866318  0
14.451505  -57.892254  -23.864859  0
14.702728  -57.892624  -23.616318  0
10.952728  -57.892624  -23.866318  0
11.202728  -57.892624  -23.616318  0
14.438170  -58.386475  -23.847754  0
14.698987  -58.391476  -23.611868  0
10.952728  -58.392624  -23.866318  0
11.202728  -58.642624  -23.866318  0
11.202728  -58.392624  -23.616318  0
14.388185  -58.852440  -23.783266  0
14.678966  -58.880875  -23.582890  0
11.452728  -58.892624  -23.866318  0
11.702728  -58.892624  -23.616318  0
11.202728  -59.142624  -23.866318  0
14.319782  -59.283974  -23.715832  0
14.121309  -59.564915  -23.755512  0
10.952728  -59.392624  -23.866318  0
11.202728  -59.392624  -23.616318  0
10.703262  -59.642014  -23.866156  0
13.844792  -59.736862  -23.795883  0
14.048944  -59.731323  -23.461025  0
11.202728  -59.892624  -23.616318  0
10.452728  -59.892624  -23.866318  0
10.702728  -59.892624  -23.616318  0
13.813725  -60.156639  -23.883528  0
13.590962  -60.501972  -23.893513  0
12.201276  -60.628365  -23.878683  0
11.702785  -60.641785  -23.867022  0
11.202327  -60.642178  -23.866360  0
11.202728  -60.392624  -23.616318  0
10.452728  -60.392624  -23.866318  0
10.702728  -60.642624  -23.866318  0
10.702728  -60.392624  -23.616318  0
13.300415  -60.668854  -23.945129  0
13.530409  -60.599308  -23.693836  0
13.104921  -60.960163  -23.958267  0
12.446331  -60.870476  -23.886164  0
12.669709  -61.063583  -23.919415  0
13.702728  -55.642624  -23.366318  0
13.202728  -55.642624  -23.366318  0
13.952728  -55.892624  -23.366318  0
14.169724  -56.167805  -23.389151  0
12.952728  -55.892624  -23.366318  0
12.702728  -56.142624  -23.366318  0
14.377616  -56.386845  -23.339773  0
14.506965  -56.446831  -23.047472  0
12.452728  -56.392624  -23.366318  0
12.702728  -56.392624  -23.116318  0
12.202728  -56.642624  -23.366318  0
14.776711  -56.935310  -22.968409  0
14.403156  -56.882874  -23.329588  0
14.505700  -56.907864  -23.002918  0
11.952728  -56.892624  -23.366318  0
14.432948  -57.393169  -23.345505  0
14.675036  -57.643394  -23.337181  0
14.597338  -57.404678  -23.045433  0
11.952728  -57.392624  -23.366318  0
11.702728  -57.642624  -23.366318  0
14.950855  -57.899761  -23.334303  0
15.251839  -57.900429  -23.097725  0
11.452728  -57.892624  -23.366318  0
11.702728  -57.892624  -23.116318  0
14.946581  -58.389492  -23.356735  0
15.220369  -58.400223  -23.100540  0
11.452728  -58.392624  -23.366318  0
11.702728  -58.642624  -23.366318  0
11.702728  -58.392624  -23.116318  0
14.923666  -58.874821  -23.318222  0
14.638241  -59.101082  -23.275331  0
11.952728  -58.892624  -23.366318  0
11.702728  -59.142624  -23.366318  0
14.308178  -59.279942  -23.195599  0
11.452728  -59.392624  -23.366318  0
11.702728  -59.392624  -23.116318  0
14.178098  -59.632610  -23.200195  0
13.985823  -59.874237  -23.248924  0
11.452728  -59.892624  -23.366318  0
11.702211  -59.892048  -23.116381  0
13.730150  -60.015499  -23.406622  0
13.875076  -59.984806  -23.084114  0
12.198759  -60.591053  -23.390957  0
11.452259  -60.392101  -23.366377  0
11.701412  -60.631153  -23.369919  0
11.700603  -60.390259  -23.116562  0
13.737644  -60.445889  -23.506365  0
13.524475  -60.749435  -23.523184  0
13.083735  -60.808575  -23.531075  0
12.438496  -60.824448  -23.414289  0
12.647956  -60.928402  -23.480474  0
12.693050  -60.763828  -23.182243  0
13.702728  -55.642624  -22.866318  0
13.202728  -55.642624  -22.866318  0
14.594345  -56.220039  -22.906240  0
13.952728  -55.892624  -22.866318  0
14.200911  -56.172958  -22.934223  0
13.700912  -55.895374  -22.639702  0
12.952728  -55.892624  -22.866318  0
13.202728  -55.892624  -22.616318  0
14.626817  -56.532131  -22.811197  0
14.679305  -56.829414  -22.836290  0
14.474766  -56.548332  -22.659025  0
14.151382  -56.466362  -22.688919  0
13.689202  -56.392406  -22.661301  0
12.952728  -56.392624  -22.866318  0
13.202728  -56.392624  -22.616318  0
12.702728  -56.642624  -22.866318  0
12.202728  -56.642624  -22.866318  0
14.855303  -57.012970  -22.834808  0
14.853848  -57.175209  -22.831301  0
12.702728  -56.892624  -22.616318  0
11.952728  -56.892624  -22.866318  0
12.202728  -56.892624  -22.616318  0
14.914746  -57.431461  -22.922888  0
15.321426  -57.638374  -22.921259  0
11.952728  -57.392624  -22.866318  0
12.202728  -57.392624  -22.616318  0
15.510352  -57.902821  -22.836538  0
11.952728  -57.892624  -22.866318  0
12.202728  -57.892624  -22.616318  0
15.451209  -58.391079  -22.862526  0
15.198709  -58.639473  -22.858002  0
11.952728  -58.392624  -22.866318  0
12.202046  -58.392414  -22.616102  0
14.934408  -58.879452  -22.832031  0
15.186637  -58.879532  -22.581196  0
14.627338  -59.084763  -22.744329  0
12.693840  -58.882896  -22.613279  0
11.952728  -58.892624  -22.866318  0
12.201819  -58.892342  -22.616032  0
14.250899  -59.234272  -22.645493  0
14.585217  -59.308998  -22.429943  0
12.692863  -59.347168  -22.605453  0
11.951804  -59.390240  -22.866598  0
12.199487  -59.385563  -22.615911  0
14.126284  -59.645199  -22.707708  0
13.863967  -59.683228  -22.577406  0
12.722716  -59.783634  -22.608261  0
11.951111  -59.881367  -22.866245  0
12.202628  -59.862617  -22.612888  0
13.999587  -59.908596  -22.959387  0
13.878392  -60.090946  -23.053438  0
12.713202  -60.516464  -22.905371  0
12.768741  -60.195999  -22.653307  0
11.950894  -60.372471  -22.866337  0
12.211128  -60.578110  -22.875559  0
12.212825  -60.331001  -22.615498  0
13.694032  -60.278168  -23.153898  0
13.810231  -60.230793  -23.004519  0
13.481398  -60.542126  -23.145422  0
13.575316  -60.295998  -22.995930  0
12.963085  -60.641979  -22.965824  0
13.122791  -60.709270  -23.068529  0
13.283682  -60.499039  -22.810106  0
14.718807  -56.905243  -22.570362  0
14.433396  -56.811188  -22.484564  0
14.155332  -56.686268  -22.428406  0
13.693208  -56.639297  -22.378149  0
13.202728  -56.642624  -22.366318  0
14.848685  -57.074673  -22.561325  0
14.870833  -57.225872  -22.564293  0
14.886352  -57.099609  -22.435114  0
14.511334  -57.067421  -22.352568  0
14.135326  -56.972160  -22.202847  0
13.683602  -56.898193  -22.149773  0
12.952728  -56.892624  -22.366318  0
13.202728  -56.892624  -22.116318  0
12.702728  -57.142624  -22.366318  0
14.968662  -57.438850  -22.616304  0
15.289578  -57.637585  -22.438677  0
14.712832  -57.445316  -22.350359  0
14.188739  -57.445148  -22.228825  0
13.708740  -57.398907  -22.144890  0
13.202728  -57.392624  -22.116318  0
12.452728  -57.392624  -22.366318  0
12.702728  -57.392624  -22.116318  0
15.511323  -57.875927  -22.362921  0
13.201336  -57.892193  -22.115881  0
12.452046  -57.892414  -22.366102  0
12.702046  -57.892414  -22.116102  0
15.452620  -58.392246  -22.365562  0
13.190823  -58.387512  -22.112137  0
12.448751  -58.391399  -22.365067  0
12.685608  -58.631340  -22.359961  0
12.694594  -58.389038  -22.113432  0
15.448221  -58.887691  -22.352522  0
15.172915  -59.116047  -22.290501  0
15.197619  -58.885498  -22.090855  0
12.918984  -58.846092  -22.346512  0
13.164377  -58.866074  -22.097273  0
14.933924  -59.374275  -22.288216  0
14.653183  -59.612488  -22.204262  0
14.035384  -59.540363  -22.195280  0
12.940986  -59.264690  -22.341894  0
13.136093  -59.285820  -22.077787  0
13.767565  -59.694729  -22.491106  0
13.842880  -59.830273  -22.647373  0
13.638324  -59.691978  -22.177134  0
13.031143  -59.660763  -22.398003  0
13.206441  -59.678997  -22.133749  0
13.966242  -59.973991  -22.546825  0
13.806746  -59.869053  -22.691557  0
13.552243  -60.060268  -22.825356  0
13.111252  -60.061413  -22.517654  0
13.318434  -60.179089  -22.781197  0
13.310648  -60.056889  -22.373438  0
13.910594  -60.221607  -22.795021  0
13.657216  -60.224857  -22.945782  0
13.814986  -60.427334  -22.839634  0
13.698364  -60.162312  -22.743328  0
15.250954  -57.607594  -21.874992  0
14.756119  -57.629539  -21.916283  0
14.233701  -57.628723  -21.878429  0
13.702728  -57.642624  -21.866318  0
15.479570  -57.874779  -21.872671  0
15.202728  -57.892624  -21.616318  0
14.717223  -57.880436  -21.617399  0
14.217223  -57.880436  -21.617399  0
13.448962  -57.891464  -21.865131  0
13.702728  -57.892624  -21.616318  0
15.452636  -58.392311  -21.865671  0
15.202261  -58.640995  -21.863012  0
15.202648  -58.392342  -21.615751  0
14.700438  -58.392380  -21.614008  0
14.196359  -58.391388  -21.611786  0
13.427434  -58.382725  -21.854013  0
13.695794  -58.390759  -21.613190  0
14.951684  -58.889980  -21.855814  0
14.183445  -58.889328  -21.589691  0
13.382134  -58.853027  -21.817709  0
13.670477  -58.882881  -21.592470  0
14.951540  -59.391243  -21.842451  0
14.692342  -59.636116  -21.784540  0
14.691068  -59.390984  -21.570892  0
14.150939  -59.622265  -21.728369  0
14.152844  -59.377296  -21.526001  0
13.349676  -59.308247  -21.789991  0
13.595968  -59.566479  -21.763126  0
13.629207  -59.362751  -21.539932  0
13.701440  -59.804333  -22.343975  0
13.793081  -60.019188  -22.458050  0
13.575457  -59.964909  -22.509903  0
13.647593  -60.142811  -22.569153  0
13.737052  -59.974537  -22.394655  0
14.700655  -58.642162  -21.363802  0
14.952527  -58.891926  -21.364902  0
14.449011  -58.892868  -21.358566  0
14.701579  -59.142792  -21.360497  0
14.702728  -58.892624  -21.116318  0
13 21 0 0
1 15 0 0
0 15 13 0
2 17 1 0
1 17 15 0
3 19 2 0
2 19 17 0
3 26 19 0
21 23 0 0
0 23 1 0
1 23 24 0
1 24 2 0
2 24 25 0
2 25 3 0
3 25 27 0
3 27 26 0
35 36 4 0
4 38 35 0
36 39 4 0
4 39 38 0
42 49 5 0
6 44 5 0
5 44 42 0
7 46 6 0
6 46 44 0
7 51 46 0
5 49 8 0
8 49 54 0
5 9 6 0
5 8 9 0
6 10 7 0
6 9 10 0
51 7 52 0
7 11 52 0
7 10 11 0
11 56 52 0
8 54 12 0
12 54 59 0
8 14 9 0
8 12 14 0
9 16 10 0
9 14 16 0
10 18 11 0
10 16 18 0
56 11 62 0
62 11 18 0
60 65 20 0
60 20 59 0
20 12 59 0
20 22 12 0
22 21 13 0
14 22 13 0
12 22 14 0
14 13 15 0
14 15 16 0
16 15 17 0
16 17 18 0
63 62 18 0
17 63 18 0
19 63 17 0
19 26 63 0
63 26 68 0
65 67 20 0
72 28 67 0
28 20 67 0
28 22 20 0
29 23 21 0
22 29 21 0
28 29 22 0
30 24 23 0
30 23 29 0
31 25 24 0
31 24 30 0
25 31 75 0
69 25 75 0
27 25 69 0
26 27 68 0
68 27 69 0
72 74 28 0
76 32 74 0
32 28 74 0
32 29 28 0
29 33 30 0
29 32 33 0
30 34 31 0
30 33 34 0
75 31 80 0
80 31 34 0
76 78 32 0
32 78 33 0
33 78 79 0
33 79 34 0
34 79 81 0
34 81 80 0
82 86 37 0
36 35 37 0
35 82 37 0
35 84 82 0
40 85 38 0
85 35 38 0
85 84 35 0
40 88 85 0
37 86 41 0
41 86 91 0
43 39 36 0
37 43 36 0
41 43 37 0
40 38 39 0
43 40 39 0
45 40 43 0
88 40 89 0
40 47 89 0
40 45 47 0
47 94 89 0
92 96 48 0
92 48 91 0
48 41 91 0
48 50 41 0
50 49 42 0
43 50 42 0
41 50 43 0
43 42 44 0
43 44 45 0
45 44 46 0
45 46 47 0
46 51 47 0
51 94 47 0
51 98 94 0
48 96 53 0
53 96 99 0
48 55 50 0
48 53 55 0
55 54 49 0
55 49 50 0
51 52 57 0
101 51 57 0
98 51 101 0
56 57 52 0
53 99 58 0
58 99 104 0
53 61 55 0
53 58 61 0
61 59 54 0
61 54 55 0
103 101 57 0
57 56 103 0
56 107 103 0
56 62 107 0
105 109 64 0
105 64 104 0
64 58 104 0
64 66 58 0
66 65 60 0
61 66 60 0
58 66 61 0
61 60 59 0
62 63 70 0
112 62 70 0
107 62 112 0
68 70 63 0
109 111 64 0
114 71 111 0
71 64 111 0
71 66 64 0
73 67 65 0
66 73 65 0
71 73 66 0
73 72 67 0
112 70 69 0
75 112 69 0
118 112 75 0
69 70 68 0
114 116 71 0
71 116 73 0
73 116 117 0
117 121 77 0
117 77 74 0
73 117 74 0
72 73 74 0
77 76 74 0
80 118 75 0
80 126 118 0
121 123 77 0
77 123 76 0
123 78 76 0
123 124 78 0
78 125 79 0
124 125 78 0
79 127 81 0
125 127 79 0
80 81 126 0
126 81 127 0
132 134 83 0
83 137 132 0
135 140 87 0
135 87 134 0
134 87 83 0
87 86 83 0
86 82 83 0
138 137 83 0
82 138 83 0
84 138 82 0
139 84 85 0
139 138 84 0
85 88 139 0
139 88 143 0
141 145 90 0
141 90 140 0
90 87 140 0
90 93 87 0
93 91 86 0
93 86 87 0
88 89 95 0
146 88 95 0
143 88 146 0
94 95 89 0
90 145 97 0
97 145 150 0
97 96 92 0
93 97 92 0
90 97 93 0
93 92 91 0
148 146 95 0
95 94 148 0
94 152 148 0
94 98 152 0
97 150 100 0
100 150 155 0
100 99 96 0
100 96 97 0
157 153 102 0
153 152 102 0
152 101 102 0
152 98 101 0
100 155 106 0
106 155 160 0
106 104 99 0
106 99 100 0
159 157 102 0
163 159 108 0
108 159 103 0
159 102 103 0
102 101 103 0
107 108 103 0
161 165 110 0
161 110 160 0
160 110 106 0
110 109 106 0
109 105 106 0
106 105 104 0
163 108 113 0
163 113 167 0
112 113 107 0
107 113 108 0
165 166 110 0
166 170 115 0
166 115 111 0
110 166 111 0
109 110 111 0
115 114 111 0
169 167 113 0
113 112 169 0
112 172 169 0
112 118 172 0
115 170 119 0
119 170 175 0
120 116 114 0
115 120 114 0
119 120 115 0
122 117 116 0
122 116 120 0
122 121 117 0
180 173 128 0
173 172 128 0
172 126 128 0
172 118 126 0
175 177 119 0
119 177 120 0
120 177 178 0
184 129 178 0
129 120 178 0
129 122 120 0
130 123 121 0
122 130 121 0
129 130 122 0
123 130 187 0
179 123 187 0
124 123 179 0
124 181 125 0
179 181 124 0
128 127 180 0
127 181 180 0
127 125 181 0
127 128 126 0
184 186 129 0
129 186 130 0
130 186 188 0
130 188 187 0
190 191 131 0
131 194 190 0
192 198 133 0
192 133 191 0
133 131 191 0
133 136 131 0
132 196 134 0
196 131 134 0
131 136 134 0
131 196 194 0
132 137 196 0
196 137 200 0
133 198 142 0
142 198 204 0
142 140 135 0
136 142 135 0
133 142 136 0
136 135 134 0
202 200 137 0
202 137 138 0
206 202 144 0
202 139 144 0
202 138 139 0
143 144 139 0
142 204 141 0
204 145 141 0
204 211 145 0
142 141 140 0
206 144 147 0
206 147 214 0
146 147 143 0
143 147 144 0
209 217 149 0
151 212 149 0
149 212 209 0
211 212 151 0
150 211 151 0
145 211 150 0
216 214 147 0
220 216 154 0
154 216 148 0
216 147 148 0
147 146 148 0
152 154 148 0
217 219 149 0
224 156 219 0
156 149 219 0
156 151 149 0
156 155 150 0
156 150 151 0
226 221 158 0
158 221 220 0
158 220 154 0
157 158 154 0
153 157 154 0
153 154 152 0
156 224 162 0
162 224 229 0
162 160 155 0
162 155 156 0
227 226 158 0
232 227 164 0
164 227 159 0
227 158 159 0
158 157 159 0
163 164 159 0
162 229 161 0
229 165 161 0
229 235 165 0
162 161 160 0
232 164 168 0
232 168 237 0
167 168 163 0
163 168 164 0
166 165 171 0
165 240 171 0
165 235 240 0
171 170 166 0
239 237 168 0
242 239 174 0
174 239 169 0
239 168 169 0
168 167 169 0
172 174 169 0
171 240 176 0
176 240 245 0
176 175 170 0
176 170 171 0
249 243 182 0
182 243 242 0
182 242 174 0
180 182 174 0
173 180 174 0
173 174 172 0
245 247 176 0
247 251 183 0
247 183 177 0
176 247 177 0
175 176 177 0
185 178 177 0
185 177 183 0
185 184 178 0
256 248 189 0
179 187 189 0
248 179 189 0
250 179 248 0
182 181 249 0
181 250 249 0
181 179 250 0
181 182 180 0
251 253 183 0
183 253 185 0
185 253 254 0
185 254 184 0
254 186 184 0
254 257 186 0
189 188 256 0
188 257 256 0
188 186 257 0
188 189 187 0
259 262 193 0
259 191 193 0
259 190 191 0
259 265 195 0
190 259 195 0
194 195 190 0
260 268 197 0
199 263 197 0
197 263 260 0
263 199 262 0
262 199 193 0
199 198 193 0
198 192 193 0
192 265 193 0
192 267 265 0
192 191 195 0
267 192 195 0
270 267 201 0
201 267 196 0
267 195 196 0
195 194 196 0
200 201 196 0
197 268 203 0
203 268 273 0
197 205 199 0
197 203 205 0
205 204 198 0
205 198 199 0
272 270 201 0
276 272 207 0
207 272 202 0
272 201 202 0
201 200 202 0
206 207 202 0
274 278 208 0
274 208 273 0
208 203 273 0
208 210 203 0
203 213 205 0
203 210 213 0
213 211 204 0
213 204 205 0
276 207 215 0
276 215 279 0
214 215 206 0
206 215 207 0
208 278 218 0
218 278 282 0
218 217 209 0
210 218 209 0
208 218 210 0
210 209 212 0
210 212 213 0
213 212 211 0
281 279 215 0
284 281 222 0
222 281 216 0
281 215 216 0
215 214 216 0
220 222 216 0
218 282 223 0
223 282 286 0
225 219 217 0
218 225 217 0
223 225 218 0
225 224 219 0
284 222 221 0
226 284 221 0
288 284 226 0
221 222 220 0
223 286 228 0
228 286 291 0
223 230 225 0
223 228 230 0
230 229 224 0
230 224 225 0
293 289 231 0
233 231 227 0
231 288 227 0
288 226 227 0
288 231 289 0
232 233 227 0
228 291 234 0
234 291 296 0
228 236 230 0
228 234 236 0
236 235 229 0
236 229 230 0
295 293 231 0
238 298 295 0
231 238 295 0
233 238 231 0
237 238 232 0
232 238 233 0
296 297 234 0
301 241 297 0
241 234 297 0
241 236 234 0
241 240 235 0
241 235 236 0
300 298 238 0
304 300 244 0
244 300 239 0
300 238 239 0
238 237 239 0
242 244 239 0
241 301 246 0
246 301 306 0
246 245 240 0
246 240 241 0
304 244 243 0
249 304 243 0
312 304 249 0
243 244 242 0
306 307 246 0
307 315 252 0
307 252 247 0
246 307 247 0
245 246 247 0
252 251 247 0
318 308 255 0
309 258 255 0
309 255 308 0
248 256 258 0
309 248 258 0
310 248 309 0
248 313 250 0
310 313 248 0
249 250 312 0
312 250 313 0
315 317 252 0
252 317 251 0
317 253 251 0
317 319 253 0
255 254 318 0
254 319 318 0
254 253 319 0
254 255 257 0
257 255 258 0
257 258 256 0
320 322 261 0
264 321 261 0
261 321 320 0
321 262 264 0
321 259 262 0
321 324 266 0
259 321 266 0
265 266 259 0
323 326 269 0
323 269 322 0
322 269 261 0
269 268 261 0
268 260 261 0
261 260 263 0
261 263 264 0
263 324 264 0
263 325 324 0
263 262 266 0
325 263 266 0
328 325 271 0
271 325 267 0
325 266 267 0
266 265 267 0
270 271 267 0
269 326 275 0
275 326 332 0
275 273 268 0
275 268 269 0
330 328 271 0
334 330 277 0
277 330 272 0
330 271 272 0
271 270 272 0
276 277 272 0
275 332 274 0
332 278 274 0
332 335 278 0
275 274 273 0
334 277 280 0
334 280 338 0
279 280 276 0
276 280 277 0
336 340 283 0
335 336 283 0
282 335 283 0
278 335 282 0
339 338 280 0
342 339 285 0
285 339 281 0
339 280 281 0
280 279 281 0
284 285 281 0
283 340 287 0
287 340 344 0
287 286 282 0
287 282 283 0
342 285 290 0
342 290 346 0
288 290 284 0
284 290 285 0
287 344 292 0
292 344 349 0
292 291 286 0
292 286 287 0
351 347 294 0
294 347 346 0
294 346 290 0
293 294 290 0
289 293 290 0
289 290 288 0
349 350 292 0
291 292 350 0
353 291 350 0
296 291 353 0
352 351 294 0
354 352 299 0
299 352 295 0
352 294 295 0
294 293 295 0
298 299 295 0
297 296 302 0
296 356 302 0
296 353 356 0
302 301 297 0
354 299 303 0
354 303 358 0
300 305 298 0
305 299 298 0
305 303 299 0
304 305 300 0
356 357 302 0
301 302 357 0
360 301 357 0
306 301 360 0
358 303 311 0
358 311 363 0
314 303 305 0
311 303 314 0
312 314 304 0
304 314 305 0
307 306 316 0
306 366 316 0
306 360 366 0
316 315 307 0
369 362 308 0
369 308 318 0
308 364 309 0
362 364 308 0
311 310 363 0
310 364 363 0
310 309 364 0
310 311 313 0
313 311 314 0
313 314 312 0
366 367 316 0
316 367 315 0
367 317 315 0
367 368 317 0
317 370 319 0
368 370 317 0
318 319 369 0
369 319 370 0
372 375 320 0
320 375 322 0
373 320 321 0
373 372 320 0
321 324 373 0
373 324 378 0
374 380 327 0
326 323 327 0
323 374 327 0
323 376 374 0
323 322 375 0
323 375 376 0
324 325 329 0
385 324 329 0
378 324 385 0
328 329 325 0
381 389 331 0
381 331 380 0
331 327 380 0
331 333 327 0
333 332 326 0
333 326 327 0
387 385 329 0
387 329 328 0
330 387 328 0
388 387 330 0
330 334 388 0
388 334 392 0
389 390 331 0
394 337 390 0
337 331 390 0
337 333 331 0
337 335 332 0
337 332 333 0
338 392 334 0
338 396 392 0
395 398 341 0
395 341 394 0
394 341 337 0
341 340 337 0
340 336 337 0
337 336 335 0
338 339 343 0
399 338 343 0
396 338 399 0
342 343 339 0
341 398 345 0
345 398 401 0
345 344 340 0
345 340 341 0
399 343 348 0
399 348 403 0
346 348 342 0
342 348 343 0
401 402 345 0
344 345 402 0
405 344 402 0
349 344 405 0
403 348 347 0
351 403 347 0
409 403 351 0
347 348 346 0
405 407 349 0
349 407 350 0
353 350 407 0
353 407 411 0
351 352 355 0
414 351 355 0
409 351 414 0
354 355 352 0
411 356 353 0
416 356 411 0
414 355 359 0
414 359 419 0
358 359 354 0
354 359 355 0
357 356 361 0
356 421 361 0
356 416 421 0
361 360 357 0
419 359 365 0
419 365 425 0
363 365 358 0
358 365 359 0
421 422 361 0
360 361 422 0
428 360 422 0
366 360 428 0
432 423 371 0
362 369 371 0
423 362 371 0
426 362 423 0
365 364 425 0
364 426 425 0
364 362 426 0
364 365 363 0
428 430 366 0
366 430 367 0
367 433 368 0
430 433 367 0
371 370 432 0
370 433 432 0
370 368 433 0
370 371 369 0
377 375 372 0
373 379 372 0
372 379 377 0
378 379 373 0
382 380 374 0
376 383 374 0
374 383 382 0
375 377 376 0
377 383 376 0
377 384 383 0
386 377 379 0
384 377 386 0
385 386 378 0
378 386 379 0
435 440 381 0
381 440 389 0
381 380 382 0
436 381 382 0
435 381 436 0
436 382 383 0
436 383 437 0
437 383 384 0
437 384 438 0
438 384 386 0
438 386 439 0
446 439 391 0
391 439 387 0
439 386 387 0
386 385 387 0
388 393 387 0
387 393 391 0
392 393 388 0
440 441 389 0
389 441 390 0
394 390 441 0
394 441 449 0
448 446 391 0
397 455 448 0
391 397 448 0
393 397 391 0
396 397 392 0
392 397 393 0
450 457 395 0
395 457 398 0
395 394 449 0
395 449 450 0
455 397 400 0
455 400 459 0
399 400 396 0
396 400 397 0
457 401 398 0
461 401 457 0
459 400 404 0
459 404 463 0
403 404 399 0
399 404 400 0
402 401 406 0
401 466 406 0
401 461 466 0
406 405 402 0
469 464 408 0
408 464 463 0
404 408 463 0
410 408 404 0
409 410 403 0
403 410 404 0
466 467 406 0
467 471 412 0
467 412 407 0
406 467 407 0
405 406 407 0
412 411 407 0
469 408 413 0
469 413 474 0
415 408 410 0
413 408 415 0
414 415 409 0
409 415 410 0
471 472 412 0
416 411 412 0
473 416 412 0
472 473 412 0
416 473 417 0
476 417 473 0
474 413 418 0
474 418 479 0
420 413 415 0
418 413 420 0
419 420 414 0
414 420 415 0
477 481 417 0
481 416 417 0
481 421 416 0
477 417 476 0
479 418 424 0
479 424 484 0
427 418 420 0
424 418 427 0
425 427 419 0
419 427 420 0
422 421 429 0
421 487 429 0
421 481 487 0
483 429 488 0
483 422 429 0
483 431 428 0
422 483 428 0
485 434 431 0
485 431 483 0
434 485 484 0
434 484 424 0
432 434 424 0
423 432 424 0
423 424 426 0
426 424 427 0
426 427 425 0
487 489 429 0
489 431 488 0
489 430 431 0
489 429 428 0
430 489 428 0
430 431 433 0
433 431 434 0
433 434 432 0
442 440 435 0
436 443 435 0
435 443 442 0
437 444 436 0
436 444 443 0
438 445 437 0
437 445 444 0
439 447 438 0
438 447 445 0
446 447 439 0
442 441 440 0
441 442 449 0
442 451 449 0
442 443 451 0
452 443 444 0
451 443 452 0
453 444 445 0
452 444 453 0
454 445 447 0
453 445 454 0
448 456 446 0
456 447 446 0
456 454 447 0
455 456 448 0
491 495 450 0
450 495 457 0
450 449 451 0
492 450 451 0
491 450 492 0
492 451 452 0
492 452 493 0
493 452 453 0
493 453 494 0
458 499 494 0
453 458 494 0
454 458 453 0
460 454 456 0
458 454 460 0
459 460 455 0
455 460 456 0
495 461 457 0
501 461 495 0
499 458 462 0
499 462 506 0
465 458 460 0
462 458 465 0
463 465 459 0
459 465 460 0
468 466 502 0
466 501 502 0
466 461 501 0
508 468 502 0
506 462 470 0
506 470 510 0
469 470 464 0
470 465 464 0
470 462 465 0
464 465 463 0
468 467 466 0
471 467 468 0
508 471 468 0
512 471 508 0
510 470 475 0
510 475 517 0
474 475 469 0
469 475 470 0
512 513 471 0
471 513 472 0
472 515 473 0
513 515 472 0
518 478 476 0
473 518 476 0
515 518 473 0
478 518 517 0
475 478 517 0
480 478 475 0
479 480 474 0
474 480 475 0
482 481 477 0
521 482 477 0
521 477 476 0
520 521 476 0
478 520 476 0
486 522 520 0
478 486 520 0
480 486 478 0
484 486 479 0
479 486 480 0
490 487 482 0
482 487 481 0
523 483 488 0
482 523 488 0
490 482 488 0
523 482 521 0
486 485 522 0
485 523 522 0
485 483 523 0
485 486 484 0
490 489 487 0
489 490 488 0
496 495 491 0
492 497 491 0
491 497 496 0
493 498 492 0
492 498 497 0
494 500 493 0
493 500 498 0
499 500 494 0
503 501 496 0
496 501 495 0
504 496 497 0
503 496 504 0
505 497 498 0
504 497 505 0
507 498 500 0
505 498 507 0
506 507 499 0
499 507 500 0
503 502 501 0
503 504 525 0
508 503 525 0
526 508 525 0
503 508 502 0
509 527 525 0
504 509 525 0
505 509 504 0
511 505 507 0
509 505 511 0
510 511 506 0
506 511 507 0
514 512 528 0
512 526 528 0
512 508 526 0
514 528 527 0
509 514 527 0
516 514 509 0
519 509 511 0
516 509 519 0
517 519 510 0
510 519 511 0
514 513 512 0
513 514 515 0
515 514 516 0
515 516 518 0
518 516 519 0
518 519 517 0
524 521 520 0
522 524 520 0
524 523 521 0
523 524 522 0
529 526 525 0
527 529 525 0
529 528 526 0
528 529 527 0
