#!ascii version of /Users/gilles/git/nukkies/notebooks/data/HCBT_STh_R.asc
546 1094
-5.343853  -60.353577  -28.534710  0
-5.814536  -60.387520  -28.599419  0
-4.834630  -60.686249  -28.166300  0
-5.095414  -60.763462  -28.295286  0
-5.442079  -60.834213  -28.432896  0
-5.837695  -60.874733  -28.560532  0
-5.495821  -61.328003  -28.406122  0
-5.890663  -61.340965  -28.456305  0
-6.347118  -61.381462  -28.549585  0
-4.833694  -59.371468  -28.110117  0
-5.297272  -59.392624  -28.116318  0
-5.797272  -59.392624  -28.116318  0
-6.297272  -59.392624  -28.116318  0
-6.797272  -59.392624  -28.116318  0
-4.902902  -59.854591  -28.078659  0
-5.298855  -60.092171  -28.327843  0
-5.332517  -59.850525  -28.108223  0
-5.812483  -60.138546  -28.351912  0
-5.797272  -59.892624  -28.116318  0
-6.297272  -59.892624  -28.116318  0
-6.797272  -59.892624  -28.116318  0
-7.297272  -59.892624  -28.116318  0
-4.808863  -60.541061  -28.006350  0
-4.646274  -60.390942  -27.963478  0
-5.138076  -60.278629  -28.210955  0
-5.032719  -60.514751  -28.082506  0
-4.886817  -60.313255  -28.029703  0
-6.047272  -60.392624  -28.366318  0
-6.297272  -60.392624  -28.116318  0
-6.797272  -60.392624  -28.116318  0
-7.297272  -60.392624  -28.116318  0
-4.741450  -60.735863  -28.008282  0
-4.876080  -60.911396  -28.027302  0
-5.209059  -61.049862  -28.123148  0
-6.046858  -60.892326  -28.366240  0
-6.294637  -61.140705  -28.365349  0
-6.297272  -60.892624  -28.116318  0
-6.797272  -60.892624  -28.116318  0
-5.358612  -61.288670  -28.141304  0
-5.619623  -61.414730  -27.976439  0
-5.821061  -61.569878  -28.265968  0
-6.542707  -61.389458  -28.363701  0
-6.347251  -61.637970  -28.322874  0
-6.797176  -61.392323  -28.112694  0
-5.866138  -61.364693  -27.536667  0
-5.950129  -61.333797  -27.604210  0
-5.797272  -57.892624  -27.616318  0
-6.297272  -57.892624  -27.616318  0
-5.797272  -58.392624  -27.616318  0
-6.297272  -58.392624  -27.616318  0
-4.797272  -59.142624  -27.866318  0
-5.297272  -59.142624  -27.866318  0
-5.297272  -58.892624  -27.616318  0
-5.797272  -59.142624  -27.866318  0
-5.797272  -58.892624  -27.616318  0
-6.297272  -59.142624  -27.866318  0
-6.297272  -58.892624  -27.616318  0
-6.797272  -59.142624  -27.866318  0
-6.797272  -58.892624  -27.616318  0
-7.297272  -58.892624  -27.616318  0
-4.633954  -59.363823  -27.832340  0
-7.047272  -59.392624  -27.866318  0
-7.297272  -59.642624  -27.866318  0
-7.297272  -59.392624  -27.616318  0
-7.797272  -59.392624  -27.616318  0
-4.705698  -59.964767  -27.830755  0
-4.659310  -60.341820  -27.790491  0
-7.547272  -59.892624  -27.866318  0
-7.797272  -59.892624  -27.616318  0
-4.623127  -60.486046  -27.734322  0
-4.718356  -60.552094  -27.580225  0
-7.547272  -60.392624  -27.866318  0
-7.297272  -60.642624  -27.866318  0
-7.797272  -60.392624  -27.616318  0
-4.696073  -60.823647  -27.731874  0
-4.892367  -60.943501  -27.716593  0
-4.743053  -60.849922  -27.590546  0
-5.263878  -60.991867  -27.678877  0
-7.047272  -60.892624  -27.866318  0
-7.297442  -60.892979  -27.615376  0
-7.797640  -60.893410  -27.614277  0
-5.606943  -61.176003  -27.503759  0
-6.040730  -61.240807  -27.396236  0
-6.092400  -61.065872  -27.289164  0
-5.911333  -61.422909  -27.659788  0
-6.328097  -61.588562  -27.788605  0
-7.049413  -61.394058  -27.863251  0
-6.792842  -61.629662  -27.852051  0
-7.303155  -61.397282  -27.610945  0
-6.027213  -61.304569  -27.394096  0
-6.023690  -61.366695  -27.427702  0
-5.809074  -61.298191  -27.486498  0
-6.019230  -61.364395  -27.430185  0
-6.057137  -61.393517  -27.411324  0
-5.797272  -57.642624  -27.366318  0
-6.297272  -57.642624  -27.366318  0
-6.792802  -57.393463  -27.118557  0
-7.293026  -57.394238  -27.123083  0
-5.547272  -57.892624  -27.366318  0
-6.546882  -57.892586  -27.366423  0
-6.796882  -57.892586  -27.116423  0
-7.296286  -57.892296  -27.117455  0
-5.547272  -58.392624  -27.366318  0
-5.297272  -58.642624  -27.366318  0
-6.547272  -58.392624  -27.366318  0
-6.797272  -58.642624  -27.366318  0
-6.797272  -58.392624  -27.116318  0
-7.297272  -58.642624  -27.366318  0
-7.297272  -58.392624  -27.116318  0
-7.797272  -58.392624  -27.116318  0
-5.047272  -58.892624  -27.366318  0
-4.797272  -59.142624  -27.366318  0
-7.547272  -58.892624  -27.366318  0
-7.797272  -59.142624  -27.366318  0
-7.797272  -58.892624  -27.116318  0
-4.585149  -59.389107  -27.343397  0
-4.797272  -59.392624  -27.116318  0
-8.047272  -59.392624  -27.366318  0
-8.297272  -59.392624  -27.116318  0
-4.595389  -59.931091  -27.325417  0
-4.800639  -59.929119  -27.104185  0
-8.047272  -59.892624  -27.366318  0
-8.297272  -59.892624  -27.116318  0
-4.703619  -60.512730  -27.347815  0
-4.801199  -60.435200  -27.102163  0
-8.047272  -60.392624  -27.366318  0
-8.297272  -60.392624  -27.116318  0
-8.797272  -60.392624  -27.116318  0
-4.726703  -60.938156  -27.367949  0
-5.082151  -61.017647  -27.352119  0
-5.761106  -60.955135  -27.287378  0
-8.047844  -60.892914  -27.364483  0
-7.798947  -61.144581  -27.359325  0
-8.297449  -60.892609  -27.115898  0
-6.272731  -61.323654  -27.324461  0
-6.243981  -61.136013  -27.363724  0
-6.263127  -61.267704  -27.250616  0
-6.370492  -61.249695  -27.187981  0
-6.498466  -61.511005  -27.436531  0
-6.670410  -61.378693  -27.157043  0
-6.908782  -61.590649  -27.330502  0
-7.552598  -61.397835  -27.359152  0
-7.299946  -61.644077  -27.333052  0
-7.805443  -61.402283  -27.103695  0
-6.172381  -61.311310  -27.338444  0
-6.209607  -61.345104  -27.361101  0
-6.209025  -61.379147  -27.310228  0
-6.404230  -61.416687  -27.360855  0
-6.342239  -61.441315  -27.272175  0
-6.647921  -61.425247  -27.168119  0
-6.966431  -61.524399  -27.161619  0
-6.787230  -57.147629  -26.872772  0
-7.287437  -57.157860  -26.880602  0
-5.797272  -57.642624  -26.866318  0
-6.544361  -57.392857  -26.867201  0
-6.296969  -57.642597  -26.866398  0
-7.551915  -57.410492  -26.883696  0
-7.847084  -57.435795  -26.631277  0
-5.547272  -57.892624  -26.866318  0
-5.797272  -57.892624  -26.616318  0
-7.557190  -57.896511  -26.874878  0
-7.801682  -58.142117  -26.868650  0
-7.822157  -57.898777  -26.623358  0
-8.369645  -57.926044  -26.611696  0
-5.547272  -58.392624  -26.866318  0
-5.297272  -58.642624  -26.866318  0
-5.797272  -58.392624  -26.616318  0
-8.053246  -58.392303  -26.868090  0
-8.315527  -58.395058  -26.618608  0
-8.826506  -58.400890  -26.611263  0
-5.047272  -58.892624  -26.866318  0
-5.297272  -58.892624  -26.616318  0
-8.048910  -58.892574  -26.866652  0
-8.297272  -59.142624  -26.866318  0
-8.299142  -58.892570  -26.616697  0
-8.803165  -58.892685  -26.616770  0
-5.047272  -59.392624  -26.866318  0
-5.297272  -59.392624  -26.616318  0
-8.547272  -59.392624  -26.866318  0
-8.797272  -59.392624  -26.616318  0
-5.047272  -59.892624  -26.866318  0
-8.547272  -59.892624  -26.866318  0
-8.797272  -60.142624  -26.866318  0
-8.797272  -59.892624  -26.616318  0
-5.047272  -60.392624  -26.866318  0
-4.797272  -60.642624  -26.866318  0
-9.047272  -60.392624  -26.866318  0
-8.797272  -60.642624  -26.866318  0
-9.297272  -60.392624  -26.616318  0
-4.572831  -60.937744  -26.853237  0
-4.870098  -61.122612  -26.873240  0
-4.804116  -60.882347  -26.616753  0
-5.465332  -61.123291  -26.892643  0
-6.215900  -61.070446  -26.965454  0
-6.729938  -61.205116  -26.931192  0
-8.547449  -60.892609  -26.865898  0
-8.299294  -61.144585  -26.859711  0
-8.797423  -60.892612  -26.615955  0
-9.297272  -60.892624  -26.616318  0
-6.314197  -61.318756  -27.263889  0
-6.406548  -61.366955  -27.181063  0
-6.473147  -61.346081  -27.125238  0
-6.849569  -61.387703  -26.869421  0
-6.707313  -61.394020  -27.016384  0
-7.003006  -61.326092  -26.758089  0
-7.364188  -61.640285  -26.930130  0
-8.052056  -61.399876  -26.852495  0
-7.831605  -61.663250  -26.810921  0
-6.206103  -61.363190  -27.251141  0
-6.240808  -61.390965  -27.294535  0
-6.274044  -61.345509  -27.259052  0
-6.358968  -61.381443  -27.292225  0
-6.389460  -61.384666  -27.222258  0
-6.388008  -61.406227  -27.157824  0
-6.565561  -61.498581  -27.053167  0
-7.147120  -61.615978  -27.039028  0
-6.847326  -61.632542  -27.096954  0
-6.785389  -57.149963  -26.373299  0
-7.277465  -57.175896  -26.388201  0
-7.806970  -57.226799  -26.393990  0
-8.707102  -57.388161  -25.883636  0
-6.543706  -57.393379  -26.367498  0
-6.297272  -57.642624  -26.366318  0
-6.794929  -57.393410  -26.117155  0
-8.112809  -57.544701  -26.362907  0
-8.400704  -57.751827  -26.345873  0
-8.349895  -57.665775  -26.001781  0
-8.772593  -57.684505  -25.897888  0
-6.047272  -57.892624  -26.366318  0
-6.297272  -57.892624  -26.116318  0
-6.797272  -57.892624  -26.116318  0
-8.655837  -58.005280  -26.308569  0
-8.850751  -58.192837  -26.317684  0
-8.858941  -58.051414  -25.986132  0
-6.047272  -58.392624  -26.366318  0
-5.797272  -58.642624  -26.366318  0
-6.297272  -58.392624  -26.116318  0
-9.065772  -58.399757  -26.353836  0
-9.299183  -58.392990  -26.110764  0
-5.547272  -58.892624  -26.366318  0
-5.797272  -58.892624  -26.116318  0
-9.053033  -58.892418  -26.365143  0
-9.297055  -58.892384  -26.115936  0
-5.547272  -59.392624  -26.366318  0
-5.297272  -59.642624  -26.366318  0
-9.047272  -59.392624  -26.366318  0
-9.297272  -59.392624  -26.116318  0
-5.047272  -59.892624  -26.366318  0
-5.297272  -59.892624  -26.116318  0
-9.047272  -59.892624  -26.366318  0
-9.297272  -60.142624  -26.366318  0
-9.297272  -59.892624  -26.116318  0
-5.047272  -60.392624  -26.366318  0
-5.299071  -60.394138  -26.116879  0
-9.547272  -60.392624  -26.366318  0
-9.797272  -60.392624  -26.116318  0
-5.050022  -60.894939  -26.367174  0
-5.327688  -61.123569  -26.370413  0
-5.312131  -60.899487  -26.121080  0
-5.903067  -61.168774  -26.376143  0
-5.811039  -60.901539  -26.117668  0
-6.512976  -61.258854  -26.374868  0
-7.054224  -61.276539  -26.369127  0
-8.302438  -61.150200  -26.348801  0
-8.798326  -61.143372  -26.363272  0
-9.547272  -60.892624  -26.366318  0
-9.297272  -61.142624  -26.366318  0
-6.611477  -61.368694  -27.109560  0
-6.778979  -61.432049  -26.998232  0
-7.180026  -61.399830  -26.631050  0
-7.000820  -61.456085  -26.822842  0
-7.324235  -61.572155  -26.627649  0
-7.296947  -61.432648  -26.403748  0
-8.064764  -61.406143  -26.326746  0
-7.851744  -61.703705  -26.309835  0
-8.317800  -61.411621  -26.067816  0
-8.802815  -61.403831  -26.099184  0
-6.441139  -61.394131  -27.131828  0
-6.472776  -61.420933  -27.146868  0
-6.560560  -61.381493  -27.111883  0
-6.601308  -61.433662  -27.078688  0
-6.999384  -61.492203  -26.817888  0
-6.789590  -61.510979  -26.995508  0
-8.665113  -57.264801  -25.723173  0
-7.275572  -57.170013  -25.883511  0
-7.773329  -57.252968  -25.907520  0
-8.503978  -57.386673  -25.752861  0
-8.296925  -57.423740  -25.873373  0
-8.868899  -57.471718  -25.686556  0
-7.037707  -57.398323  -25.870857  0
-7.284452  -57.403336  -25.623245  0
-7.774199  -57.428455  -25.635921  0
-8.916203  -57.764381  -25.670055  0
-7.044637  -57.894188  -25.867407  0
-6.797272  -58.142624  -25.866318  0
-7.288515  -57.900764  -25.620945  0
-9.015415  -58.024345  -25.742393  0
-9.297170  -58.158730  -25.833761  0
-9.269159  -57.922756  -25.556700  0
-6.547272  -58.392624  -25.866318  0
-6.297272  -58.642624  -25.866318  0
-6.797272  -58.392624  -25.616318  0
-9.546975  -58.392864  -25.860401  0
-9.796807  -58.392097  -25.615486  0
-6.047272  -58.892624  -25.866318  0
-5.797272  -59.142624  -25.866318  0
-6.297272  -58.892624  -25.616318  0
-6.797272  -58.892624  -25.616318  0
-9.546807  -58.892097  -25.865486  0
-9.797272  -58.892624  -25.616318  0
-5.547272  -59.392624  -25.866318  0
-5.797272  -59.392624  -25.616318  0
-6.297272  -59.392624  -25.616318  0
-9.547272  -59.392624  -25.866318  0
-9.797272  -59.392624  -25.616318  0
-5.547272  -59.892624  -25.866318  0
-5.797272  -59.892624  -25.616318  0
-9.547272  -59.892624  -25.866318  0
-9.797272  -60.142624  -25.866318  0
-9.797272  -59.892624  -25.616318  0
-5.547272  -60.392624  -25.866318  0
-5.798102  -60.643318  -25.866577  0
-5.797272  -60.392624  -25.616318  0
-10.047272  -60.392624  -25.866318  0
-9.797272  -60.642624  -25.866318  0
-10.297272  -60.392624  -25.616318  0
-6.051954  -60.899097  -25.864206  0
-6.333622  -61.173504  -25.858721  0
-6.301274  -60.902454  -25.608786  0
-6.866895  -61.252487  -25.809589  0
-7.379432  -61.279068  -25.914454  0
-9.547272  -60.892624  -25.866318  0
-9.297272  -61.142624  -25.866318  0
-9.797272  -60.892624  -25.616318  0
-6.758642  -61.415516  -26.993576  0
-6.994072  -61.459435  -26.731758  0
-7.623391  -61.567474  -25.827202  0
-7.862695  -61.747108  -25.873556  0
-7.846620  -61.540585  -25.495682  0
-8.330105  -61.691086  -25.790867  0
-9.048660  -61.395023  -25.861387  0
-8.801415  -61.652637  -25.853216  0
-9.297834  -61.393837  -25.614170  0
-6.649593  -61.422474  -27.025484  0
-6.655144  -61.444366  -27.030903  0
-6.662898  -61.422234  -26.969707  0
-7.013804  -61.521313  -26.726357  0
-6.814750  -61.453983  -27.010733  0
-6.822105  -61.420483  -26.893040  0
-8.629543  -57.254856  -25.335617  0
-8.463623  -57.367809  -25.409189  0
-8.257247  -57.374767  -25.446894  0
-8.884417  -57.338013  -25.347044  0
-8.654692  -57.426208  -25.209154  0
-8.013029  -57.484261  -25.413532  0
-7.778299  -57.671989  -25.381187  0
-8.255968  -57.545471  -25.202089  0
-8.934026  -57.592861  -25.300823  0
-9.240026  -57.702785  -25.308105  0
-7.536545  -57.904285  -25.371927  0
-7.294896  -58.145031  -25.367455  0
-7.791405  -57.900303  -25.119293  0
-9.528409  -57.903824  -25.349363  0
-9.794892  -58.143089  -25.359884  0
-7.047272  -58.392624  -25.366318  0
-7.296933  -58.393246  -25.116489  0
-7.796762  -58.393551  -25.116537  0
-10.047055  -58.392384  -25.365936  0
-9.794289  -58.392368  -25.113832  0
-7.047272  -58.892624  -25.366318  0
-6.797272  -59.142624  -25.366318  0
-7.297272  -58.892624  -25.116318  0
-10.047272  -58.892624  -25.366318  0
-6.547272  -59.392624  -25.366318  0
-6.297272  -59.642624  -25.366318  0
-6.797272  -59.392624  -25.116318  0
-10.047272  -59.392624  -25.366318  0
-6.047272  -59.892624  -25.366318  0
-6.297272  -59.892624  -25.116318  0
-6.797272  -59.892624  -25.116318  0
-10.047272  -59.892624  -25.366318  0
-10.297272  -60.142624  -25.366318  0
-10.297272  -59.892624  -25.116318  0
-6.047272  -60.392624  -25.366318  0
-6.297272  -60.642624  -25.366318  0
-6.297432  -60.394112  -25.114634  0
-6.797551  -60.395237  -25.113371  0
-10.547272  -60.392624  -25.366318  0
-10.297272  -60.642624  -25.366318  0
-10.797272  -60.392624  -25.116318  0
-6.547885  -60.898659  -25.359264  0
-6.809805  -61.175335  -25.347048  0
-6.799177  -60.908390  -25.102564  0
-7.320255  -61.224701  -25.311911  0
-7.299252  -60.908577  -25.102764  0
-7.829808  -61.273952  -25.278212  0
-10.047272  -60.892624  -25.366318  0
-9.797272  -61.142624  -25.366318  0
-10.297272  -60.892624  -25.116318  0
-8.060204  -61.453060  -25.317362  0
-8.323280  -61.707836  -25.296564  0
-8.302547  -61.416416  -25.091206  0
-8.803020  -61.659721  -25.348045  0
-9.547272  -61.392624  -25.366318  0
-9.298385  -61.645359  -25.361834  0
-9.797272  -61.392624  -25.116318  0
-8.694506  -57.508804  -24.996090  0
-8.498723  -57.601612  -24.972662  0
-8.270320  -57.729519  -24.920988  0
-8.948812  -57.607758  -24.933119  0
-8.732159  -57.601971  -24.752499  0
-9.242496  -57.711506  -24.868845  0
-8.032850  -57.922062  -24.881516  0
-8.287341  -57.920811  -24.632942  0
-9.531535  -57.903774  -24.866798  0
-8.044558  -58.397179  -24.867567  0
-7.797075  -58.642979  -24.866371  0
-9.544054  -58.393600  -24.864601  0
-9.797272  -58.642624  -24.866318  0
-7.547272  -58.892624  -24.866318  0
-7.297272  -59.142624  -24.866318  0
-7.797272  -58.892624  -24.616318  0
-10.047272  -58.892624  -24.866318  0
-7.047272  -59.392624  -24.866318  0
-7.297272  -59.392624  -24.616318  0
-10.047272  -59.392624  -24.866318  0
-10.297272  -59.642624  -24.866318  0
-7.047272  -59.892624  -24.866318  0
-7.297272  -59.892624  -24.616318  0
-10.547272  -59.892624  -24.866318  0
-10.797272  -60.142624  -24.866318  0
-7.047272  -60.392624  -24.866318  0
-7.297459  -60.644367  -24.864353  0
-7.297272  -60.392624  -24.616318  0
-11.047272  -60.392624  -24.866318  0
-10.797272  -60.642624  -24.866318  0
-7.547800  -60.897316  -24.861210  0
-7.801534  -61.170273  -24.845652  0
-8.301992  -61.169510  -24.842510  0
-10.547272  -60.892624  -24.866318  0
-10.297272  -61.142624  -24.866318  0
-8.548363  -61.398125  -24.859772  0
-8.800312  -61.652603  -24.855373  0
-8.797588  -61.393700  -24.614851  0
-9.298333  -61.645645  -24.861782  0
-10.047272  -61.392624  -24.866318  0
-9.797272  -61.642624  -24.866318  0
-8.762525  -57.730499  -24.428480  0
-9.279109  -57.666115  -24.380585  0
-8.531327  -57.954845  -24.410173  0
-8.294127  -58.156590  -24.375668  0
-8.790994  -57.912224  -24.133276  0
-9.544364  -57.896511  -24.368399  0
-9.291646  -57.905418  -24.127653  0
-8.044233  -58.399845  -24.368458  0
-8.296776  -58.395214  -24.117525  0
-8.796733  -58.394920  -24.118378  0
-9.547258  -58.392624  -24.366199  0
-9.797272  -58.642624  -24.366318  0
-8.046927  -58.893166  -24.365986  0
-7.797272  -59.142624  -24.366318  0
-8.297239  -58.892624  -24.116028  0
-10.047272  -58.892624  -24.366318  0
-7.547272  -59.392624  -24.366318  0
-7.797272  -59.392624  -24.116318  0
-8.297272  -59.392624  -24.116318  0
-10.047272  -59.392624  -24.366318  0
-10.297272  -59.642624  -24.366318  0
-7.547272  -59.892624  -24.366318  0
-7.797272  -59.892624  -24.116318  0
-8.297272  -59.892624  -24.116318  0
-10.547272  -59.892624  -24.366318  0
-10.797272  -60.142624  -24.366318  0
-7.547272  -60.392624  -24.366318  0
-7.797272  -60.392624  -24.116318  0
-8.297272  -60.392624  -24.116318  0
-11.047272  -60.392624  -24.366318  0
-10.797272  -60.642624  -24.366318  0
-7.547272  -60.892624  -24.366318  0
-7.797788  -61.147125  -24.361477  0
-7.797272  -60.892624  -24.116318  0
-8.298017  -61.149044  -24.359484  0
-8.297272  -60.892624  -24.116318  0
-8.797482  -61.144417  -24.364441  0
-8.797272  -60.892624  -24.116318  0
-10.547272  -60.892624  -24.366318  0
-10.297272  -61.142624  -24.366318  0
-9.047272  -61.392624  -24.366318  0
-9.297509  -61.643433  -24.365217  0
-9.297272  -61.392624  -24.116318  0
-10.047272  -61.392624  -24.366318  0
-9.797272  -61.642624  -24.366318  0
-9.296905  -58.143753  -23.867336  0
-9.046895  -58.393757  -23.867271  0
-8.797245  -58.642624  -23.866066  0
-9.547254  -58.392624  -23.866156  0
-9.297260  -58.392624  -23.616219  0
-9.797272  -58.642624  -23.866318  0
-8.547252  -58.892624  -23.866135  0
-8.797272  -58.892624  -23.616318  0
-9.297272  -58.892624  -23.616318  0
-10.047272  -58.892624  -23.866318  0
-9.797272  -58.892624  -23.616318  0
-8.547272  -59.392624  -23.866318  0
-8.797272  -59.392624  -23.616318  0
-9.297272  -59.392624  -23.616318  0
-10.047272  -59.392624  -23.866318  0
-9.797272  -59.392624  -23.616318  0
-10.297272  -59.642624  -23.866318  0
-8.547272  -59.892624  -23.866318  0
-8.797272  -59.892624  -23.616318  0
-9.297272  -59.892624  -23.616318  0
-10.547272  -59.892624  -23.866318  0
-10.797272  -60.142624  -23.866318  0
-8.547272  -60.392624  -23.866318  0
-8.797272  -60.642624  -23.866318  0
-8.797272  -60.392624  -23.616318  0
-9.297272  -60.392624  -23.616318  0
-11.047272  -60.392624  -23.866318  0
-10.797272  -60.642624  -23.866318  0
-9.047272  -60.892624  -23.866318  0
-9.297272  -61.142624  -23.866318  0
-9.297272  -60.892624  -23.616318  0
-9.797272  -60.892624  -23.616318  0
-10.547272  -60.892624  -23.866318  0
-10.297272  -61.142624  -23.866318  0
-10.297272  -60.892624  -23.616318  0
-9.547272  -61.392624  -23.866318  0
-10.047272  -61.392624  -23.866318  0
-9.797272  -61.642624  -23.866318  0
-9.797272  -61.392624  -23.616318  0
-9.797272  -59.642624  -23.366318  0
-10.297272  -59.642624  -23.366318  0
-9.547272  -59.892624  -23.366318  0
-9.797272  -59.892624  -23.116318  0
-10.547272  -59.892624  -23.366318  0
-10.297272  -59.892624  -23.116318  0
-10.797272  -60.142624  -23.366318  0
-9.547272  -60.392624  -23.366318  0
-9.797272  -60.642624  -23.366318  0
-9.797272  -60.392624  -23.116318  0
-10.297272  -60.642624  -23.366318  0
-10.297272  -60.392624  -23.116318  0
-11.047272  -60.392624  -23.366318  0
-10.797272  -60.642624  -23.366318  0
-10.797272  -60.392624  -23.116318  0
15 24 0 0
1 17 0 0
0 17 15 0
1 27 17 0
22 31 2 0
3 25 2 0
2 25 22 0
25 3 24 0
3 0 24 0
3 4 0 0
0 5 1 0
0 4 5 0
27 1 34 0
34 1 5 0
31 32 2 0
2 32 3 0
3 32 33 0
38 6 33 0
6 3 33 0
6 4 3 0
4 7 5 0
4 6 7 0
34 5 35 0
5 8 35 0
5 7 8 0
8 41 35 0
38 39 6 0
6 39 7 0
7 39 40 0
7 40 8 0
8 40 42 0
8 42 41 0
50 60 9 0
10 51 9 0
9 51 50 0
11 53 10 0
10 53 51 0
12 55 11 0
11 55 53 0
13 57 12 0
12 57 55 0
13 61 57 0
9 60 14 0
14 60 65 0
9 16 10 0
9 14 16 0
10 18 11 0
10 16 18 0
11 19 12 0
11 18 19 0
12 20 13 0
12 19 20 0
61 13 62 0
13 21 62 0
13 20 21 0
21 67 62 0
66 69 23 0
66 23 65 0
23 14 65 0
23 26 14 0
26 24 15 0
16 26 15 0
14 26 16 0
16 15 17 0
16 17 18 0
18 17 27 0
28 18 27 0
19 18 28 0
19 29 20 0
19 28 29 0
20 30 21 0
20 29 30 0
67 21 71 0
71 21 30 0
23 69 22 0
69 31 22 0
69 74 31 0
23 22 25 0
23 25 26 0
26 25 24 0
34 36 28 0
34 28 27 0
28 37 29 0
28 36 37 0
72 30 78 0
30 37 78 0
30 29 37 0
30 72 71 0
74 75 31 0
31 75 32 0
32 77 33 0
75 77 32 0
38 33 77 0
38 77 81 0
35 36 34 0
36 35 41 0
43 36 41 0
37 36 43 0
78 37 86 0
86 37 43 0
82 89 44 0
44 45 39 0
81 44 39 0
38 81 39 0
44 81 82 0
39 45 91 0
84 39 91 0
40 39 84 0
40 85 42 0
84 85 40 0
41 42 43 0
42 87 43 0
42 85 87 0
43 87 86 0
89 90 44 0
44 90 45 0
45 90 92 0
45 92 91 0
94 98 46 0
47 95 46 0
46 95 94 0
47 99 95 0
46 98 48 0
48 98 102 0
46 49 47 0
46 48 49 0
99 47 104 0
104 47 49 0
103 110 52 0
103 52 102 0
52 48 102 0
52 54 48 0
48 56 49 0
48 54 56 0
104 49 105 0
49 58 105 0
49 56 58 0
59 107 58 0
58 107 105 0
59 112 107 0
111 115 50 0
50 115 60 0
51 52 110 0
111 51 110 0
50 51 111 0
52 51 53 0
52 53 54 0
54 53 55 0
54 55 56 0
56 55 57 0
56 57 58 0
58 57 61 0
63 58 61 0
59 58 63 0
112 59 113 0
59 64 113 0
59 63 64 0
64 117 113 0
115 65 60 0
119 65 115 0
62 63 61 0
63 62 67 0
68 63 67 0
64 63 68 0
117 64 121 0
121 64 68 0
70 69 66 0
123 70 66 0
65 123 66 0
119 123 65 0
71 73 68 0
71 68 67 0
121 68 125 0
125 68 73 0
76 74 70 0
70 74 69 0
70 123 128 0
70 128 76 0
78 79 72 0
73 71 72 0
79 73 72 0
80 73 79 0
125 73 131 0
131 73 80 0
76 75 74 0
128 129 76 0
129 75 76 0
129 77 75 0
130 83 81 0
77 130 81 0
129 130 77 0
135 83 130 0
86 88 79 0
86 79 78 0
132 80 141 0
80 88 141 0
80 79 88 0
80 132 131 0
134 144 82 0
82 144 89 0
82 81 83 0
136 82 83 0
134 82 136 0
93 91 84 0
136 135 83 0
84 93 147 0
138 84 147 0
85 84 138 0
85 140 87 0
138 140 85 0
86 87 88 0
87 142 88 0
87 140 142 0
88 142 141 0
144 145 89 0
89 145 90 0
90 146 92 0
145 146 90 0
91 92 93 0
92 148 93 0
92 146 148 0
93 148 147 0
151 154 96 0
97 152 96 0
96 152 151 0
97 156 152 0
153 158 94 0
94 158 98 0
155 94 95 0
155 153 94 0
100 96 99 0
96 155 99 0
155 95 99 0
96 154 155 0
96 101 97 0
96 100 101 0
156 97 160 0
160 97 101 0
158 102 98 0
164 102 158 0
104 106 100 0
104 100 99 0
100 108 101 0
100 106 108 0
160 101 161 0
101 109 161 0
101 108 109 0
109 167 161 0
165 170 103 0
103 170 110 0
103 102 164 0
103 164 165 0
105 106 104 0
106 105 107 0
106 107 108 0
108 107 112 0
114 108 112 0
109 108 114 0
167 109 172 0
172 109 114 0
116 115 111 0
176 116 111 0
110 176 111 0
170 176 110 0
113 114 112 0
118 173 117 0
117 173 113 0
173 172 113 0
172 114 113 0
118 178 173 0
120 119 116 0
116 119 115 0
116 176 180 0
116 180 120 0
121 122 118 0
121 118 117 0
178 118 181 0
181 118 122 0
124 123 120 0
120 123 119 0
120 180 184 0
120 184 124 0
125 126 122 0
125 122 121 0
181 122 182 0
122 127 182 0
122 126 127 0
127 186 182 0
185 189 124 0
189 123 124 0
189 128 123 0
185 124 184 0
131 133 126 0
131 126 125 0
187 127 195 0
127 133 195 0
127 126 133 0
127 187 186 0
189 190 128 0
128 190 129 0
129 192 130 0
190 192 129 0
193 137 135 0
130 193 135 0
192 193 130 0
194 139 137 0
194 137 193 0
202 139 194 0
141 143 132 0
143 206 132 0
132 206 131 0
206 196 131 0
196 133 131 0
133 196 195 0
199 208 134 0
134 208 144 0
200 134 136 0
200 199 134 0
136 135 137 0
201 136 137 0
200 136 201 0
201 149 203 0
147 201 149 0
137 147 201 0
138 137 147 0
139 138 137 0
140 139 138 0
202 140 139 0
150 202 140 0
203 150 202 0
149 203 150 0
140 150 215 0
205 140 215 0
142 140 205 0
141 142 143 0
142 207 143 0
142 205 207 0
143 207 206 0
208 209 144 0
144 209 145 0
145 211 146 0
209 211 145 0
146 213 148 0
211 213 146 0
147 148 149 0
148 214 149 0
148 213 214 0
149 214 150 0
150 214 216 0
150 216 215 0
217 221 151 0
151 221 154 0
218 151 152 0
218 217 151 0
157 219 156 0
219 152 156 0
219 218 152 0
157 224 219 0
159 158 153 0
159 153 228 0
153 222 228 0
153 155 222 0
155 154 221 0
155 221 222 0
160 162 157 0
160 157 156 0
224 157 225 0
157 163 225 0
157 162 163 0
163 231 225 0
166 164 159 0
159 164 158 0
159 228 234 0
159 234 166 0
161 162 160 0
162 161 167 0
168 162 167 0
163 162 168 0
231 163 232 0
163 169 232 0
163 168 169 0
169 237 232 0
171 170 165 0
239 171 165 0
239 165 164 0
235 239 164 0
166 235 164 0
235 166 234 0
172 174 168 0
172 168 167 0
168 175 169 0
168 174 175 0
237 169 241 0
241 169 175 0
177 176 171 0
171 176 170 0
171 239 243 0
171 243 177 0
173 174 172 0
174 173 178 0
179 174 178 0
175 174 179 0
241 175 245 0
245 175 179 0
244 247 177 0
247 176 177 0
247 180 176 0
244 177 243 0
181 183 179 0
181 179 178 0
245 179 249 0
249 179 183 0
247 184 180 0
252 184 247 0
182 183 181 0
188 250 186 0
186 250 182 0
250 249 182 0
249 183 182 0
188 254 250 0
191 189 185 0
256 191 185 0
184 256 185 0
252 256 184 0
195 197 187 0
188 186 187 0
197 188 187 0
198 188 197 0
254 188 265 0
265 188 198 0
191 190 189 0
256 257 191 0
257 190 191 0
257 192 190 0
192 259 193 0
257 259 192 0
193 261 194 0
259 261 193 0
262 204 202 0
194 262 202 0
261 262 194 0
269 204 262 0
273 263 196 0
273 196 206 0
195 196 197 0
196 264 197 0
196 263 264 0
197 264 198 0
198 264 266 0
198 266 265 0
210 208 199 0
200 212 199 0
199 212 210 0
212 200 277 0
200 267 277 0
200 201 267 0
268 201 203 0
268 267 201 0
203 202 204 0
270 203 204 0
268 203 270 0
215 270 281 0
204 215 270 0
205 204 215 0
269 205 204 0
271 269 205 0
205 274 207 0
271 274 205 0
206 207 273 0
273 207 274 0
210 209 208 0
209 210 211 0
211 210 212 0
277 278 212 0
278 211 212 0
278 213 211 0
213 280 214 0
278 280 213 0
214 282 216 0
280 282 214 0
215 216 281 0
281 216 282 0
283 286 220 0
220 288 283 0
223 221 217 0
223 217 289 0
217 284 289 0
217 218 284 0
285 218 219 0
285 284 218 0
226 287 224 0
287 219 224 0
287 285 219 0
287 226 286 0
226 220 286 0
226 227 220 0
288 220 292 0
292 220 227 0
229 228 222 0
221 223 222 0
223 229 222 0
223 230 229 0
223 289 293 0
223 293 230 0
225 226 224 0
226 225 231 0
233 226 231 0
227 226 233 0
292 227 296 0
296 227 233 0
236 234 229 0
229 234 228 0
230 294 299 0
236 230 299 0
229 230 236 0
294 230 293 0
232 233 231 0
238 297 237 0
237 297 232 0
297 296 232 0
296 233 232 0
238 302 297 0
240 239 235 0
304 240 235 0
304 235 234 0
300 304 234 0
236 300 234 0
300 236 299 0
241 242 238 0
241 238 237 0
302 238 308 0
308 238 242 0
305 310 240 0
310 239 240 0
310 243 239 0
305 240 304 0
245 246 242 0
245 242 241 0
308 242 313 0
313 242 246 0
248 247 244 0
315 248 244 0
243 315 244 0
310 315 243 0
249 251 246 0
249 246 245 0
313 246 317 0
317 246 251 0
253 252 248 0
248 252 247 0
248 315 320 0
248 320 253 0
250 251 249 0
255 318 254 0
254 318 250 0
318 317 250 0
317 251 250 0
255 323 318 0
258 256 253 0
253 256 252 0
253 320 321 0
260 253 321 0
258 253 260 0
326 260 321 0
331 324 255 0
254 331 255 0
265 331 254 0
255 324 323 0
258 257 256 0
257 258 259 0
259 258 260 0
326 327 260 0
327 259 260 0
327 261 259 0
261 329 262 0
327 329 261 0
330 272 269 0
262 330 269 0
329 330 262 0
336 272 330 0
273 275 263 0
276 264 263 0
276 263 275 0
264 276 340 0
332 264 340 0
266 264 332 0
265 266 331 0
331 266 332 0
279 277 267 0
279 267 343 0
267 334 343 0
267 268 334 0
335 268 270 0
335 334 268 0
335 269 270 0
272 335 269 0
346 272 335 0
271 346 272 0
281 271 346 0
336 337 272 0
337 271 272 0
337 274 271 0
273 274 275 0
274 339 275 0
274 337 339 0
275 339 276 0
276 339 341 0
276 341 340 0
279 278 277 0
343 344 279 0
344 278 279 0
344 280 278 0
280 347 282 0
344 347 280 0
281 282 346 0
346 282 347 0
349 350 283 0
283 350 286 0
283 288 349 0
349 288 352 0
290 289 284 0
285 291 284 0
284 291 290 0
291 285 354 0
285 351 354 0
285 287 351 0
287 286 350 0
287 350 351 0
292 352 288 0
292 357 352 0
295 293 290 0
290 293 289 0
291 355 359 0
295 291 359 0
290 291 295 0
355 291 354 0
296 298 358 0
357 296 358 0
292 296 357 0
298 362 358 0
301 299 294 0
364 301 294 0
364 294 293 0
360 364 293 0
295 360 293 0
360 295 359 0
297 298 296 0
303 363 302 0
302 363 297 0
363 362 297 0
362 298 297 0
303 367 363 0
306 304 300 0
299 301 300 0
301 306 300 0
301 307 306 0
301 364 369 0
301 369 307 0
308 309 303 0
308 303 302 0
367 303 372 0
372 303 309 0
311 310 305 0
304 306 305 0
306 311 305 0
306 312 311 0
307 370 373 0
312 307 373 0
306 307 312 0
370 307 369 0
313 314 309 0
313 309 308 0
372 309 376 0
376 309 314 0
316 315 311 0
311 315 310 0
312 374 377 0
316 312 377 0
311 312 316 0
374 312 373 0
317 319 314 0
317 314 313 0
376 314 380 0
380 314 319 0
322 320 316 0
316 320 315 0
316 377 383 0
316 383 322 0
318 319 317 0
325 381 323 0
323 381 318 0
381 380 318 0
380 319 318 0
325 387 381 0
322 321 320 0
384 328 326 0
384 326 321 0
383 384 321 0
322 383 321 0
390 328 384 0
331 333 324 0
333 396 324 0
324 396 323 0
396 388 323 0
388 325 323 0
325 388 387 0
328 327 326 0
390 391 328 0
391 327 328 0
391 329 327 0
329 393 330 0
391 393 329 0
395 338 336 0
330 395 336 0
393 395 330 0
399 338 395 0
340 342 332 0
342 403 332 0
332 403 331 0
403 397 331 0
397 333 331 0
333 397 396 0
345 343 334 0
335 348 334 0
334 348 345 0
346 348 335 0
338 337 336 0
399 400 338 0
400 337 338 0
400 339 337 0
339 402 341 0
400 402 339 0
340 341 342 0
341 404 342 0
341 402 404 0
342 404 403 0
345 344 343 0
344 345 347 0
347 345 348 0
347 348 346 0
353 350 349 0
352 353 349 0
356 354 351 0
407 356 351 0
407 351 350 0
406 407 350 0
353 406 350 0
353 352 406 0
352 409 406 0
352 357 409 0
361 359 355 0
412 361 355 0
412 355 354 0
408 412 354 0
356 408 354 0
408 356 407 0
411 409 357 0
411 357 358 0
358 362 411 0
411 362 414 0
365 364 360 0
359 361 360 0
361 365 360 0
361 366 365 0
361 412 415 0
361 415 366 0
362 363 368 0
417 362 368 0
414 362 417 0
367 368 363 0
371 369 365 0
365 369 364 0
366 416 419 0
371 366 419 0
365 366 371 0
416 366 415 0
418 417 368 0
368 367 418 0
367 422 418 0
367 372 422 0
375 373 370 0
423 375 370 0
423 370 369 0
420 423 369 0
371 420 369 0
420 371 419 0
376 422 372 0
376 425 422 0
378 377 374 0
373 375 374 0
375 378 374 0
375 379 378 0
375 423 427 0
375 427 379 0
380 382 426 0
425 380 426 0
376 380 425 0
382 429 426 0
385 383 378 0
378 383 377 0
386 378 379 0
385 378 386 0
379 427 431 0
379 431 386 0
381 382 380 0
389 430 387 0
387 430 381 0
430 429 381 0
429 382 381 0
389 434 430 0
385 384 383 0
384 385 390 0
385 392 390 0
385 386 392 0
386 431 432 0
394 386 432 0
392 386 394 0
436 394 432 0
396 398 388 0
398 439 388 0
388 439 387 0
439 435 387 0
435 389 387 0
389 435 434 0
392 391 390 0
391 392 393 0
393 392 394 0
436 437 394 0
437 393 394 0
437 395 393 0
438 401 399 0
395 438 399 0
437 438 395 0
441 401 438 0
403 405 397 0
405 445 397 0
397 445 396 0
445 440 396 0
440 398 396 0
398 440 439 0
401 400 399 0
441 442 401 0
442 400 401 0
442 402 400 0
402 444 404 0
442 444 402 0
403 404 405 0
404 446 405 0
404 444 446 0
405 446 445 0
410 407 406 0
409 410 406 0
413 412 408 0
449 413 408 0
449 408 407 0
447 449 407 0
410 447 407 0
447 410 409 0
411 447 409 0
448 447 411 0
411 414 448 0
448 414 452 0
450 454 413 0
454 412 413 0
454 415 412 0
450 413 449 0
417 452 414 0
417 457 452 0
421 419 416 0
459 421 416 0
415 459 416 0
454 459 415 0
458 457 417 0
458 417 418 0
418 422 458 0
458 422 462 0
424 423 420 0
463 424 420 0
463 420 419 0
460 463 419 0
421 460 419 0
460 421 459 0
425 462 422 0
425 466 462 0
428 427 424 0
424 427 423 0
424 463 468 0
424 468 428 0
467 466 425 0
467 425 426 0
426 429 467 0
467 429 471 0
433 431 428 0
428 431 427 0
428 468 473 0
428 473 433 0
472 471 429 0
472 429 430 0
430 434 472 0
472 434 476 0
433 432 431 0
436 432 433 0
473 436 433 0
478 436 473 0
485 477 435 0
485 435 439 0
434 435 476 0
476 435 477 0
478 479 436 0
436 479 437 0
437 481 438 0
479 481 437 0
483 443 441 0
438 483 441 0
481 483 438 0
487 443 483 0
490 486 440 0
490 440 445 0
439 440 485 0
485 440 486 0
443 442 441 0
487 488 443 0
488 442 443 0
488 444 442 0
444 491 446 0
488 491 444 0
445 446 490 0
490 446 491 0
451 449 447 0
448 453 447 0
447 453 451 0
452 453 448 0
455 454 450 0
449 451 450 0
451 455 450 0
451 456 455 0
453 492 493 0
456 453 493 0
451 453 456 0
453 452 492 0
452 495 492 0
452 457 495 0
461 459 455 0
455 459 454 0
456 494 498 0
461 456 498 0
455 456 461 0
494 456 493 0
497 495 457 0
497 457 458 0
458 462 497 0
497 462 501 0
464 463 460 0
459 461 460 0
461 464 460 0
461 465 464 0
461 498 503 0
461 503 465 0
466 501 462 0
466 506 501 0
469 468 464 0
464 468 463 0
470 464 465 0
469 464 470 0
465 503 509 0
465 509 470 0
508 506 466 0
508 466 467 0
467 471 508 0
508 471 512 0
474 473 469 0
469 473 468 0
475 469 470 0
474 469 475 0
470 509 514 0
470 514 475 0
513 512 471 0
513 471 472 0
472 476 513 0
513 476 518 0
480 478 474 0
474 478 473 0
482 474 475 0
480 474 482 0
475 514 515 0
484 475 515 0
482 475 484 0
520 484 515 0
524 519 477 0
524 477 485 0
476 477 518 0
518 477 519 0
480 479 478 0
479 480 481 0
481 480 482 0
481 482 483 0
483 482 484 0
521 489 487 0
521 487 483 0
520 521 483 0
484 520 483 0
527 489 521 0
528 525 486 0
528 486 490 0
485 486 524 0
524 486 525 0
489 488 487 0
527 529 489 0
529 488 489 0
529 491 488 0
490 491 528 0
528 491 529 0
496 493 492 0
495 496 492 0
499 498 494 0
493 496 494 0
496 499 494 0
496 500 499 0
497 502 495 0
502 496 495 0
502 500 496 0
501 502 497 0
504 503 499 0
499 503 498 0
505 499 500 0
504 499 505 0
507 500 502 0
505 500 507 0
506 507 501 0
501 507 502 0
510 509 504 0
504 509 503 0
511 504 505 0
510 504 511 0
507 531 533 0
511 507 533 0
505 507 511 0
531 507 506 0
508 531 506 0
532 531 508 0
508 512 532 0
532 512 535 0
516 514 510 0
510 514 509 0
517 510 511 0
516 510 517 0
511 533 538 0
511 538 517 0
537 535 512 0
537 512 513 0
513 518 537 0
537 518 543 0
516 515 514 0
515 516 520 0
516 522 520 0
516 517 522 0
517 538 539 0
523 517 539 0
522 517 523 0
541 526 523 0
541 523 539 0
519 524 526 0
541 519 526 0
544 519 541 0
518 519 543 0
543 519 544 0
522 521 520 0
521 522 527 0
522 530 527 0
522 523 530 0
528 530 525 0
530 526 525 0
530 523 526 0
525 526 524 0
530 529 527 0
529 530 528 0
534 533 531 0
532 536 531 0
531 536 534 0
535 536 532 0
540 538 534 0
534 538 533 0
542 534 536 0
540 534 542 0
537 545 535 0
545 536 535 0
545 542 536 0
543 545 537 0
540 539 538 0
539 540 541 0
541 540 542 0
541 542 544 0
544 542 545 0
544 545 543 0
