#!ascii version of /Users/gilles/git/nukkies/notebooks/data/HCBT_STh_L_dil.asc
736 1474
10.542621  -59.381943  -26.970972  0
10.174467  -59.382862  -27.017771  0
9.665610  -59.399754  -27.003643  0
9.255442  -59.472168  -26.914881  0
11.139732  -56.782867  -26.384901  0
11.010726  -58.012440  -26.522568  0
10.507121  -57.980614  -26.547930  0
9.987534  -58.015812  -26.482058  0
11.158879  -58.444141  -26.573952  0
10.676266  -58.386772  -26.683222  0
10.136522  -58.366367  -26.693316  0
9.592579  -58.387161  -26.567022  0
11.313723  -58.910027  -26.580616  0
10.756721  -59.251602  -26.885458  0
10.834822  -58.880421  -26.769411  0
10.439515  -59.121994  -26.942850  0
10.294042  -58.757183  -26.843632  0
9.918935  -59.085285  -26.950846  0
9.732365  -58.737331  -26.794783  0
9.263453  -59.117477  -26.779520  0
9.310926  -58.724400  -26.629379  0
11.516559  -59.353519  -26.501272  0
10.739966  -59.503941  -26.885506  0
11.050935  -59.369324  -26.723034  0
10.420298  -59.633877  -26.949675  0
9.960086  -59.673031  -26.994745  0
9.502862  -59.704041  -26.945889  0
8.883527  -59.474609  -26.646839  0
9.142886  -59.711559  -26.787447  0
8.630161  -59.397549  -26.467199  0
11.255372  -59.813385  -26.540194  0
10.730231  -59.849174  -26.753401  0
10.187234  -59.973869  -26.842134  0
9.753288  -59.954086  -26.868658  0
9.337105  -60.057762  -26.656927  0
10.903952  -60.218151  -26.512575  0
10.394857  -60.313145  -26.610325  0
9.805845  -60.345036  -26.615538  0
11.063614  -56.622417  -26.218754  0
11.282228  -56.518936  -26.088524  0
11.267770  -56.804008  -26.319067  0
11.556011  -56.815536  -26.122473  0
10.955765  -56.778770  -26.282385  0
11.096468  -56.920803  -26.365522  0
10.683146  -56.987072  -26.156441  0
11.774204  -57.308811  -26.106644  0
11.263326  -57.714603  -26.401163  0
11.234161  -57.236515  -26.310925  0
10.854725  -57.626514  -26.423609  0
10.687287  -57.328064  -26.297440  0
10.245976  -57.605038  -26.297028  0
10.328862  -57.249752  -26.122810  0
12.046647  -57.821522  -26.043236  0
11.428042  -58.083004  -26.408205  0
11.619800  -57.715954  -26.261095  0
9.839860  -57.805374  -26.278336  0
9.567201  -58.054157  -26.264736  0
9.641371  -57.824245  -26.121540  0
12.181261  -58.399578  -26.064522  0
11.560960  -58.544277  -26.419912  0
11.808877  -58.211658  -26.243990  0
9.316837  -58.333229  -26.342501  0
9.216285  -58.549191  -26.452044  0
9.107697  -58.505882  -26.219849  0
12.318113  -58.908432  -26.069769  0
11.640488  -58.948265  -26.432480  0
11.809561  -59.189342  -26.361334  0
11.926792  -58.786583  -26.262444  0
8.951264  -58.863522  -26.318386  0
8.746037  -59.226608  -26.483980  0
12.525561  -59.304752  -25.981440  0
11.785859  -59.502926  -26.355768  0
12.085855  -59.338604  -26.198492  0
11.599078  -59.705769  -26.419403  0
8.555803  -59.348816  -26.305307  0
8.631653  -59.545727  -26.257381  0
12.294301  -59.732944  -26.013750  0
11.515544  -59.906929  -26.396900  0
11.798342  -59.864582  -26.230656  0
11.326991  -60.159050  -26.342503  0
8.920641  -59.873161  -26.391201  0
9.086710  -60.243023  -26.300674  0
11.014864  -60.393894  -26.359547  0
11.162449  -60.481556  -26.191072  0
10.682977  -60.622749  -26.314129  0
10.091330  -60.700207  -26.394541  0
9.339488  -60.503944  -26.287327  0
9.676848  -60.723839  -26.322075  0
9.089874  -60.430656  -26.092308  0
10.676373  -60.925308  -26.041670  0
10.294097  -60.962749  -26.117458  0
9.849634  -60.965210  -26.113127  0
11.264185  -56.271614  -25.714994  0
11.517385  -56.488712  -25.947731  0
11.702110  -56.634880  -25.941601  0
11.745153  -56.489067  -25.717886  0
10.947998  -56.375774  -25.895185  0
10.660459  -56.593616  -25.902849  0
10.694326  -56.339523  -25.688927  0
11.932701  -56.942009  -25.889328  0
12.215481  -56.835888  -25.595602  0
10.332532  -56.810738  -25.811409  0
10.120398  -57.051792  -25.789610  0
10.111453  -56.853519  -25.598515  0
12.557332  -57.230339  -25.512772  0
12.095589  -57.399658  -25.925240  0
12.311731  -57.665821  -25.834438  0
12.307003  -57.295013  -25.731480  0
9.947437  -57.365688  -25.932293  0
9.773453  -57.642971  -26.044395  0
9.649922  -57.529491  -25.728752  0
12.412528  -58.088993  -25.851559  0
12.611128  -57.728947  -25.614445  0
9.455024  -57.891701  -25.782257  0
9.246611  -58.259174  -26.037256  0
12.520539  -58.603664  -25.889959  0
12.741076  -58.323936  -25.648396  0
9.034080  -58.623234  -25.829662  0
9.227877  -58.273975  -25.670994  0
12.593678  -58.982738  -25.929956  0
12.703607  -59.134327  -25.886496  0
12.828066  -58.906219  -25.715599  0
8.783977  -59.069851  -25.815292  0
8.622835  -59.196579  -26.140970  0
12.787924  -59.274559  -25.811470  0
13.031201  -59.289883  -25.564619  0
12.739325  -59.637711  -25.769161  0
8.533846  -59.387486  -26.077461  0
8.610732  -59.516380  -25.882622  0
8.611433  -59.331200  -25.845057  0
12.439056  -60.004150  -25.823174  0
12.745400  -60.036678  -25.613359  0
12.036968  -60.144161  -25.946299  0
11.579041  -60.297646  -26.083069  0
8.748440  -59.790321  -25.892265  0
12.721805  -60.302761  -25.497303  0
12.293296  -60.395996  -25.647755  0
11.368124  -60.583618  -25.966320  0
11.741927  -60.511452  -25.822014  0
11.018427  -60.757385  -26.024355  0
8.937940  -60.217312  -25.918638  0
9.157962  -60.599434  -25.808470  0
11.841740  -60.771744  -25.572754  0
10.909537  -61.001255  -25.810781  0
11.352875  -60.862968  -25.711994  0
10.527565  -61.140530  -25.747023  0
10.056042  -61.127415  -25.807705  0
9.480152  -60.844017  -25.993841  0
9.694746  -61.041828  -25.784946  0
12.078624  -55.913277  -24.993467  0
11.573860  -56.164143  -25.364641  0
11.695838  -55.942898  -25.035046  0
11.093431  -56.100151  -25.319727  0
10.832620  -56.211720  -25.508892  0
12.480219  -56.207932  -25.041962  0
12.001300  -56.445999  -25.470636  0
12.331608  -56.648140  -25.392500  0
12.127532  -56.278282  -25.234455  0
10.510525  -56.381226  -25.356192  0
10.253442  -56.678917  -25.484634  0
12.523939  -56.931820  -25.419001  0
12.689865  -57.118652  -25.370724  0
12.715991  -56.821983  -25.202894  0
9.946701  -56.973564  -25.274662  0
9.761919  -57.279026  -25.533501  0
12.867554  -57.453194  -25.333210  0
13.209273  -57.377861  -25.065346  0
9.558937  -57.608162  -25.347588  0
9.707652  -57.302380  -25.170992  0
13.498528  -57.846382  -24.967831  0
12.974617  -58.032455  -25.383543  0
13.188006  -57.805817  -25.172945  0
9.430355  -57.883949  -25.382013  0
13.056000  -58.578053  -25.420261  0
13.333217  -58.288383  -25.131660  0
9.362813  -58.130898  -25.371159  0
9.501638  -58.282124  -25.038488  0
9.259169  -58.538219  -25.315193  0
13.096786  -58.976532  -25.460505  0
13.193297  -59.133133  -25.389246  0
13.345007  -58.908306  -25.198771  0
9.016825  -58.965710  -25.406605  0
9.280951  -58.880329  -25.078266  0
13.270037  -59.285450  -25.320744  0
13.543498  -59.314224  -25.054153  0
13.189351  -59.682961  -25.365242  0
8.848788  -59.504192  -25.445955  0
9.170477  -59.210381  -25.044897  0
13.012923  -60.116737  -25.390179  0
13.332973  -59.981689  -25.159243  0
8.868693  -60.005756  -25.522160  0
12.887077  -60.334705  -25.368704  0
13.149357  -60.300983  -25.154091  0
12.664205  -60.581001  -25.310467  0
12.176229  -60.744377  -25.451828  0
9.012965  -60.371857  -25.450308  0
9.147830  -60.632946  -25.446953  0
9.199536  -60.523876  -25.144583  0
12.731070  -60.869865  -25.052799  0
11.950885  -60.925056  -25.412176  0
12.250505  -60.982773  -25.226835  0
11.668096  -61.136513  -25.327299  0
11.024890  -61.220871  -25.380348  0
10.568540  -61.242702  -25.307701  0
10.243137  -61.196239  -25.464914  0
9.397164  -60.844055  -25.510880  0
9.835042  -61.057617  -25.366409  0
9.502260  -60.779259  -25.079048  0
11.723611  -61.416012  -25.036798  0
11.397141  -61.409637  -25.072916  0
12.049286  -55.676590  -24.765574  0
12.229232  -55.525459  -24.544014  0
11.810655  -55.744270  -24.816566  0
12.350627  -55.837013  -24.846323  0
12.611033  -56.058578  -24.884048  0
12.643339  -55.817558  -24.609041  0
11.507465  -55.816669  -24.701286  0
11.255405  -55.995491  -24.981274  0
10.792521  -56.161388  -25.020113  0
13.572953  -56.460487  -24.535706  0
12.896960  -56.412296  -24.893778  0
13.152338  -56.218132  -24.614723  0
10.486581  -56.344933  -24.966131  0
10.652328  -56.341290  -24.654242  0
10.283021  -56.631950  -24.922550  0
13.820251  -56.895889  -24.575935  0
13.143280  -56.935543  -24.973499  0
13.417402  -57.201088  -24.892815  0
13.405758  -56.791897  -24.761938  0
10.013303  -56.972401  -24.844324  0
10.241838  -56.895718  -24.591043  0
14.076106  -57.276463  -24.529360  0
13.534004  -57.501656  -24.896944  0
13.735925  -57.705048  -24.808876  0
13.736072  -57.324753  -24.735334  0
9.837321  -57.192581  -24.930120  0
10.065999  -57.216343  -24.594448  0
9.770737  -57.542137  -24.863529  0
13.771943  -57.987713  -24.810047  0
14.045811  -57.827293  -24.620874  0
13.626580  -58.213207  -24.910013  0
9.545379  -57.938141  -25.069239  0
9.630553  -58.128338  -24.887856  0
9.831662  -57.968323  -24.688101  0
14.188775  -58.412865  -24.567936  0
13.623321  -58.596992  -24.931528  0
13.873332  -58.316948  -24.755718  0
9.709429  -58.273746  -24.787987  0
9.983179  -58.310471  -24.506397  0
9.617106  -58.630478  -24.828197  0
14.247555  -58.822521  -24.539583  0
13.645277  -58.977764  -24.938313  0
13.803529  -59.163670  -24.832867  0
13.928550  -58.807003  -24.733875  0
9.456205  -59.043224  -24.819828  0
9.741944  -58.950897  -24.610817  0
13.796806  -59.367428  -24.847460  0
14.086339  -59.237202  -24.628874  0
13.714129  -59.668800  -24.882929  0
9.355891  -59.278839  -24.801476  0
9.615205  -59.265835  -24.574661  0
9.265954  -59.572067  -24.820917  0
13.536434  -60.089710  -24.907225  0
13.866262  -59.946247  -24.646061  0
9.057686  -60.056488  -25.086329  0
9.201535  -60.287521  -24.884823  0
9.364200  -60.064316  -24.662165  0
13.396794  -60.327438  -24.908026  0
13.684577  -60.279377  -24.646086  0
13.186556  -60.612453  -24.890205  0
9.374893  -60.475208  -24.828287  0
9.554694  -60.662247  -24.822718  0
9.633739  -60.439293  -24.550108  0
12.944638  -60.911057  -24.879272  0
13.211381  -60.920605  -24.650862  0
12.686574  -61.160252  -24.832979  0
12.079676  -61.309063  -25.021065  0
10.831646  -61.309875  -24.867725  0
9.784693  -60.845089  -24.878342  0
10.261805  -61.112400  -24.915333  0
9.979120  -60.774471  -24.516474  0
12.790446  -61.408314  -24.525686  0
11.976503  -61.496468  -24.818594  0
12.373754  -61.455059  -24.684372  0
11.691274  -61.530457  -24.788780  0
11.125265  -61.416809  -24.977970  0
11.377497  -61.509941  -24.771168  0
11.155416  -61.445080  -24.693550  0
12.301426  -55.331264  -24.289948  0
12.447584  -55.412853  -24.291388  0
12.519743  -55.490273  -24.225565  0
12.722658  -55.431160  -24.117178  0
12.129910  -55.388214  -24.382999  0
12.291803  -55.370087  -24.200045  0
11.894377  -55.584728  -24.447956  0
13.652637  -56.242886  -24.376261  0
13.649063  -55.940979  -24.117083  0
12.932203  -55.758083  -24.359592  0
13.372203  -56.042263  -24.377245  0
13.152267  -55.639034  -24.097797  0
11.514696  -55.789932  -24.433651  0
11.689396  -55.797497  -24.151802  0
11.180147  -56.057621  -24.456104  0
13.914952  -56.520901  -24.356981  0
14.109740  -56.268665  -24.083363  0
10.869354  -56.339321  -24.365614  0
11.140260  -56.353283  -24.098511  0
10.664207  -56.639835  -24.345461  0
14.099889  -56.948956  -24.430231  0
14.244025  -57.148861  -24.392708  0
14.326013  -56.876030  -24.208353  0
10.414853  -57.036491  -24.332460  0
10.763354  -56.918953  -24.087202  0
14.374096  -57.471767  -24.344063  0
14.632771  -57.291367  -24.071949  0
10.294747  -57.277592  -24.339394  0
10.590171  -57.246597  -24.097202  0
10.191179  -57.585167  -24.368628  0
14.444516  -58.063457  -24.374285  0
14.688769  -57.773800  -24.129549  0
10.113992  -57.965645  -24.388384  0
10.261210  -58.135323  -24.230846  0
10.348921  -57.866161  -24.159313  0
14.492015  -58.572262  -24.370543  0
14.741152  -58.284416  -24.143814  0
10.309441  -58.500977  -24.158327  0
9.991719  -58.722561  -24.449310  0
14.453298  -59.009487  -24.381239  0
14.735621  -58.789494  -24.137215  0
9.944806  -59.063942  -24.375086  0
10.195853  -58.884247  -24.198502  0
14.377410  -59.297665  -24.398476  0
14.625844  -59.283726  -24.135738  0
14.234159  -59.638866  -24.406273  0
9.854422  -59.299507  -24.335058  0
10.117672  -59.235641  -24.108469  0
9.704659  -59.617245  -24.331713  0
14.064937  -60.059124  -24.384167  0
14.349120  -59.946510  -24.136692  0
9.609336  -60.024372  -24.357468  0
9.744422  -60.173790  -24.216188  0
9.806874  -59.897846  -24.114883  0
13.930369  -60.306355  -24.381016  0
14.173973  -60.310005  -24.111650  0
13.701826  -60.619808  -24.410416  0
9.888317  -60.447460  -24.206003  0
10.106909  -60.696945  -24.149063  0
13.487343  -60.926373  -24.414909  0
13.727164  -60.930847  -24.182268  0
13.255926  -61.205021  -24.376791  0
11.171582  -61.320599  -24.281647  0
10.265545  -60.944786  -24.391670  0
10.620385  -61.131805  -24.393517  0
13.029754  -61.479923  -24.252441  0
13.341063  -61.431026  -24.056097  0
12.675087  -61.558769  -24.297457  0
12.155408  -61.560387  -24.397783  0
11.939631  -61.487953  -24.109213  0
11.382829  -61.486328  -24.506214  0
11.682748  -61.538132  -24.484558  0
11.579995  -61.456440  -24.259096  0
12.621172  -55.296494  -23.986803  0
13.634499  -55.635563  -23.842136  0
13.634670  -55.447987  -23.572102  0
12.972289  -55.340500  -23.809528  0
13.199183  -55.459808  -23.719355  0
13.201897  -55.307362  -23.575024  0
12.503001  -55.364792  -24.022305  0
12.782318  -55.340073  -23.702452  0
12.235782  -55.538586  -23.946419  0
13.944976  -55.838650  -23.877937  0
14.213641  -56.073330  -23.890932  0
14.249485  -55.850601  -23.603800  0
11.901593  -55.807007  -23.861511  0
12.120570  -55.814770  -23.581766  0
11.622685  -56.085045  -23.848213  0
14.443102  -56.421322  -23.894876  0
14.710715  -56.299576  -23.604958  0
11.401150  -56.363914  -23.829605  0
11.614729  -56.363792  -23.570030  0
11.180365  -56.643661  -23.839392  0
15.064826  -56.794716  -23.544935  0
14.612338  -56.899403  -23.965141  0
14.850874  -57.130867  -23.822668  0
14.747561  -56.719471  -23.779444  0
10.966489  -57.028934  -23.840372  0
11.257921  -56.886509  -23.581430  0
14.864793  -57.533005  -23.908522  0
10.838387  -57.272835  -23.849831  0
11.081918  -57.245674  -23.576857  0
10.677411  -57.603325  -23.886452  0
14.983820  -57.965549  -23.859152  0
15.211946  -57.886276  -23.602448  0
10.550708  -58.111717  -23.938068  0
10.821707  -57.937469  -23.662233  0
14.990224  -58.520550  -23.877577  0
15.221302  -58.279884  -23.620007  0
10.593897  -58.511902  -23.862547  0
10.840190  -58.347389  -23.622026  0
14.973927  -59.047825  -23.776463  0
15.217916  -58.736702  -23.576817  0
11.004773  -58.769989  -23.419409  0
10.455350  -58.902779  -23.915617  0
10.735585  -58.744469  -23.681362  0
14.841910  -59.521290  -23.720936  0
14.583104  -59.708141  -23.988422  0
10.374173  -59.243572  -23.850002  0
10.669397  -59.201187  -23.589996  0
10.175324  -59.620647  -23.848154  0
14.542256  -60.118317  -23.780720  0
14.748663  -59.853622  -23.657896  0
9.993903  -60.133991  -23.921455  0
10.275270  -59.985512  -23.617241  0
14.359541  -60.551830  -23.717295  0
14.048272  -60.695515  -24.011017  0
10.055837  -60.464787  -23.950933  0
10.180512  -60.614937  -23.916491  0
10.290303  -60.417358  -23.684227  0
13.956639  -60.929428  -23.954077  0
14.141347  -60.907417  -23.723688  0
13.754260  -61.206707  -23.895306  0
12.125311  -61.389900  -23.666618  0
11.675702  -61.330547  -23.890869  0
11.306048  -61.119953  -23.704750  0
10.989785  -60.886665  -23.516750  0
10.397067  -60.824776  -23.988310  0
10.840359  -61.037251  -23.906136  0
10.628531  -60.729103  -23.608160  0
13.522827  -61.490833  -23.769598  0
13.794718  -61.426830  -23.541079  0
13.114795  -61.594711  -23.832144  0
12.296592  -61.528755  -23.927151  0
12.624558  -61.591682  -23.908484  0
13.585177  -55.248211  -23.144749  0
13.140924  -55.248253  -23.500011  0
13.954242  -55.449326  -23.258924  0
14.342503  -55.651878  -23.151125  0
13.024210  -55.318115  -23.316923  0
12.646441  -55.528862  -23.445856  0
14.590691  -55.940865  -23.423584  0
14.787056  -56.114071  -23.437208  0
14.800840  -55.981831  -23.218061  0
12.368304  -55.843685  -23.153780  0
11.970317  -56.103436  -23.372484  0
14.988428  -56.338127  -23.407930  0
15.190107  -56.551792  -23.370472  0
15.226786  -56.348648  -23.108044  0
11.869600  -56.362820  -23.185371  0
11.543582  -56.628796  -23.388721  0
15.331997  -56.707664  -23.292728  0
15.567434  -56.739849  -22.988703  0
15.399993  -57.063046  -23.295914  0
11.436657  -56.960396  -23.249491  0
15.145538  -57.458225  -23.609116  0
15.309970  -57.716473  -23.471071  0
15.482310  -57.509907  -23.236637  0
11.319860  -57.422981  -23.160933  0
11.021613  -57.662807  -23.480387  0
15.439832  -58.001526  -23.354330  0
15.677240  -57.806133  -23.002953  0
11.036445  -58.046253  -23.419373  0
11.208586  -57.828960  -23.227129  0
15.472542  -58.534138  -23.307903  0
15.690084  -58.240864  -23.051889  0
11.082988  -58.379921  -23.374792  0
11.232446  -58.566338  -23.211645  0
11.246731  -58.196415  -23.182787  0
15.383235  -58.897812  -23.300150  0
15.219813  -59.068504  -23.427717  0
11.279187  -58.991409  -23.105726  0
11.017736  -59.174259  -23.313351  0
15.094871  -59.401375  -23.364244  0
10.857742  -59.461864  -23.325363  0
11.112371  -59.467724  -23.134157  0
10.550742  -59.689651  -23.461920  0
14.930181  -59.894867  -23.247965  0
14.751973  -60.117954  -23.455885  0
11.138954  -59.929462  -23.037683  0
10.529352  -60.092911  -23.383854  0
10.833180  -59.805546  -23.224213  0
14.630571  -60.481232  -23.359781  0
14.815004  -60.290916  -23.172394  0
11.076803  -60.745037  -23.303722  0
11.204707  -60.486359  -23.099552  0
10.586619  -60.430389  -23.398108  0
10.857127  -60.609840  -23.327568  0
10.832170  -60.231712  -23.206774  0
14.392024  -60.874104  -23.343521  0
14.090741  -61.204071  -23.417353  0
12.333559  -61.311466  -23.243481  0
11.321817  -60.876995  -23.324799  0
11.813031  -61.101685  -23.322901  0
11.559574  -60.757839  -23.043337  0
13.948468  -61.461502  -23.124924  0
13.543107  -61.590023  -23.383482  0
13.231008  -61.640129  -23.414221  0
12.516945  -61.497036  -23.544432  0
12.916041  -61.578152  -23.398409  0
12.653276  -61.440273  -23.189936  0
13.532752  -55.218983  -22.819496  0
13.286453  -55.205101  -23.024216  0
14.603447  -55.763836  -22.902721  0
13.866135  -55.392323  -22.817566  0
14.258789  -55.593212  -22.779346  0
13.574228  -55.308048  -22.645674  0
13.107250  -55.301079  -22.926826  0
13.290569  -55.346485  -22.691088  0
12.835523  -55.579720  -22.878021  0
14.939671  -55.990013  -22.937155  0
15.149359  -56.169506  -22.660276  0
14.789847  -55.903786  -22.698074  0
14.447312  -55.772945  -22.583412  0
12.473480  -55.945477  -22.813852  0
12.722672  -55.937122  -22.543613  0
12.173001  -56.142708  -22.996613  0
15.484989  -56.453106  -22.760344  0
15.706136  -56.659538  -22.618389  0
12.694592  -56.192459  -22.359720  0
12.042320  -56.346661  -22.922115  0
12.320337  -56.288120  -22.638315  0
11.828062  -56.638271  -22.914745  0
15.766208  -56.867989  -22.739737  0
15.653497  -57.104996  -22.959415  0
11.582733  -57.078739  -22.887213  0
11.810551  -56.915829  -22.634960  0
15.712158  -57.391232  -22.802063  0
15.808868  -57.669083  -22.598944  0
11.522246  -57.447670  -22.823751  0
11.712340  -57.256378  -22.591822  0
15.826695  -58.022476  -22.784168  0
11.436204  -57.892406  -22.929827  0
11.672185  -57.705265  -22.594290  0
15.853631  -58.399036  -22.677948  0
15.690911  -58.600296  -22.999249  0
11.455604  -58.511890  -22.931356  0
11.679919  -58.228012  -22.623407  0
15.553006  -58.843769  -23.090673  0
15.699502  -58.839710  -22.770628  0
15.403090  -59.181801  -23.001402  0
11.530373  -58.996513  -22.824144  0
11.713808  -58.754440  -22.615446  0
15.173249  -59.651451  -22.855637  0
15.396764  -59.406197  -22.583494  0
11.425884  -59.500725  -22.866167  0
11.714905  -59.260941  -22.596424  0
15.029753  -59.974499  -22.837881  0
11.451624  -60.107708  -22.833900  0
11.708569  -59.803497  -22.594557  0
14.906627  -60.344154  -22.751579  0
14.756338  -60.577625  -23.005085  0
11.519382  -60.496361  -22.874578  0
11.667865  -60.638683  -22.841803  0
11.782954  -60.398479  -22.651215  0
14.590979  -60.822491  -23.040607  0
14.688892  -60.834610  -22.704699  0
14.308230  -61.217453  -22.815485  0
12.542131  -61.277378  -22.946096  0
12.589510  -61.050659  -22.590412  0
11.856890  -60.808636  -22.875551  0
12.216095  -61.069405  -22.907776  0
12.135516  -60.752033  -22.604002  0
14.026940  -61.490742  -22.655842  0
14.204865  -61.426304  -22.452509  0
13.785081  -61.575451  -22.869432  0
13.733568  -61.491486  -22.554642  0
12.864829  -61.407066  -22.931482  0
13.321258  -61.566780  -23.013401  0
13.133554  -61.311916  -22.577719  0
13.573491  -55.561050  -22.461349  0
13.115902  -55.690762  -22.472219  0
15.124481  -56.237766  -22.320555  0
14.730289  -56.046635  -22.378496  0
14.032667  -55.659779  -22.494585  0
14.266101  -55.912891  -22.314796  0
13.796837  -55.964355  -22.193846  0
12.989376  -56.026054  -22.289387  0
13.339487  -55.884346  -22.256079  0
15.443057  -56.476337  -22.354591  0
15.722245  -56.721134  -22.363138  0
15.193916  -56.373951  -22.163469  0
14.880328  -56.319862  -22.097021  0
14.313804  -56.237881  -22.054991  0
13.792371  -56.337212  -21.959101  0
12.881688  -56.245392  -22.214525  0
13.245060  -56.279865  -22.078453  0
12.631968  -56.509361  -22.214045  0
12.116666  -56.690754  -22.479908  0
15.815046  -56.824886  -22.519320  0
15.786127  -57.047993  -22.608242  0
15.773009  -56.918663  -22.354107  0
12.590849  -56.900574  -21.984226  0
11.980666  -57.053307  -22.366201  0
12.290557  -56.861614  -22.202797  0
15.739554  -57.247074  -22.323532  0
15.806949  -57.637966  -22.143774  0
11.917564  -57.489933  -22.322412  0
12.260634  -57.240063  -22.070784  0
15.907811  -57.991631  -22.429996  0
11.911483  -58.006989  -22.334614  0
12.180706  -57.766319  -22.073147  0
15.945794  -58.290253  -22.278297  0
11.932114  -58.527626  -22.364941  0
12.217034  -58.346924  -22.093904  0
15.850615  -58.692635  -22.311741  0
15.620088  -59.105461  -22.486370  0
15.723922  -58.965908  -22.107063  0
12.451068  -58.855919  -21.991968  0
11.948763  -59.015083  -22.374542  0
12.153101  -58.798351  -22.193594  0
15.477099  -59.291557  -22.111004  0
15.265822  -59.612812  -22.380638  0
12.532660  -59.398277  -21.996511  0
11.962910  -59.510151  -22.364435  0
12.217432  -59.218376  -22.174667  0
15.072279  -59.953499  -22.416059  0
12.590017  -59.918922  -22.018375  0
11.993969  -60.020397  -22.376902  0
12.255391  -59.714531  -22.176790  0
14.926369  -60.342743  -22.225048  0
14.780596  -60.611526  -22.028757  0
12.621355  -60.800919  -22.312157  0
12.704949  -60.495441  -22.098461  0
12.091311  -60.420746  -22.410917  0
12.382165  -60.637062  -22.348928  0
12.309839  -60.208740  -22.217794  0
14.809555  -60.716747  -22.347534  0
14.510017  -61.107296  -22.316719  0
14.709222  -60.854973  -22.127186  0
14.009677  -61.385780  -22.351042  0
12.904410  -60.956734  -22.280863  0
13.428716  -61.155872  -22.197014  0
13.079856  -60.779213  -22.000029  0
14.262748  -61.398102  -22.293194  0
14.049676  -61.509033  -22.402241  0
14.052441  -61.530090  -22.483046  0
14.145754  -61.458214  -22.290331  0
15.129044  -56.618816  -21.956625  0
14.582831  -56.586666  -21.834862  0
14.032512  -56.606461  -21.796709  0
13.503151  -56.636147  -21.824455  0
13.004844  -56.704590  -21.910902  0
15.548470  -56.873867  -22.087183  0
15.203602  -57.013466  -21.704865  0
14.759262  -56.918324  -21.640409  0
14.215105  -56.936546  -21.615704  0
13.666319  -56.967945  -21.647444  0
12.838818  -56.994160  -21.807837  0
13.186073  -56.976295  -21.722544  0
12.586326  -57.176094  -21.857258  0
15.511221  -57.362122  -21.766092  0
15.741584  -57.746403  -21.786139  0
15.198792  -57.265423  -21.531923  0
14.885318  -57.240658  -21.456844  0
14.380269  -57.256763  -21.435476  0
13.767087  -57.373638  -21.472069  0
13.239203  -57.346291  -21.599558  0
12.495235  -57.524452  -21.853468  0
12.843040  -57.278282  -21.723293  0
15.901496  -57.997932  -22.028685  0
15.778934  -58.103340  -21.690292  0
13.240841  -57.824699  -21.495253  0
12.477655  -58.007591  -21.864399  0
12.820383  -57.703922  -21.681854  0
15.908081  -58.371353  -21.965815  0
15.832989  -58.691879  -21.940571  0
15.788745  -58.474552  -21.711069  0
13.159192  -58.284176  -21.469568  0
12.520174  -58.433071  -21.882864  0
12.718402  -58.678806  -21.789677  0
12.824723  -58.244339  -21.674717  0
15.629571  -58.852558  -21.725948  0
12.802967  -59.105946  -21.796734  0
13.053217  -58.743458  -21.567926  0
15.364779  -59.203083  -21.609663  0
15.152780  -59.595398  -21.846851  0
15.188993  -59.357021  -21.489254  0
12.872813  -59.620094  -21.815361  0
13.206863  -59.384907  -21.565121  0
14.910756  -60.009418  -21.913000  0
14.800151  -60.312336  -21.896650  0
14.541373  -60.083363  -21.599680  0
14.104460  -59.955772  -21.406427  0
13.633890  -59.976196  -21.433456  0
12.939443  -60.124016  -21.838257  0
13.190018  -59.887424  -21.648222  0
14.588427  -60.468777  -21.769697  0
14.097544  -60.433537  -21.537254  0
13.023835  -60.490486  -21.862316  0
13.185872  -60.635883  -21.810797  0
13.354007  -60.391678  -21.615564  0
14.477968  -60.831047  -21.911579  0
14.219823  -61.211319  -22.082947  0
14.091203  -60.885658  -21.763100  0
13.411878  -60.816147  -21.829607  0
13.818373  -61.068249  -21.929836  0
13.737095  -60.685043  -21.587765  0
15.091556  -57.586975  -21.358435  0
14.547185  -57.575695  -21.269978  0
14.039252  -57.615543  -21.296749  0
13.635278  -57.752056  -21.347368  0
15.505729  -57.837345  -21.486580  0
15.163052  -58.099678  -21.195436  0
14.670472  -57.984142  -21.117401  0
14.163039  -57.929237  -21.155315  0
13.463406  -58.083900  -21.324020  0
13.789805  -57.912018  -21.236238  0
15.537455  -58.365578  -21.422724  0
15.228038  -58.495060  -21.144714  0
14.789079  -58.520786  -20.974985  0
14.228726  -58.364151  -21.043606  0
13.405111  -58.508568  -21.322554  0
13.773353  -58.241524  -21.174793  0
15.375443  -58.805775  -21.328751  0
15.134663  -59.091606  -21.210829  0
15.112839  -58.756161  -21.063484  0
14.302382  -58.900665  -20.980953  0
13.436914  -58.989517  -21.342897  0
13.788321  -58.694649  -21.141537  0
14.960155  -59.384010  -21.331373  0
14.762148  -59.689568  -21.501503  0
14.559277  -59.308121  -21.113354  0
14.335387  -59.667126  -21.311546  0
14.158950  -59.332527  -21.134947  0
13.571515  -59.423801  -21.346563  0
13.912897  -59.592045  -21.278282  0
13.822032  -59.161495  -21.176512  0
13.604778  -60.341591  -21.372787  0
13.762270  -60.352074  -21.353525  0
13.626194  -60.491028  -21.396812  0
13.783686  -60.501518  -21.377546  0
13.690740  -60.438953  -21.312241  0
14.659959  -58.839664  -20.836121  0
14.890303  -58.873707  -20.914909  0
14.607908  -59.016811  -20.873735  0
14.824903  -59.110481  -20.983906  0
14.744431  -58.951508  -20.822247  0
13 22 0 0
1 15 0 0
0 15 13 0
2 17 1 0
1 17 15 0
3 19 2 0
2 19 17 0
3 27 19 0
22 24 0 0
0 24 1 0
1 24 25 0
1 25 2 0
2 25 26 0
2 26 3 0
3 26 28 0
3 28 27 0
38 40 4 0
4 42 38 0
40 43 4 0
4 43 42 0
46 53 5 0
6 48 5 0
5 48 46 0
7 50 6 0
6 50 48 0
7 55 50 0
5 53 8 0
8 53 59 0
5 9 6 0
5 8 9 0
6 10 7 0
6 9 10 0
55 7 56 0
7 11 56 0
7 10 11 0
11 61 56 0
8 59 12 0
12 59 65 0
8 14 9 0
8 12 14 0
9 16 10 0
9 14 16 0
10 18 11 0
10 16 18 0
61 11 62 0
11 20 62 0
11 18 20 0
20 68 62 0
66 71 21 0
66 21 65 0
21 12 65 0
21 23 12 0
23 22 13 0
14 23 13 0
12 23 14 0
14 13 15 0
14 15 16 0
16 15 17 0
16 17 18 0
18 17 19 0
18 19 20 0
29 69 27 0
27 69 19 0
69 68 19 0
68 20 19 0
29 74 69 0
71 73 21 0
77 30 73 0
30 21 73 0
30 23 21 0
31 24 22 0
23 31 22 0
30 31 23 0
32 25 24 0
32 24 31 0
33 26 25 0
33 25 32 0
34 28 26 0
34 26 33 0
34 80 28 0
28 80 27 0
80 75 27 0
75 29 27 0
29 75 74 0
77 79 30 0
82 35 79 0
35 30 79 0
35 31 30 0
31 36 32 0
31 35 36 0
32 37 33 0
32 36 37 0
81 34 86 0
34 37 86 0
34 33 37 0
34 81 80 0
82 84 35 0
35 84 36 0
36 84 85 0
36 85 37 0
37 85 87 0
37 87 86 0
92 93 39 0
39 96 92 0
94 99 41 0
94 41 93 0
93 41 39 0
41 40 39 0
40 38 39 0
44 97 42 0
42 97 38 0
97 96 38 0
96 39 38 0
44 101 97 0
41 99 45 0
45 99 105 0
47 43 40 0
41 47 40 0
45 47 41 0
44 42 43 0
47 44 43 0
49 44 47 0
101 44 102 0
44 51 102 0
44 49 51 0
51 108 102 0
106 111 52 0
106 52 105 0
52 45 105 0
52 54 45 0
54 53 46 0
47 54 46 0
45 54 47 0
47 46 48 0
47 48 49 0
49 48 50 0
49 50 51 0
57 109 55 0
55 109 50 0
109 108 50 0
108 51 50 0
57 113 109 0
52 111 58 0
58 111 115 0
52 60 54 0
52 58 60 0
60 59 53 0
60 53 54 0
56 57 55 0
63 114 61 0
61 114 56 0
114 113 56 0
113 57 56 0
63 117 114 0
58 115 64 0
64 115 119 0
58 67 60 0
58 64 67 0
67 65 59 0
67 59 60 0
62 63 61 0
62 68 63 0
68 117 63 0
68 122 117 0
120 124 70 0
120 70 119 0
70 64 119 0
70 72 64 0
72 71 66 0
67 72 66 0
64 72 67 0
67 66 65 0
123 122 68 0
123 68 69 0
69 74 123 0
123 74 127 0
124 126 70 0
130 76 126 0
76 70 126 0
76 72 70 0
78 73 71 0
72 78 71 0
76 78 72 0
78 77 73 0
134 128 75 0
134 75 80 0
74 75 127 0
127 75 128 0
130 132 76 0
76 132 78 0
78 132 133 0
133 137 83 0
133 83 79 0
78 133 79 0
77 78 79 0
83 82 79 0
86 88 81 0
88 140 81 0
140 80 81 0
140 134 80 0
137 139 83 0
139 143 89 0
139 89 84 0
83 139 84 0
82 83 84 0
90 85 84 0
90 84 89 0
91 87 85 0
91 85 90 0
91 147 87 0
87 147 86 0
147 141 86 0
141 88 86 0
88 141 140 0
143 145 89 0
89 145 90 0
90 145 146 0
90 146 91 0
91 146 148 0
91 148 147 0
150 155 95 0
93 92 95 0
92 150 95 0
92 152 150 0
98 153 96 0
153 92 96 0
153 152 92 0
98 158 153 0
156 160 100 0
156 100 155 0
155 100 95 0
100 99 95 0
99 94 95 0
95 94 93 0
97 98 96 0
103 159 101 0
101 159 97 0
159 158 97 0
158 98 97 0
103 163 159 0
161 165 104 0
161 104 160 0
104 100 160 0
104 107 100 0
107 105 99 0
107 99 100 0
102 103 101 0
110 164 108 0
108 164 102 0
164 163 102 0
163 103 102 0
110 167 164 0
104 165 112 0
112 165 170 0
112 111 106 0
107 112 106 0
104 112 107 0
107 106 105 0
109 110 108 0
109 113 110 0
113 167 110 0
113 172 167 0
112 170 116 0
116 170 173 0
116 115 111 0
116 111 112 0
113 114 118 0
175 113 118 0
172 113 175 0
117 118 114 0
116 173 121 0
121 173 178 0
121 119 115 0
121 115 116 0
177 175 118 0
118 117 177 0
117 181 177 0
117 122 181 0
179 183 125 0
179 125 178 0
178 125 121 0
125 124 121 0
124 120 121 0
121 120 119 0
122 123 129 0
186 122 129 0
181 122 186 0
127 129 123 0
183 185 125 0
185 188 131 0
185 131 126 0
125 185 126 0
124 125 126 0
131 130 126 0
186 129 128 0
134 186 128 0
190 186 134 0
128 129 127 0
131 188 135 0
135 188 191 0
136 132 130 0
131 136 130 0
135 136 131 0
138 133 132 0
138 132 136 0
138 137 133 0
140 190 134 0
140 195 190 0
191 193 135 0
135 193 136 0
136 193 194 0
199 142 194 0
142 136 194 0
142 138 136 0
144 139 137 0
138 144 137 0
142 144 138 0
144 143 139 0
205 196 141 0
205 141 147 0
140 141 195 0
195 141 196 0
199 201 142 0
142 201 144 0
144 201 202 0
144 202 143 0
202 145 143 0
202 203 145 0
145 204 146 0
203 204 145 0
146 206 148 0
204 206 146 0
147 148 205 0
205 148 206 0
210 213 149 0
151 212 149 0
149 212 210 0
151 216 212 0
214 220 154 0
214 154 213 0
154 149 213 0
154 157 149 0
157 155 150 0
151 157 150 0
149 157 151 0
217 216 151 0
150 217 151 0
152 217 150 0
218 152 153 0
218 217 152 0
153 158 218 0
218 158 222 0
154 220 162 0
162 220 226 0
162 160 156 0
157 162 156 0
154 162 157 0
157 156 155 0
224 222 158 0
224 158 159 0
159 163 224 0
224 163 229 0
227 232 166 0
227 166 226 0
226 166 162 0
166 165 162 0
165 161 162 0
162 161 160 0
163 164 168 0
235 163 168 0
229 163 235 0
167 168 164 0
233 238 169 0
233 169 232 0
169 166 232 0
169 171 166 0
171 170 165 0
171 165 166 0
237 235 168 0
168 167 237 0
167 241 237 0
167 172 241 0
238 240 169 0
245 174 240 0
174 169 240 0
174 171 169 0
174 173 170 0
174 170 171 0
247 242 176 0
242 241 176 0
241 175 176 0
241 172 175 0
174 245 180 0
180 245 251 0
180 178 173 0
180 173 174 0
249 247 176 0
254 249 182 0
182 249 177 0
249 176 177 0
176 175 177 0
181 182 177 0
252 256 184 0
252 184 251 0
251 184 180 0
184 183 180 0
183 179 180 0
180 179 178 0
254 182 187 0
254 187 259 0
186 187 181 0
181 187 182 0
256 258 184 0
258 262 189 0
258 189 185 0
184 258 185 0
183 184 185 0
189 188 185 0
261 259 187 0
187 186 261 0
186 264 261 0
186 190 264 0
189 262 192 0
192 262 267 0
192 191 188 0
192 188 189 0
270 265 197 0
265 264 197 0
264 195 197 0
264 190 195 0
267 269 192 0
269 273 198 0
269 198 193 0
192 269 193 0
191 192 193 0
200 194 193 0
200 193 198 0
200 199 194 0
278 271 207 0
207 271 270 0
207 270 197 0
205 207 197 0
196 205 197 0
196 197 195 0
273 275 198 0
198 275 200 0
200 275 276 0
276 282 208 0
276 208 201 0
200 276 201 0
199 200 201 0
209 202 201 0
209 201 208 0
202 209 285 0
277 202 285 0
203 202 277 0
203 279 204 0
277 279 203 0
207 206 278 0
206 279 278 0
206 204 279 0
206 207 205 0
282 284 208 0
208 284 209 0
209 284 286 0
209 286 285 0
288 289 211 0
211 292 288 0
290 297 215 0
290 215 289 0
289 215 211 0
215 213 211 0
213 210 211 0
294 292 211 0
210 294 211 0
212 294 210 0
212 216 294 0
294 216 300 0
295 303 219 0
221 298 219 0
219 298 295 0
298 221 297 0
297 221 215 0
221 220 215 0
220 214 215 0
215 214 213 0
302 300 216 0
302 216 217 0
305 302 223 0
302 218 223 0
302 217 218 0
222 223 218 0
219 303 225 0
225 303 308 0
219 228 221 0
219 225 228 0
228 226 220 0
228 220 221 0
307 305 223 0
311 307 230 0
230 307 224 0
307 223 224 0
223 222 224 0
229 230 224 0
309 313 231 0
309 231 308 0
231 225 308 0
231 234 225 0
234 232 227 0
228 234 227 0
225 234 228 0
228 227 226 0
311 230 236 0
311 236 315 0
235 236 229 0
229 236 230 0
231 313 239 0
239 313 318 0
239 238 233 0
234 239 233 0
231 239 234 0
234 233 232 0
317 315 236 0
320 317 243 0
243 317 237 0
317 236 237 0
236 235 237 0
241 243 237 0
239 318 244 0
244 318 323 0
246 240 238 0
239 246 238 0
244 246 239 0
246 245 240 0
325 321 248 0
248 321 320 0
248 320 243 0
247 248 243 0
242 247 243 0
242 243 241 0
244 323 250 0
250 323 327 0
244 253 246 0
244 250 253 0
253 251 245 0
253 245 246 0
326 325 248 0
329 326 255 0
255 326 249 0
326 248 249 0
248 247 249 0
254 255 249 0
250 327 257 0
257 327 331 0
257 256 252 0
253 257 252 0
250 257 253 0
253 252 251 0
329 255 260 0
329 260 334 0
259 260 254 0
254 260 255 0
331 333 257 0
333 337 263 0
333 263 258 0
257 333 258 0
256 257 258 0
263 262 258 0
336 334 260 0
339 336 266 0
266 336 261 0
336 260 261 0
260 259 261 0
264 266 261 0
263 337 268 0
268 337 342 0
268 267 262 0
268 262 263 0
345 340 272 0
272 340 339 0
272 339 266 0
270 272 266 0
265 270 266 0
265 266 264 0
342 344 268 0
344 347 274 0
344 274 269 0
268 344 269 0
267 268 269 0
274 273 269 0
351 346 280 0
280 346 345 0
280 345 272 0
278 280 272 0
271 278 272 0
271 272 270 0
347 349 274 0
349 353 281 0
349 281 275 0
274 349 275 0
273 274 275 0
283 276 275 0
283 275 281 0
283 282 276 0
358 350 287 0
277 285 287 0
350 277 287 0
352 277 350 0
280 279 351 0
279 352 351 0
279 277 352 0
279 280 278 0
353 355 281 0
281 355 283 0
283 355 356 0
283 356 282 0
356 284 282 0
356 359 284 0
287 286 358 0
286 359 358 0
286 284 359 0
286 287 285 0
361 364 291 0
361 289 291 0
361 288 289 0
361 367 293 0
288 361 293 0
292 293 288 0
362 370 296 0
299 365 296 0
296 365 362 0
365 299 364 0
364 299 291 0
299 297 291 0
297 290 291 0
290 367 291 0
290 369 367 0
290 289 293 0
369 290 293 0
373 369 301 0
301 369 294 0
369 293 294 0
293 292 294 0
300 301 294 0
371 376 304 0
371 304 370 0
370 304 296 0
304 303 296 0
303 295 296 0
296 295 298 0
296 298 299 0
299 298 297 0
375 373 301 0
378 375 306 0
306 375 302 0
375 301 302 0
301 300 302 0
305 306 302 0
304 376 310 0
310 376 382 0
310 308 303 0
310 303 304 0
380 378 306 0
385 380 312 0
312 380 307 0
380 306 307 0
306 305 307 0
311 312 307 0
383 387 314 0
383 314 382 0
382 314 310 0
314 313 310 0
313 309 310 0
310 309 308 0
385 312 316 0
385 316 388 0
315 316 311 0
311 316 312 0
314 387 319 0
319 387 391 0
319 318 313 0
319 313 314 0
390 388 316 0
393 390 322 0
322 390 317 0
390 316 317 0
316 315 317 0
320 322 317 0
319 391 324 0
324 391 395 0
324 323 318 0
324 318 319 0
393 322 321 0
325 393 321 0
397 393 325 0
321 322 320 0
324 395 328 0
328 395 399 0
328 327 323 0
328 323 324 0
325 326 330 0
402 325 330 0
397 325 402 0
329 330 326 0
328 399 332 0
332 399 404 0
332 331 327 0
332 327 328 0
402 330 335 0
402 335 406 0
334 335 329 0
329 335 330 0
404 405 332 0
405 409 338 0
405 338 333 0
332 405 333 0
331 332 333 0
338 337 333 0
408 406 335 0
411 408 341 0
341 408 336 0
408 335 336 0
335 334 336 0
339 341 336 0
338 409 343 0
343 409 413 0
343 342 337 0
343 337 338 0
411 341 340 0
345 411 340 0
415 411 345 0
340 341 339 0
413 414 343 0
414 418 348 0
414 348 344 0
343 414 344 0
342 343 344 0
348 347 344 0
425 416 346 0
425 346 351 0
345 346 415 0
415 346 416 0
418 420 348 0
420 428 354 0
420 354 349 0
348 420 349 0
347 348 349 0
354 353 349 0
431 421 357 0
422 360 357 0
422 357 421 0
350 358 360 0
422 350 360 0
423 350 422 0
350 426 352 0
423 426 350 0
351 352 425 0
425 352 426 0
428 430 354 0
354 430 353 0
430 355 353 0
430 432 355 0
357 356 431 0
356 432 431 0
356 355 432 0
356 357 359 0
359 357 360 0
359 360 358 0
433 435 363 0
366 434 363 0
363 434 433 0
434 364 366 0
434 361 364 0
434 437 368 0
361 434 368 0
367 368 361 0
436 439 372 0
436 372 435 0
435 372 363 0
372 370 363 0
370 362 363 0
363 362 365 0
363 365 366 0
365 437 366 0
365 438 437 0
365 364 368 0
438 365 368 0
442 438 374 0
374 438 369 0
438 368 369 0
368 367 369 0
373 374 369 0
440 444 377 0
440 377 439 0
439 377 372 0
377 376 372 0
376 371 372 0
372 371 370 0
443 442 374 0
447 443 379 0
379 443 375 0
443 374 375 0
374 373 375 0
378 379 375 0
445 449 381 0
445 381 444 0
381 377 444 0
381 384 377 0
384 382 376 0
384 376 377 0
448 447 379 0
452 448 386 0
386 448 380 0
448 379 380 0
379 378 380 0
385 386 380 0
449 451 381 0
453 387 383 0
381 453 383 0
384 381 383 0
451 453 381 0
384 383 382 0
452 386 389 0
452 389 456 0
388 389 385 0
385 389 386 0
454 458 392 0
453 454 392 0
391 453 392 0
387 453 391 0
457 456 389 0
460 457 394 0
394 457 390 0
457 389 390 0
389 388 390 0
393 394 390 0
392 458 396 0
396 458 462 0
396 395 391 0
396 391 392 0
460 394 398 0
460 398 464 0
397 398 393 0
393 398 394 0
396 462 400 0
400 462 467 0
400 399 395 0
400 395 396 0
469 465 401 0
401 465 464 0
398 401 464 0
403 401 398 0
402 403 397 0
397 403 398 0
467 468 400 0
399 400 468 0
471 399 468 0
404 399 471 0
470 469 401 0
407 472 470 0
401 407 470 0
403 407 401 0
406 407 402 0
402 407 403 0
405 404 410 0
404 475 410 0
404 471 475 0
410 409 405 0
474 472 407 0
478 474 412 0
412 474 408 0
474 407 408 0
407 406 408 0
411 412 408 0
475 476 410 0
409 410 476 0
480 409 476 0
413 409 480 0
478 412 417 0
478 417 484 0
415 417 411 0
411 417 412 0
414 413 419 0
413 487 419 0
413 480 487 0
419 418 414 0
490 482 424 0
485 427 424 0
485 424 482 0
427 485 484 0
427 484 417 0
425 427 417 0
416 425 417 0
416 417 415 0
487 488 419 0
488 493 429 0
488 429 420 0
419 488 420 0
418 419 420 0
429 428 420 0
496 489 421 0
496 421 431 0
421 491 422 0
489 491 421 0
424 423 490 0
423 491 490 0
423 422 491 0
423 424 426 0
426 424 427 0
426 427 425 0
493 494 429 0
429 494 428 0
494 430 428 0
494 495 430 0
430 497 432 0
495 497 430 0
431 432 496 0
496 432 497 0
499 502 433 0
433 502 435 0
500 433 434 0
500 499 433 0
434 437 500 0
500 437 505 0
501 508 441 0
439 436 441 0
436 501 441 0
436 503 501 0
436 435 502 0
436 502 503 0
507 505 437 0
507 437 438 0
438 442 507 0
507 442 512 0
509 515 446 0
509 446 508 0
508 446 441 0
446 444 441 0
444 440 441 0
441 440 439 0
514 512 442 0
514 442 443 0
443 447 514 0
514 447 518 0
516 521 450 0
516 450 515 0
515 450 446 0
450 449 446 0
449 445 446 0
446 445 444 0
520 518 447 0
520 447 448 0
448 452 520 0
520 452 523 0
521 522 450 0
522 525 455 0
522 455 451 0
450 522 451 0
449 450 451 0
455 453 451 0
456 523 452 0
456 527 523 0
526 529 459 0
526 459 525 0
525 459 455 0
459 458 455 0
458 454 455 0
455 454 453 0
456 457 461 0
530 456 461 0
527 456 530 0
460 461 457 0
459 529 463 0
463 529 532 0
463 462 458 0
463 458 459 0
530 461 466 0
530 466 534 0
464 466 460 0
460 466 461 0
532 533 463 0
462 463 533 0
536 462 533 0
467 462 536 0
534 466 465 0
469 534 465 0
539 534 469 0
465 466 464 0
536 538 467 0
467 538 468 0
471 468 538 0
471 538 541 0
469 470 473 0
543 469 473 0
539 469 543 0
472 473 470 0
541 475 471 0
545 475 541 0
543 473 477 0
543 477 546 0
474 479 472 0
479 473 472 0
479 477 473 0
478 479 474 0
476 475 481 0
475 548 481 0
475 545 548 0
481 480 476 0
546 477 483 0
546 483 550 0
486 477 479 0
483 477 486 0
484 486 478 0
478 486 479 0
548 549 481 0
480 481 549 0
553 480 549 0
487 480 553 0
558 551 492 0
492 551 550 0
492 550 483 0
490 492 483 0
482 490 483 0
482 483 485 0
485 483 486 0
485 486 484 0
553 555 487 0
487 555 488 0
493 488 555 0
493 555 561 0
565 556 498 0
489 496 498 0
556 489 498 0
559 489 556 0
492 491 558 0
491 559 558 0
491 489 559 0
491 492 490 0
561 563 493 0
493 563 494 0
494 566 495 0
563 566 494 0
498 497 565 0
497 566 565 0
497 495 566 0
497 498 496 0
504 502 499 0
500 506 499 0
499 506 504 0
505 506 500 0
510 508 501 0
503 511 501 0
501 511 510 0
572 511 503 0
572 503 502 0
568 572 502 0
504 568 502 0
568 504 506 0
568 506 569 0
575 569 513 0
513 569 507 0
569 506 507 0
506 505 507 0
512 513 507 0
570 577 509 0
509 577 515 0
509 508 510 0
571 509 510 0
570 509 571 0
571 510 511 0
571 511 573 0
573 511 572 0
575 513 517 0
575 517 583 0
514 519 512 0
519 513 512 0
519 517 513 0
518 519 514 0
578 587 516 0
516 587 521 0
516 515 577 0
516 577 578 0
585 583 517 0
585 517 519 0
585 519 586 0
591 586 524 0
524 586 520 0
586 519 520 0
519 518 520 0
523 524 520 0
587 588 521 0
521 588 522 0
525 522 588 0
525 588 593 0
591 524 528 0
591 528 595 0
527 528 523 0
523 528 524 0
594 597 526 0
526 597 529 0
526 525 593 0
526 593 594 0
595 528 531 0
595 531 598 0
530 531 527 0
527 531 528 0
597 532 529 0
600 532 597 0
598 531 535 0
598 535 601 0
534 535 530 0
530 535 531 0
533 532 537 0
532 603 537 0
532 600 603 0
537 536 533 0
601 535 540 0
601 540 607 0
539 540 534 0
534 540 535 0
603 604 537 0
604 609 542 0
604 542 538 0
537 604 538 0
536 537 538 0
542 541 538 0
607 540 544 0
607 544 612 0
543 544 539 0
539 544 540 0
609 610 542 0
541 542 610 0
614 541 610 0
545 541 614 0
612 544 547 0
612 547 616 0
546 547 543 0
543 547 544 0
614 548 545 0
618 548 614 0
616 547 552 0
616 552 622 0
550 552 546 0
546 552 547 0
549 548 554 0
548 625 554 0
548 618 625 0
554 553 549 0
629 620 557 0
623 560 557 0
623 557 620 0
560 623 622 0
560 622 552 0
558 560 552 0
551 558 552 0
551 552 550 0
625 626 554 0
626 632 562 0
626 562 555 0
554 626 555 0
553 554 555 0
628 562 633 0
628 555 562 0
628 564 561 0
555 628 561 0
630 567 564 0
630 564 628 0
567 630 629 0
567 629 557 0
565 567 557 0
556 565 557 0
556 557 559 0
559 557 560 0
559 560 558 0
632 634 562 0
634 564 633 0
634 563 564 0
634 562 561 0
563 634 561 0
563 564 566 0
566 564 567 0
566 567 565 0
574 572 568 0
569 576 568 0
568 576 574 0
575 576 569 0
579 577 570 0
571 580 570 0
570 580 579 0
573 581 571 0
571 581 580 0
572 574 573 0
574 581 573 0
574 582 581 0
584 574 576 0
582 574 584 0
583 584 575 0
575 584 576 0
589 587 578 0
641 589 578 0
641 578 577 0
636 641 577 0
579 636 577 0
636 579 580 0
636 580 637 0
637 580 581 0
637 581 638 0
638 581 582 0
638 582 639 0
639 582 584 0
639 584 640 0
646 640 590 0
590 640 585 0
640 584 585 0
584 583 585 0
586 592 585 0
585 592 590 0
591 592 586 0
589 588 587 0
593 588 589 0
641 593 589 0
649 593 641 0
648 646 590 0
596 656 648 0
590 596 648 0
592 596 590 0
595 596 591 0
591 596 592 0
650 658 594 0
594 658 597 0
594 593 649 0
594 649 650 0
656 596 599 0
656 599 661 0
598 599 595 0
595 599 596 0
658 600 597 0
663 600 658 0
661 599 602 0
661 602 667 0
601 602 598 0
598 602 599 0
605 603 664 0
603 663 664 0
603 600 663 0
670 605 664 0
671 668 606 0
606 668 667 0
602 606 667 0
608 606 602 0
607 608 601 0
601 608 602 0
605 604 603 0
609 604 605 0
670 609 605 0
673 609 670 0
671 606 611 0
671 611 676 0
613 606 608 0
611 606 613 0
612 613 607 0
607 613 608 0
673 674 609 0
609 674 610 0
614 610 674 0
614 674 678 0
676 611 615 0
676 615 683 0
617 611 613 0
615 611 617 0
616 617 612 0
612 617 613 0
619 618 679 0
618 678 679 0
618 614 678 0
685 619 679 0
683 615 621 0
683 621 687 0
624 615 617 0
621 615 624 0
622 624 616 0
616 624 617 0
627 625 619 0
619 625 618 0
619 685 690 0
619 690 627 0
693 688 631 0
631 688 687 0
631 687 621 0
629 631 621 0
620 629 621 0
620 621 623 0
623 621 624 0
623 624 622 0
627 626 625 0
691 635 632 0
691 632 626 0
690 691 626 0
627 690 626 0
628 633 635 0
691 628 635 0
694 628 691 0
631 630 693 0
630 694 693 0
630 628 694 0
630 631 629 0
635 634 632 0
634 635 633 0
642 641 636 0
637 643 636 0
636 643 642 0
638 644 637 0
637 644 643 0
639 645 638 0
638 645 644 0
640 647 639 0
639 647 645 0
646 647 640 0
651 649 642 0
642 649 641 0
652 642 643 0
651 642 652 0
653 643 644 0
652 643 653 0
654 644 645 0
653 644 654 0
655 645 647 0
654 645 655 0
648 657 646 0
657 647 646 0
657 655 647 0
656 657 648 0
659 658 650 0
700 659 650 0
700 650 649 0
696 700 649 0
651 696 649 0
696 651 652 0
696 652 697 0
697 652 653 0
697 653 698 0
698 653 654 0
698 654 699 0
660 704 699 0
654 660 699 0
655 660 654 0
662 655 657 0
660 655 662 0
661 662 656 0
656 662 657 0
665 663 659 0
659 663 658 0
659 700 706 0
659 706 665 0
704 660 666 0
704 666 710 0
669 660 662 0
666 660 669 0
667 669 661 0
661 669 662 0
665 664 663 0
670 664 665 0
706 670 665 0
712 670 706 0
710 666 672 0
710 672 716 0
671 672 668 0
672 669 668 0
672 666 669 0
668 669 667 0
675 673 713 0
673 712 713 0
673 670 712 0
718 675 713 0
716 672 677 0
716 677 723 0
676 677 671 0
671 677 672 0
675 674 673 0
719 680 678 0
719 678 674 0
718 719 674 0
675 718 674 0
721 681 680 0
721 680 719 0
724 682 681 0
724 681 721 0
682 724 723 0
677 682 723 0
684 682 677 0
683 684 676 0
676 684 677 0
680 679 678 0
679 680 685 0
680 686 685 0
680 681 686 0
682 726 727 0
686 682 727 0
681 682 686 0
689 728 726 0
682 689 726 0
684 689 682 0
687 689 683 0
683 689 684 0
692 690 686 0
686 690 685 0
686 727 729 0
695 686 729 0
692 686 695 0
695 729 728 0
695 728 689 0
693 695 689 0
688 693 689 0
688 689 687 0
692 691 690 0
691 692 694 0
694 692 695 0
694 695 693 0
701 700 696 0
697 702 696 0
696 702 701 0
698 703 697 0
697 703 702 0
699 705 698 0
698 705 703 0
704 705 699 0
707 706 701 0
701 706 700 0
708 701 702 0
707 701 708 0
709 702 703 0
708 702 709 0
711 703 705 0
709 703 711 0
710 711 704 0
704 711 705 0
714 712 707 0
707 712 706 0
708 731 732 0
714 708 732 0
707 708 714 0
715 733 731 0
708 715 731 0
709 715 708 0
717 709 711 0
715 709 717 0
716 717 710 0
710 717 711 0
714 713 712 0
734 720 718 0
734 718 713 0
732 734 713 0
714 732 713 0
720 734 733 0
715 720 733 0
722 720 715 0
725 715 717 0
722 715 725 0
723 725 716 0
716 725 717 0
720 719 718 0
719 720 721 0
721 720 722 0
721 722 724 0
724 722 725 0
724 725 723 0
730 727 726 0
728 730 726 0
730 729 727 0
729 730 728 0
735 732 731 0
733 735 731 0
735 734 732 0
734 735 733 0
