#!ascii version of /Users/gilles/git/nukkies/notebooks/data/HCBT_STh_R_dil.asc
748 1492
-5.795540  -60.527706  -29.010294  0
-4.402281  -60.827869  -28.959137  0
-4.865499  -60.893238  -29.047977  0
-5.408694  -60.997601  -29.125633  0
-5.845120  -60.944630  -29.074100  0
-5.213108  -61.273994  -29.088984  0
-5.680456  -61.322750  -29.086466  0
-6.103678  -61.390839  -28.989977  0
-4.975332  -59.450554  -28.526926  0
-5.460524  -59.438965  -28.577133  0
-5.984096  -59.456482  -28.575527  0
-6.484507  -59.494682  -28.549335  0
-6.926882  -59.552246  -28.511351  0
-4.676410  -59.859505  -28.627478  0
-5.189825  -60.238007  -28.930395  0
-5.214365  -59.865093  -28.748838  0
-5.573188  -60.203526  -28.916487  0
-5.844702  -59.909233  -28.748796  0
-6.371267  -59.893375  -28.669483  0
-6.822083  -59.910446  -28.603752  0
-7.204957  -59.904858  -28.521269  0
-4.307104  -60.666458  -28.901796  0
-4.275796  -60.369934  -28.703856  0
-4.955443  -60.487103  -28.994574  0
-4.569775  -60.585316  -28.944599  0
-4.801372  -60.217735  -28.843763  0
-5.951425  -60.326149  -28.900564  0
-6.345967  -60.414410  -28.781511  0
-6.712989  -60.286163  -28.663750  0
-7.117532  -60.381119  -28.551094  0
-4.188239  -60.774521  -28.835127  0
-3.936120  -60.754116  -28.564426  0
-4.329946  -61.104870  -28.830729  0
-4.803541  -61.271618  -29.003628  0
-6.132376  -60.713402  -28.952087  0
-6.239188  -61.116550  -28.958895  0
-6.487840  -60.992695  -28.804474  0
-6.835762  -60.819107  -28.613457  0
-4.258165  -61.489761  -28.605803  0
-5.039919  -61.513416  -28.970459  0
-4.655811  -61.514912  -28.832952  0
-5.451342  -61.605347  -28.965029  0
-5.918108  -61.668720  -28.916615  0
-6.478196  -61.466969  -28.769955  0
-6.263518  -61.694862  -28.816322  0
-6.760309  -61.298473  -28.605032  0
-4.552419  -61.782589  -28.611208  0
-5.073620  -61.825985  -28.721039  0
-5.684160  -61.916283  -28.688404  0
-6.159116  -61.920315  -28.627048  0
-5.953267  -57.973591  -28.006191  0
-6.247285  -57.961761  -27.979750  0
-5.796780  -58.392681  -28.115116  0
-6.344491  -58.366241  -28.075230  0
-4.855429  -59.202873  -28.371019  0
-4.793162  -58.950687  -28.115404  0
-5.163318  -59.104218  -28.384100  0
-5.354273  -58.712032  -28.177330  0
-5.641563  -59.076702  -28.418095  0
-5.827228  -58.799122  -28.292097  0
-6.134126  -59.109241  -28.426548  0
-6.265147  -58.780945  -28.256647  0
-6.631146  -59.178288  -28.398338  0
-6.887853  -58.910690  -28.166439  0
-7.445930  -59.059715  -27.989061  0
-4.564957  -59.460506  -28.361799  0
-4.371192  -59.250996  -28.041725  0
-7.039269  -59.321526  -28.378473  0
-7.238364  -59.594292  -28.445160  0
-7.397689  -59.433479  -28.247852  0
-7.787843  -59.445370  -27.990847  0
-4.323712  -59.916248  -28.492210  0
-4.122926  -60.111950  -28.472862  0
-4.111224  -59.814510  -28.205936  0
-7.448008  -59.808891  -28.398092  0
-7.736410  -59.928528  -28.183762  0
-3.932443  -60.320877  -28.410049  0
-3.714010  -60.556782  -28.281950  0
-3.786014  -60.241474  -28.091240  0
-7.469935  -60.204514  -28.408424  0
-7.408066  -60.612366  -28.400961  0
-7.708392  -60.571281  -28.173845  0
-3.690260  -60.832970  -28.214855  0
-3.940598  -61.154747  -28.430174  0
-7.198378  -60.852470  -28.450798  0
-7.437126  -60.985245  -28.260344  0
-7.688824  -61.094902  -27.989641  0
-4.049331  -61.554176  -28.226210  0
-4.285155  -61.742527  -28.470411  0
-7.112674  -61.342216  -28.315271  0
-6.787643  -61.668438  -28.437950  0
-7.444461  -61.336170  -28.067015  0
-4.439653  -61.905376  -28.462059  0
-4.297943  -61.915264  -28.271404  0
-4.720654  -62.106636  -28.353216  0
-5.415787  -62.189522  -28.329414  0
-6.009363  -62.132233  -28.304861  0
-6.503437  -61.838707  -28.549622  0
-6.458772  -62.061470  -28.249800  0
-6.741327  -61.944149  -28.234673  0
-4.693493  -62.395313  -28.020466  0
-5.078768  -62.415218  -28.076000  0
-5.819201  -57.713814  -27.903927  0
-5.796085  -57.476086  -27.659267  0
-6.069171  -57.682125  -27.892153  0
-6.365473  -57.456894  -27.687443  0
-6.920171  -57.447552  -27.556377  0
-7.304361  -57.481956  -27.452324  0
-5.585689  -57.913044  -27.883705  0
-5.378720  -57.688519  -27.576021  0
-6.395304  -57.795792  -27.878456  0
-6.817764  -57.907665  -27.766226  0
-7.325763  -57.904152  -27.576752  0
-4.700809  -58.734249  -27.724525  0
-5.368465  -58.300369  -27.963776  0
-5.011816  -58.484196  -27.794752  0
-5.217283  -58.057320  -27.700926  0
-6.570355  -58.131824  -27.933659  0
-6.769730  -58.487537  -27.990677  0
-6.918216  -58.326729  -27.866577  0
-7.144815  -58.675171  -27.922237  0
-7.301889  -58.390598  -27.734253  0
-7.673748  -58.363995  -27.548290  0
-4.506668  -58.946632  -27.832682  0
-4.298068  -59.148220  -27.702585  0
-7.501142  -58.790848  -27.808250  0
-7.842257  -59.059689  -27.751326  0
-7.688050  -58.685669  -27.659269  0
-4.138373  -59.465504  -27.869894  0
-8.072662  -59.419151  -27.768290  0
-8.329665  -59.603775  -27.612972  0
-3.954295  -59.893559  -27.759258  0
-3.750683  -60.319225  -27.794317  0
-8.085356  -59.784462  -27.882938  0
-8.416339  -60.063358  -27.647144  0
-3.632462  -60.561958  -28.015537  0
-3.704612  -60.614681  -27.719919  0
-8.060678  -60.281315  -27.937151  0
-8.306259  -60.493889  -27.730675  0
-8.635171  -60.484100  -27.497145  0
-3.627920  -60.792625  -27.934052  0
-3.806935  -61.106449  -27.921572  0
-3.700630  -60.842323  -27.759003  0
-8.044250  -60.877819  -27.773296  0
-7.847974  -61.274014  -27.717804  0
-8.384230  -60.778492  -27.588408  0
-3.995596  -61.531227  -27.742441  0
-4.090378  -61.540668  -27.384480  0
-7.634562  -61.492897  -27.759520  0
-7.329236  -61.661308  -27.916193  0
-7.828859  -61.473236  -27.576529  0
-4.136041  -61.883404  -27.895834  0
-4.394384  -62.190884  -28.001190  0
-5.906489  -62.342098  -27.909737  0
-6.409946  -62.233494  -27.854021  0
-7.020437  -61.821014  -28.074072  0
-6.869211  -62.089760  -27.817709  0
-7.218606  -61.937908  -27.722033  0
-4.540870  -62.453503  -27.684347  0
-4.928899  -62.575172  -27.745060  0
-5.482090  -62.424511  -27.989798  0
-5.368555  -62.567959  -27.739449  0
-5.708778  -62.496918  -27.726456  0
-5.816003  -57.219524  -27.202103  0
-6.129238  -57.176853  -27.416410  0
-6.605718  -57.058575  -27.326902  0
-6.944917  -56.806160  -27.077415  0
-7.204037  -57.072933  -27.255220  0
-7.203056  -56.803349  -27.075756  0
-5.517772  -57.429398  -27.345282  0
-5.288688  -57.634201  -27.228191  0
-7.542914  -57.371368  -27.269361  0
-7.918239  -57.591038  -27.128117  0
-5.159522  -57.872986  -27.421322  0
-7.610153  -57.729927  -27.386320  0
-7.699142  -58.071270  -27.447865  0
-7.960625  -58.038391  -27.283184  0
-8.334767  -58.008816  -27.046249  0
-5.025432  -58.195900  -27.378048  0
-4.804022  -58.577362  -27.306999  0
-7.941254  -58.346916  -27.396341  0
-8.310600  -58.511803  -27.223221  0
-8.707344  -58.452888  -26.967224  0
-4.516742  -58.914318  -27.430380  0
-4.315597  -59.215420  -27.366081  0
-8.032449  -58.752422  -27.483299  0
-8.218009  -59.216618  -27.548595  0
-8.435386  -59.045357  -27.304003  0
-8.722560  -58.921909  -27.063627  0
-4.139754  -59.462837  -27.550858  0
-4.250951  -59.556438  -27.183023  0
-8.484608  -59.410816  -27.395699  0
-8.752013  -59.425766  -27.164228  0
-4.075964  -59.820210  -27.381302  0
-4.200952  -60.020294  -27.055830  0
-8.616570  -59.732510  -27.386909  0
-8.837008  -60.061810  -27.286245  0
-8.824558  -59.761581  -27.200190  0
-3.966210  -60.330242  -27.382254  0
-4.203955  -60.419025  -26.956087  0
-8.976950  -60.402134  -27.264494  0
-8.891505  -60.658218  -27.330753  0
-9.212076  -60.622696  -27.094238  0
-3.918065  -60.858860  -27.451202  0
-4.029323  -61.259922  -27.444565  0
-8.663054  -60.911488  -27.338890  0
-8.322746  -61.117146  -27.407209  0
-8.981340  -60.858223  -27.206299  0
-9.196746  -60.927608  -27.025280  0
-4.211959  -61.417049  -27.123070  0
-4.209337  -61.662746  -27.081528  0
-8.053721  -61.413158  -27.367956  0
-7.778535  -61.673328  -27.409353  0
-8.314740  -61.377007  -27.170641  0
-4.128852  -61.836250  -27.393444  0
-4.272456  -62.185314  -27.552027  0
-6.345257  -62.391930  -27.490227  0
-6.847448  -62.296116  -27.299765  0
-7.501534  -61.826561  -27.544683  0
-7.318542  -62.085255  -27.298801  0
-7.664270  -61.915070  -27.206612  0
-4.478700  -62.439850  -27.242260  0
-4.814204  -62.621040  -27.336380  0
-5.295635  -62.671883  -27.341900  0
-6.006138  -62.474323  -27.550617  0
-5.820096  -62.604252  -27.342892  0
-6.238733  -62.521217  -27.256950  0
-6.606467  -62.476051  -27.069841  0
-6.922999  -56.700687  -26.681738  0
-7.242126  -56.687496  -26.809383  0
-5.904677  -57.199921  -26.735924  0
-6.629093  -56.832104  -26.941200  0
-6.237083  -57.008755  -26.957438  0
-7.468435  -56.818466  -26.915184  0
-7.765891  -57.075806  -26.931767  0
-7.733540  -56.804668  -26.715454  0
-8.837938  -57.057930  -26.459091  0
-5.563551  -57.442989  -26.883812  0
-5.300573  -57.730980  -26.901615  0
-5.778225  -57.359188  -26.581787  0
-8.107028  -57.325310  -26.881268  0
-8.244272  -57.617077  -26.944786  0
-8.488812  -57.344357  -26.707235  0
-8.831010  -57.424198  -26.598450  0
-5.133692  -57.941265  -27.090767  0
-5.252237  -58.053108  -26.689552  0
-8.496271  -57.758442  -26.864765  0
-8.803870  -58.033150  -26.782108  0
-8.719799  -57.678761  -26.724203  0
-5.042564  -58.382004  -26.822699  0
-4.837306  -58.713158  -26.845114  0
-5.238546  -58.318932  -26.510296  0
-9.038003  -58.401123  -26.740891  0
-9.314333  -58.591221  -26.567657  0
-4.666195  -58.863365  -27.035782  0
-4.756448  -59.044590  -26.649710  0
-9.027621  -58.785690  -26.826384  0
-9.309395  -59.045074  -26.626408  0
-4.508872  -59.287148  -26.930035  0
-4.701830  -59.408810  -26.490446  0
-9.038956  -59.254982  -26.886078  0
-9.312784  -59.507446  -26.679783  0
-4.383887  -59.777340  -26.850479  0
-9.060881  -59.737270  -26.976654  0
-9.298153  -60.148102  -26.907290  0
-9.313745  -59.818909  -26.756329  0
-4.407217  -60.270412  -26.678694  0
-4.327220  -60.641403  -26.754938  0
-9.545603  -60.479763  -26.804548  0
-9.794267  -60.592411  -26.597130  0
-4.164301  -60.725002  -27.020325  0
-4.300302  -61.085880  -26.913414  0
-4.332144  -60.842609  -26.770542  0
-8.937320  -61.147686  -27.005354  0
-9.527190  -60.858112  -26.767330  0
-9.264415  -61.124058  -26.813141  0
-9.782432  -60.809875  -26.583450  0
-4.476061  -61.508205  -26.708965  0
-4.301842  -61.776398  -26.833372  0
-4.760298  -61.419605  -26.412399  0
-8.554166  -61.287754  -27.090958  0
-8.379236  -61.623337  -26.824247  0
-8.771503  -61.450058  -26.770237  0
-9.113295  -61.386585  -26.617361  0
-4.203001  -61.873032  -27.011379  0
-4.334074  -62.112942  -26.996202  0
-4.286493  -61.922199  -26.836473  0
-7.321559  -62.261894  -26.747026  0
-7.951664  -61.791031  -27.021431  0
-7.709565  -62.045139  -26.843832  0
-4.570410  -62.395599  -26.873840  0
-4.737631  -62.570103  -26.992268  0
-4.913012  -62.461014  -26.652527  0
-5.194233  -62.652798  -26.863213  0
-5.304131  -62.521168  -26.447535  0
-5.771350  -62.691669  -26.858601  0
-6.332377  -62.613171  -26.846474  0
-6.948380  -62.419781  -26.852991  0
-6.765013  -62.530571  -26.711697  0
-6.983789  -56.713631  -26.237164  0
-7.308308  -56.629372  -26.355032  0
-7.677444  -56.660393  -26.456949  0
-8.918645  -56.666168  -26.165085  0
-8.717189  -56.470661  -26.012875  0
-6.596641  -56.886307  -26.425583  0
-6.215111  -57.122341  -26.431643  0
-6.824481  -56.836571  -26.102816  0
-8.001470  -56.758259  -26.482887  0
-8.595859  -56.829479  -26.382446  0
-8.217674  -56.982746  -26.610760  0
-8.387300  -56.626892  -26.212023  0
-9.087667  -56.905666  -26.257915  0
-9.294868  -57.037327  -26.089916  0
-6.012201  -57.380226  -26.307772  0
-5.750124  -57.603191  -26.406849  0
-6.229229  -57.285149  -26.157801  0
-9.088414  -57.260464  -26.399069  0
-9.340327  -57.449425  -26.198080  0
-5.490350  -57.826767  -26.544064  0
-5.756554  -58.016956  -26.141327  0
-9.065029  -57.692665  -26.519779  0
-9.331946  -58.097198  -26.403301  0
-9.349150  -57.750412  -26.286737  0
-5.492823  -58.320568  -26.215567  0
-5.242780  -58.611794  -26.293909  0
-5.768937  -58.316181  -25.964952  0
-9.588192  -58.423500  -26.286072  0
-9.848805  -58.570232  -26.073170  0
-5.004081  -58.880119  -26.400558  0
-5.231755  -58.968342  -26.030174  0
-9.578606  -58.808086  -26.361250  0
-9.838184  -59.016811  -26.131094  0
-4.888834  -59.324017  -26.253218  0
-4.794273  -59.675556  -26.224499  0
-9.570245  -59.280052  -26.405809  0
-9.826098  -59.488407  -26.189453  0
-4.597405  -59.829159  -26.493361  0
-4.804862  -60.088295  -26.118963  0
-9.566336  -59.766586  -26.507612  0
-9.817761  -60.158058  -26.427792  0
-9.821518  -59.808231  -26.272539  0
-4.625811  -60.320862  -26.344406  0
-4.804944  -60.549530  -26.118902  0
-10.056330  -60.513691  -26.254488  0
-10.298237  -60.552521  -25.963923  0
-4.543082  -60.748615  -26.486660  0
-4.766612  -61.141792  -26.349289  0
-4.791939  -60.843502  -26.195566  0
-9.926812  -60.767872  -26.397999  0
-9.789841  -61.055046  -26.317392  0
-4.962724  -61.378300  -26.241671  0
-4.811024  -61.600464  -26.387480  0
-5.225999  -61.516865  -26.083157  0
-5.616427  -61.599712  -25.860678  0
-8.452416  -61.867859  -26.382149  0
-8.874567  -61.711132  -26.329769  0
-9.460732  -61.253830  -26.473970  0
-9.293953  -61.542591  -26.253273  0
-4.515839  -61.866554  -26.637785  0
-4.705957  -62.175632  -26.589788  0
-4.948920  -61.868603  -26.317430  0
-5.242007  -62.192406  -26.236046  0
-5.315504  -61.813370  -26.081369  0
-7.415791  -62.271435  -26.207893  0
-8.101213  -61.932007  -26.581259  0
-7.849933  -62.123676  -26.318285  0
-8.276851  -62.014343  -26.221796  0
-8.647155  -61.966587  -26.049469  0
-5.571671  -62.446114  -26.160297  0
-5.726301  -62.634090  -26.367430  0
-5.866307  -62.499687  -25.990005  0
-6.235363  -62.658207  -26.373438  0
-7.060535  -62.430935  -26.470427  0
-6.703933  -62.564159  -26.371523  0
-8.778896  -56.306274  -25.690712  0
-7.336017  -56.697609  -25.938663  0
-7.769644  -56.653313  -25.847950  0
-8.558020  -56.410789  -25.841480  0
-8.195253  -56.550606  -25.939646  0
-8.982019  -56.379089  -25.747185  0
-9.173617  -56.675957  -25.932343  0
-7.078943  -56.879604  -25.844011  0
-6.755100  -57.068493  -25.926994  0
-7.344643  -56.820541  -25.710884  0
-7.597939  -56.828712  -25.581106  0
-9.360577  -56.855888  -25.718082  0
-6.443962  -57.209850  -26.067341  0
-6.286603  -57.506336  -25.955143  0
-6.656320  -57.528519  -25.677225  0
-9.495272  -57.225071  -25.777790  0
-6.033668  -57.778259  -26.021442  0
-6.360847  -57.893921  -25.703506  0
-6.665209  -57.997284  -25.446453  0
-9.618182  -57.701183  -25.899912  0
-9.844495  -58.144909  -25.887213  0
-9.867388  -57.864223  -25.646336  0
-6.063046  -58.280411  -25.743450  0
-5.772400  -58.588314  -25.795931  0
-6.421334  -58.218307  -25.517897  0
-10.084561  -58.439201  -25.804350  0
-10.296792  -58.613148  -25.584137  0
-5.519244  -58.881630  -25.811995  0
-5.325790  -59.216110  -25.761433  0
-5.779964  -58.847141  -25.619499  0
-10.098822  -58.785500  -25.861437  0
-10.320361  -59.008663  -25.616678  0
-5.113263  -59.281849  -25.973408  0
-5.285324  -59.580402  -25.639095  0
-10.090735  -59.246933  -25.906515  0
-10.332349  -59.457756  -25.662741  0
-5.017459  -59.763020  -25.910429  0
-5.290184  -60.050179  -25.561239  0
-10.080630  -59.739307  -26.012516  0
-10.331207  -60.141888  -25.890379  0
-10.337912  -59.777565  -25.747288  0
-5.048545  -60.319908  -25.836544  0
-5.398106  -60.549469  -25.565357  0
-10.598053  -60.506573  -25.672428  0
-10.388120  -60.748466  -25.786676  0
-10.868389  -60.443012  -25.475908  0
-5.058589  -60.807232  -25.949888  0
-5.197803  -61.169952  -26.004549  0
-5.409679  -60.924637  -25.737144  0
-5.691705  -61.199432  -25.682047  0
-5.664497  -60.838699  -25.504627  0
-10.132936  -60.928440  -25.935179  0
-9.923700  -61.288383  -25.846581  0
-10.355002  -60.924477  -25.681761  0
-6.033889  -61.488758  -25.576952  0
-5.820831  -61.740528  -25.749142  0
-6.316122  -61.382599  -25.386681  0
-9.646040  -61.512337  -25.921894  0
-9.282987  -61.778660  -25.921570  0
-9.890717  -61.500450  -25.625925  0
-5.588918  -61.906136  -25.920937  0
-5.798736  -62.191936  -25.846653  0
-5.809243  -61.918228  -25.768967  0
-7.402818  -62.217468  -25.904528  0
-7.374542  -62.074818  -25.583656  0
-7.779987  -62.122959  -25.836515  0
-7.843960  -61.992054  -25.498827  0
-8.364395  -62.089321  -25.841099  0
-9.001971  -61.925014  -25.912651  0
-8.913164  -62.064388  -25.669828  0
-9.234336  -61.979912  -25.647070  0
-6.098241  -62.407047  -25.755772  0
-6.165825  -62.576889  -25.975307  0
-6.436426  -62.381924  -25.656492  0
-7.066473  -62.362957  -25.997265  0
-6.592083  -62.521030  -25.958042  0
-6.857117  -62.266537  -25.623245  0
-8.901032  -56.261772  -25.509756  0
-8.658411  -56.429516  -25.416658  0
-8.257240  -56.653812  -25.375904  0
-9.029528  -56.297306  -25.483631  0
-8.958898  -56.351395  -25.338676  0
-9.168173  -56.552971  -25.426287  0
-7.388177  -57.080036  -25.467443  0
-7.999510  -56.899017  -25.235970  0
-7.731646  -57.098675  -25.231192  0
-8.290549  -56.834507  -25.046869  0
-9.433699  -56.989616  -25.249783  0
-9.199648  -56.764713  -25.000402  0
-7.034498  -57.276501  -25.562309  0
-7.300315  -57.451134  -25.278149  0
-7.617477  -57.461678  -25.043591  0
-9.674761  -57.411015  -25.361887  0
-9.845590  -57.702736  -25.447042  0
-7.041924  -57.816273  -25.260609  0
-6.826666  -58.204891  -25.236193  0
-7.390586  -57.735497  -25.047155  0
-10.054044  -57.976879  -25.275730  0
-10.203088  -58.294834  -25.515467  0
-6.606027  -58.314098  -25.345245  0
-6.346416  -58.536121  -25.404114  0
-6.682622  -58.600609  -25.127087  0
-10.406694  -58.531929  -25.263067  0
-10.305015  -58.275272  -25.160059  0
-6.005732  -58.741875  -25.519175  0
-5.816596  -59.059807  -25.454576  0
-6.221108  -58.984203  -25.221970  0
-6.589542  -59.045128  -24.938272  0
-10.446198  -58.824615  -25.352194  0
-5.541472  -59.340096  -25.504004  0
-5.852454  -59.431057  -25.232540  0
-6.225458  -59.444962  -24.981136  0
-10.503426  -59.203243  -25.301098  0
-5.543347  -59.772163  -25.345179  0
-5.866632  -59.907032  -25.080872  0
-10.596503  -59.720474  -25.382235  0
-10.847178  -60.167305  -25.378332  0
-10.844436  -59.891022  -25.169550  0
-5.589120  -60.207283  -25.284382  0
-5.802757  -60.553898  -25.234808  0
-5.804683  -60.260986  -25.107899  0
-11.110477  -60.465065  -25.204853  0
-10.855342  -60.658405  -25.391569  0
-11.330769  -60.407650  -24.989637  0
-5.988936  -60.903351  -25.316822  0
-6.272284  -61.162483  -25.285124  0
-6.243303  -60.920166  -25.146790  0
-10.586574  -60.902477  -25.414497  0
-10.333034  -61.151741  -25.434155  0
-10.838730  -60.860081  -25.211052  0
-6.517819  -61.353008  -25.226179  0
-6.377869  -61.562077  -25.378874  0
-6.783269  -61.514759  -25.114626  0
-7.334034  -61.804264  -25.206102  0
-7.231761  -61.573906  -24.965998  0
-7.755069  -61.847565  -25.241222  0
-10.099401  -61.443947  -25.373613  0
-9.832504  -61.715813  -25.403238  0
-10.314516  -61.393375  -25.126165  0
-6.077811  -61.842018  -25.590918  0
-6.251928  -62.150913  -25.555248  0
-6.505517  -61.830517  -25.350805  0
-7.021688  -62.006741  -25.380190  0
-6.657658  -62.090710  -25.414757  0
-6.919389  -61.797142  -25.216463  0
-8.088237  -61.916447  -25.269123  0
-8.291193  -62.052784  -25.428873  0
-8.394610  -61.958115  -25.097294  0
-8.839501  -62.130669  -25.335340  0
-9.533216  -61.873363  -25.533154  0
-9.342102  -62.087402  -25.265898  0
-9.709270  -61.966469  -25.158960  0
-8.942743  -56.606529  -25.025164  0
-8.611336  -56.823719  -24.852684  0
-8.298971  -57.083508  -24.776072  0
-9.064771  -56.831738  -24.733086  0
-8.894813  -56.811214  -24.711031  0
-9.285303  -57.012157  -24.737040  0
-8.016418  -57.372570  -24.766853  0
-7.828993  -57.704788  -24.689745  0
-8.296651  -57.340916  -24.522606  0
-9.572030  -57.302498  -24.770468  0
-9.845950  -57.629562  -24.988377  0
-7.626433  -57.915661  -24.733215  0
-7.337006  -58.107365  -24.870752  0
-7.827325  -57.917603  -24.532787  0
-10.000095  -57.868912  -24.718843  0
-7.050584  -58.339062  -24.986404  0
-7.309969  -58.542015  -24.642807  0
-10.230660  -58.202599  -24.735157  0
-10.410584  -58.475922  -24.935026  0
-7.017423  -58.850216  -24.729469  0
-6.786581  -59.194759  -24.729559  0
-7.298050  -58.822540  -24.493887  0
-10.511376  -58.843990  -24.940725  0
-6.544093  -59.346367  -24.816151  0
-6.409430  -59.629959  -24.792089  0
-6.710420  -59.588108  -24.620199  0
-10.669469  -59.352894  -24.807285  0
-10.826475  -59.716717  -24.957903  0
-6.182504  -59.854183  -24.880110  0
-6.461061  -60.033585  -24.695778  0
-6.775770  -60.001270  -24.471754  0
-11.049508  -59.955658  -24.856411  0
-11.230615  -60.246746  -25.006390  0
-6.082410  -60.275921  -24.948624  0
-6.173652  -60.693241  -25.045753  0
-6.446620  -60.528610  -24.769737  0
-6.747716  -60.391937  -24.496704  0
-11.405901  -60.350876  -24.777727  0
-11.330776  -60.564445  -24.763453  0
-6.461577  -60.891190  -24.950468  0
-6.760928  -61.171898  -24.904381  0
-6.794787  -60.806999  -24.611609  0
-7.118042  -61.352818  -24.791698  0
-11.047014  -60.762691  -25.030083  0
-10.815012  -61.065109  -24.848497  0
-7.481398  -61.410835  -24.625198  0
-7.718173  -61.627640  -24.851830  0
-8.211501  -61.786949  -24.887009  0
-10.496911  -61.280483  -25.001886  0
-10.286119  -61.610912  -24.761307  0
-8.616170  -61.920258  -24.778728  0
-8.807561  -62.080387  -24.934608  0
-8.926495  -61.984402  -24.534908  0
-9.299664  -62.157597  -24.837280  0
-9.975695  -61.835423  -24.953934  0
-9.710205  -62.075932  -24.803261  0
-8.997034  -57.082226  -24.458561  0
-9.339395  -57.217834  -24.457975  0
-8.602446  -57.325874  -24.321539  0
-8.289493  -57.588428  -24.302595  0
-8.946365  -57.351204  -24.150770  0
-9.494187  -57.367210  -24.399677  0
-9.271077  -57.405487  -24.178862  0
-9.692735  -57.614292  -24.369604  0
-8.049048  -57.875175  -24.318096  0
-7.810956  -58.162144  -24.366724  0
-8.286325  -57.827721  -24.086840  0
-9.972657  -57.997162  -24.235510  0
-9.696826  -57.809437  -23.976799  0
-7.567102  -58.352966  -24.499586  0
-7.780046  -58.541008  -24.140606  0
-10.201453  -58.319229  -24.258747  0
-10.384193  -58.569473  -24.521626  0
-7.545489  -58.820690  -24.239588  0
-7.288527  -59.104046  -24.353889  0
-7.773021  -58.793255  -23.996559  0
-10.517674  -58.964390  -24.349503  0
-7.019775  -59.321037  -24.493921  0
-7.275724  -59.552738  -24.176144  0
-10.706197  -59.334538  -24.174637  0
-10.903329  -59.644100  -24.501831  0
-7.004363  -59.779732  -24.339365  0
-7.266821  -60.038803  -24.065470  0
-11.150034  -59.889259  -24.256989  0
-11.334915  -60.155643  -24.565493  0
-7.010904  -60.240688  -24.265081  0
-7.276757  -60.499386  -24.053513  0
-11.454720  -60.379139  -24.372137  0
-11.396966  -60.646187  -24.191620  0
-7.059034  -60.662758  -24.293993  0
-7.280777  -61.075726  -24.380136  0
-7.285737  -60.792252  -24.130083  0
-11.149843  -60.878719  -24.512608  0
-10.874388  -61.194256  -24.213638  0
-7.677960  -61.318802  -24.319281  0
-7.818815  -61.471069  -24.483963  0
-8.019382  -61.370388  -24.185709  0
-8.168024  -61.570065  -24.466650  0
-8.446296  -61.420078  -24.065073  0
-8.748252  -61.709167  -24.284412  0
-8.753501  -61.450626  -23.953579  0
-10.582830  -61.426373  -24.470247  0
-10.340697  -61.719357  -24.197874  0
-9.152892  -61.936871  -24.198700  0
-9.295897  -62.094692  -24.395525  0
-9.428652  -61.979870  -23.994362  0
-10.045220  -61.927502  -24.457537  0
-9.708504  -62.095276  -24.366182  0
-8.942543  -57.635681  -23.913244  0
-9.410667  -57.690548  -23.917801  0
-8.509967  -57.747700  -23.982294  0
-8.306259  -58.045578  -23.915810  0
-8.658715  -58.033623  -23.696890  0
-9.528843  -57.847679  -23.769533  0
-9.195026  -57.992008  -23.602301  0
-9.700438  -58.034515  -23.754417  0
-8.036002  -58.305927  -24.014174  0
-8.313419  -58.411949  -23.694843  0
-8.704557  -58.413254  -23.443447  0
-10.019591  -58.242905  -23.928461  0
-9.852727  -58.340942  -23.588125  0
-10.228340  -58.610703  -23.901957  0
-7.983537  -58.690708  -23.842188  0
-7.819609  -59.026859  -23.859684  0
-8.243877  -58.943359  -23.542517  0
-10.468767  -59.055916  -23.768480  0
-10.229457  -58.836285  -23.523325  0
-7.553803  -59.308098  -24.011040  0
-7.906804  -59.513844  -23.668495  0
-8.248717  -59.464596  -23.441643  0
-10.678001  -59.366364  -23.717354  0
-10.904262  -59.610939  -23.935177  0
-7.555665  -59.808014  -23.873234  0
-7.883714  -60.101936  -23.637407  0
-8.210769  -59.913677  -23.459175  0
-11.114253  -59.865948  -23.684359  0
-11.357169  -60.137398  -24.007200  0
-7.556700  -60.318104  -23.836901  0
-7.905471  -60.589115  -23.676548  0
-8.293800  -60.443501  -23.482767  0
-11.457044  -60.408978  -23.836504  0
-11.403632  -60.657410  -23.686228  0
-7.562452  -60.792591  -23.941357  0
-7.776515  -61.140686  -24.038977  0
-7.937635  -60.934673  -23.782658  0
-8.198438  -61.170708  -23.864014  0
-8.274442  -60.863361  -23.627043  0
-8.695526  -61.172077  -23.686409  0
-8.587619  -60.798283  -23.482599  0
-11.177852  -60.921837  -23.932571  0
-10.783047  -61.220257  -23.636061  0
-9.022560  -61.468727  -23.789211  0
-9.327885  -61.713421  -23.790667  0
-9.278669  -61.469296  -23.598747  0
-10.564602  -61.507820  -23.962095  0
-10.347490  -61.715061  -23.880947  0
-10.327778  -61.602680  -23.628092  0
-9.633605  -61.877945  -23.732338  0
-10.076503  -61.890957  -23.963530  0
-9.691431  -62.017422  -23.972805  0
-9.934360  -61.807610  -23.638212  0
-9.462352  -58.241280  -23.419609  0
-9.094567  -58.311180  -23.335037  0
-8.897884  -58.570290  -23.252045  0
-9.651805  -58.482582  -23.312099  0
-9.272038  -58.577374  -23.201302  0
-9.969797  -58.639725  -23.421749  0
-8.628456  -58.798290  -23.311892  0
-8.910939  -58.961029  -23.162380  0
-9.297810  -58.974739  -23.067272  0
-10.087854  -58.906605  -23.281771  0
-9.711603  -58.852028  -23.151213  0
-10.305203  -59.053249  -23.394377  0
-8.528733  -59.222828  -23.301882  0
-8.836821  -59.503941  -23.136122  0
-9.142832  -59.303036  -23.032330  0
-9.581854  -59.373001  -22.951143  0
-10.488634  -59.259979  -23.442327  0
-10.177133  -59.286804  -23.116453  0
-10.742001  -59.596741  -23.357447  0
-8.514208  -59.728500  -23.292826  0
-8.890509  -60.048145  -23.136166  0
-9.262640  -59.814682  -22.949989  0
-11.038538  -59.866760  -23.323669  0
-10.897948  -59.909740  -23.047911  0
-11.246776  -60.161385  -23.386488  0
-8.573392  -60.215893  -23.311895  0
-8.673669  -60.585480  -23.355413  0
-8.964906  -60.538666  -23.209316  0
-9.367843  -60.440655  -22.976208  0
-11.418745  -60.470135  -23.459034  0
-11.374280  -60.620056  -23.394409  0
-11.211946  -60.502743  -23.155706  0
-8.930024  -60.893391  -23.381277  0
-9.161760  -61.239304  -23.488319  0
-9.388247  -60.965096  -23.200830  0
-9.825534  -60.829903  -22.946180  0
-10.395587  -61.297298  -23.300097  0
-10.383281  -60.942993  -22.985596  0
-11.147835  -60.828182  -23.406593  0
-10.761420  -61.030602  -23.231985  0
-10.889441  -60.744846  -23.018089  0
-9.488276  -61.402328  -23.423719  0
-10.073366  -61.554489  -23.393570  0
-9.739756  -61.637207  -23.480818  0
-9.912825  -61.262745  -23.200891  0
-10.012428  -59.706032  -22.798510  0
-10.483548  -59.732647  -22.899393  0
-9.651141  -59.833172  -22.791103  0
-9.948592  -60.086124  -22.675182  0
-10.697389  -60.009583  -22.771852  0
-10.344989  -60.015244  -22.677872  0
-10.989286  -60.209873  -22.915913  0
-9.621490  -60.199757  -22.775440  0
-9.758467  -60.531208  -22.789795  0
-9.928971  -60.384903  -22.681131  0
-10.129951  -60.635483  -22.754286  0
-10.269801  -60.343761  -22.646053  0
-10.922241  -60.468513  -22.846144  0
-10.578020  -60.587177  -22.765177  0
-10.663670  -60.270500  -22.696531  0
15 24 0 0
1 17 0 0
0 17 15 0
1 27 17 0
22 31 2 0
3 25 2 0
2 25 22 0
25 3 24 0
3 0 24 0
3 4 0 0
0 5 1 0
0 4 5 0
27 1 35 0
35 1 5 0
31 33 2 0
2 33 3 0
3 33 34 0
40 6 34 0
6 3 34 0
6 4 3 0
4 7 5 0
4 6 7 0
35 5 36 0
5 8 36 0
5 7 8 0
8 44 36 0
40 42 6 0
6 42 7 0
7 42 43 0
7 43 8 0
8 43 45 0
8 45 44 0
55 66 9 0
10 57 9 0
9 57 55 0
11 59 10 0
10 59 57 0
12 61 11 0
11 61 59 0
13 63 12 0
12 63 61 0
13 68 63 0
9 66 14 0
14 66 72 0
9 16 10 0
9 14 16 0
10 18 11 0
10 16 18 0
11 19 12 0
11 18 19 0
12 20 13 0
12 19 20 0
68 13 69 0
13 21 69 0
13 20 21 0
21 75 69 0
73 77 23 0
73 23 72 0
23 14 72 0
23 26 14 0
26 24 15 0
16 26 15 0
14 26 16 0
16 15 17 0
16 17 18 0
18 17 27 0
28 18 27 0
19 18 28 0
19 29 20 0
19 28 29 0
20 30 21 0
20 29 30 0
75 21 80 0
80 21 30 0
78 83 32 0
78 32 77 0
77 32 23 0
32 31 23 0
31 22 23 0
23 22 25 0
23 25 26 0
26 25 24 0
35 37 28 0
35 28 27 0
28 38 29 0
28 37 38 0
81 30 85 0
30 38 85 0
30 29 38 0
30 81 80 0
83 84 32 0
84 88 39 0
84 39 33 0
32 84 33 0
31 32 33 0
41 34 33 0
41 33 39 0
41 40 34 0
36 37 35 0
37 36 44 0
46 37 44 0
38 37 46 0
85 38 90 0
90 38 46 0
88 89 39 0
93 47 89 0
47 39 89 0
47 41 39 0
48 42 40 0
41 48 40 0
47 48 41 0
49 43 42 0
49 42 48 0
50 45 43 0
50 43 49 0
50 98 45 0
45 98 44 0
98 91 44 0
91 46 44 0
46 91 90 0
93 95 47 0
47 95 48 0
48 95 96 0
48 96 49 0
49 96 97 0
49 97 50 0
50 97 99 0
50 99 98 0
103 109 51 0
52 105 51 0
51 105 103 0
52 111 105 0
51 109 53 0
53 109 115 0
51 54 52 0
51 53 54 0
111 52 118 0
118 52 54 0
114 124 56 0
58 116 56 0
56 116 114 0
116 58 115 0
58 53 115 0
58 60 53 0
53 62 54 0
53 60 62 0
118 54 119 0
54 64 119 0
54 62 64 0
65 121 64 0
64 121 119 0
65 126 121 0
125 129 67 0
125 67 124 0
124 67 56 0
67 66 56 0
66 55 56 0
56 55 57 0
56 57 58 0
58 57 59 0
58 59 60 0
60 59 61 0
60 61 62 0
62 61 63 0
62 63 64 0
64 63 68 0
70 64 68 0
65 64 70 0
126 65 127 0
65 71 127 0
65 70 71 0
71 130 127 0
67 129 74 0
74 129 132 0
74 72 66 0
74 66 67 0
69 70 68 0
70 69 75 0
76 70 75 0
71 70 76 0
130 71 134 0
134 71 76 0
133 136 79 0
133 79 132 0
132 79 74 0
79 77 74 0
77 73 74 0
74 73 72 0
80 82 76 0
80 76 75 0
134 76 138 0
138 76 82 0
79 136 78 0
136 83 78 0
136 141 83 0
79 78 77 0
85 86 81 0
82 80 81 0
86 82 81 0
87 82 86 0
138 82 144 0
144 82 87 0
141 142 83 0
83 142 84 0
88 84 142 0
88 142 147 0
90 92 86 0
90 86 85 0
145 87 149 0
87 92 149 0
87 86 92 0
87 145 144 0
89 88 94 0
88 152 94 0
88 147 152 0
94 93 89 0
98 100 91 0
100 156 91 0
91 156 90 0
156 150 90 0
150 92 90 0
92 150 149 0
152 153 94 0
153 159 101 0
153 101 95 0
94 153 95 0
93 94 95 0
102 96 95 0
102 95 101 0
96 102 161 0
154 96 161 0
97 96 154 0
97 155 99 0
154 155 97 0
98 99 100 0
99 157 100 0
99 155 157 0
100 157 156 0
159 160 101 0
101 160 102 0
102 160 162 0
102 162 161 0
164 170 104 0
106 165 104 0
104 165 164 0
107 166 106 0
106 166 165 0
108 168 107 0
107 168 166 0
108 172 168 0
171 174 110 0
171 110 170 0
170 110 104 0
110 109 104 0
109 103 104 0
104 103 105 0
104 105 106 0
106 105 111 0
112 106 111 0
107 106 112 0
107 113 108 0
107 112 113 0
172 108 175 0
175 108 113 0
110 174 117 0
117 174 179 0
117 115 109 0
117 109 110 0
118 120 112 0
118 112 111 0
112 122 113 0
112 120 122 0
175 113 176 0
113 123 176 0
113 122 123 0
123 181 176 0
180 184 114 0
114 184 124 0
116 117 179 0
180 116 179 0
114 116 180 0
117 116 115 0
119 120 118 0
120 119 121 0
120 121 122 0
122 121 126 0
128 122 126 0
123 122 128 0
181 123 186 0
186 123 128 0
185 190 125 0
125 190 129 0
125 124 184 0
125 184 185 0
127 128 126 0
131 187 130 0
130 187 127 0
187 186 127 0
186 128 127 0
131 192 187 0
190 132 129 0
194 132 190 0
134 135 131 0
134 131 130 0
192 131 196 0
196 131 135 0
137 136 133 0
199 137 133 0
132 199 133 0
194 199 132 0
138 139 135 0
138 135 134 0
196 135 197 0
135 140 197 0
135 139 140 0
140 201 197 0
143 141 137 0
137 141 136 0
137 199 204 0
137 204 143 0
144 146 139 0
144 139 138 0
202 140 206 0
140 146 206 0
140 139 146 0
140 202 201 0
143 142 141 0
205 148 147 0
205 147 142 0
204 205 142 0
143 204 142 0
210 148 205 0
149 151 145 0
151 212 145 0
145 212 144 0
212 207 144 0
207 146 144 0
146 207 206 0
211 215 148 0
215 147 148 0
215 152 147 0
211 148 210 0
156 158 150 0
158 219 150 0
150 219 149 0
219 213 149 0
213 151 149 0
151 213 212 0
215 216 152 0
152 216 153 0
159 153 216 0
159 216 222 0
161 163 154 0
154 163 225 0
217 154 225 0
155 154 217 0
155 218 157 0
217 218 155 0
156 157 158 0
157 220 158 0
157 218 220 0
158 220 219 0
222 223 159 0
159 223 160 0
160 224 162 0
223 224 160 0
161 162 163 0
162 226 163 0
162 224 226 0
163 226 225 0
229 232 167 0
169 230 167 0
167 230 229 0
169 234 230 0
231 238 164 0
164 238 170 0
233 164 165 0
233 231 164 0
166 167 232 0
233 166 232 0
165 166 233 0
167 166 168 0
167 168 169 0
173 235 172 0
172 235 168 0
235 234 168 0
234 169 168 0
173 241 235 0
239 245 171 0
171 245 174 0
171 170 238 0
171 238 239 0
175 177 173 0
175 173 172 0
241 173 242 0
173 178 242 0
173 177 178 0
178 247 242 0
245 179 174 0
250 179 245 0
176 177 175 0
177 176 181 0
182 177 181 0
178 177 182 0
247 178 248 0
178 183 248 0
178 182 183 0
183 253 248 0
251 255 180 0
180 255 184 0
180 179 250 0
180 250 251 0
186 188 182 0
186 182 181 0
182 189 183 0
182 188 189 0
253 183 257 0
257 183 189 0
191 190 185 0
259 191 185 0
184 259 185 0
255 259 184 0
187 188 186 0
188 187 192 0
193 188 192 0
189 188 193 0
257 189 261 0
261 189 193 0
195 194 191 0
191 194 190 0
191 259 263 0
191 263 195 0
196 198 193 0
196 193 192 0
261 193 264 0
264 193 198 0
200 199 195 0
195 199 194 0
195 263 267 0
195 267 200 0
197 198 196 0
203 265 201 0
201 265 197 0
265 264 197 0
264 198 197 0
203 269 265 0
268 271 200 0
271 199 200 0
271 204 199 0
268 200 267 0
206 208 202 0
203 201 202 0
208 203 202 0
209 203 208 0
269 203 275 0
275 203 209 0
271 272 204 0
204 272 205 0
210 205 272 0
210 272 278 0
212 214 207 0
214 281 207 0
207 281 206 0
281 274 206 0
274 208 206 0
208 274 209 0
209 274 276 0
209 276 275 0
279 285 211 0
211 285 215 0
211 210 278 0
211 278 279 0
219 221 213 0
221 289 213 0
213 289 212 0
289 282 212 0
282 214 212 0
214 282 281 0
285 286 215 0
215 286 216 0
222 216 286 0
222 286 291 0
225 227 217 0
228 218 217 0
228 217 227 0
218 228 298 0
288 218 298 0
220 218 288 0
219 220 221 0
220 290 221 0
220 288 290 0
221 290 289 0
291 292 222 0
222 292 223 0
223 294 224 0
292 294 223 0
224 296 226 0
294 296 224 0
225 226 227 0
226 297 227 0
226 296 297 0
227 297 228 0
228 297 299 0
228 299 298 0
300 305 229 0
229 305 232 0
301 229 230 0
301 300 229 0
236 302 234 0
302 230 234 0
302 301 230 0
236 308 302 0
303 309 237 0
237 312 303 0
240 238 231 0
240 231 314 0
231 306 314 0
231 233 306 0
233 232 305 0
233 305 306 0
235 236 234 0
243 310 241 0
241 310 235 0
310 308 235 0
308 236 235 0
310 243 309 0
243 237 309 0
243 244 237 0
312 237 317 0
317 237 244 0
246 245 239 0
319 246 239 0
319 239 238 0
315 319 238 0
240 315 238 0
315 240 314 0
242 243 241 0
243 242 247 0
249 243 247 0
244 243 249 0
317 244 321 0
321 244 249 0
252 250 246 0
246 250 245 0
246 319 324 0
246 324 252 0
248 249 247 0
254 322 253 0
253 322 248 0
322 321 248 0
321 249 248 0
254 327 322 0
256 255 251 0
329 256 251 0
329 251 250 0
325 329 250 0
252 325 250 0
325 252 324 0
257 258 254 0
257 254 253 0
327 254 331 0
331 254 258 0
260 259 256 0
256 259 255 0
256 329 333 0
256 333 260 0
261 262 258 0
261 258 257 0
331 258 335 0
335 258 262 0
334 337 260 0
337 259 260 0
337 263 259 0
334 260 333 0
264 266 262 0
264 262 261 0
335 262 339 0
339 262 266 0
337 267 263 0
342 267 337 0
265 266 264 0
270 340 269 0
269 340 265 0
340 339 265 0
339 266 265 0
270 344 340 0
273 271 268 0
346 273 268 0
267 346 268 0
342 346 267 0
275 277 270 0
275 270 269 0
344 270 349 0
349 270 277 0
273 272 271 0
347 280 278 0
347 278 272 0
346 347 272 0
273 346 272 0
351 280 347 0
281 283 274 0
284 276 274 0
284 274 283 0
284 357 276 0
276 357 275 0
357 350 275 0
350 277 275 0
277 350 349 0
287 285 279 0
359 287 279 0
359 279 278 0
352 359 278 0
280 352 278 0
352 280 351 0
365 355 282 0
365 282 289 0
281 282 283 0
282 356 283 0
282 355 356 0
283 356 284 0
284 356 358 0
284 358 357 0
287 286 285 0
360 293 291 0
360 291 286 0
359 360 286 0
287 359 286 0
362 295 293 0
362 293 360 0
369 295 362 0
373 364 288 0
373 288 298 0
288 366 290 0
364 366 288 0
289 290 365 0
365 290 366 0
293 292 291 0
292 293 294 0
294 293 295 0
369 370 295 0
370 294 295 0
370 296 294 0
296 372 297 0
370 372 296 0
297 374 299 0
372 374 297 0
298 299 373 0
373 299 374 0
375 378 304 0
304 380 375 0
307 305 300 0
307 300 382 0
300 376 382 0
300 301 376 0
377 301 302 0
377 376 301 0
311 379 308 0
379 302 308 0
379 377 302 0
379 311 378 0
378 311 304 0
311 309 304 0
309 303 304 0
313 381 312 0
312 381 303 0
381 380 303 0
380 304 303 0
313 386 381 0
316 314 306 0
387 316 306 0
387 306 305 0
383 387 305 0
307 383 305 0
383 307 382 0
310 311 308 0
311 310 309 0
317 318 313 0
317 313 312 0
386 313 390 0
390 313 318 0
320 319 315 0
391 320 315 0
391 315 314 0
388 391 314 0
316 388 314 0
388 316 387 0
321 323 318 0
321 318 317 0
390 318 394 0
394 318 323 0
326 324 320 0
320 324 319 0
320 391 397 0
320 397 326 0
322 323 321 0
328 395 327 0
327 395 322 0
395 394 322 0
394 323 322 0
328 400 395 0
330 329 325 0
402 330 325 0
402 325 324 0
398 402 324 0
326 398 324 0
398 326 397 0
331 332 328 0
331 328 327 0
400 328 405 0
405 328 332 0
403 407 330 0
407 329 330 0
407 333 329 0
403 330 402 0
335 336 332 0
335 332 331 0
405 332 409 0
409 332 336 0
338 337 334 0
411 338 334 0
333 411 334 0
407 411 333 0
339 341 336 0
339 336 335 0
409 336 413 0
413 336 341 0
343 342 338 0
338 342 337 0
338 411 416 0
338 416 343 0
340 341 339 0
345 414 344 0
344 414 340 0
414 413 340 0
413 341 340 0
345 418 414 0
348 346 343 0
343 346 342 0
343 416 421 0
343 421 348 0
426 419 345 0
344 426 345 0
349 426 344 0
345 419 418 0
348 347 346 0
422 353 351 0
422 351 347 0
421 422 347 0
348 421 347 0
424 354 353 0
424 353 422 0
429 354 424 0
432 427 350 0
432 350 357 0
349 350 426 0
426 350 427 0
361 359 352 0
351 353 352 0
353 361 352 0
353 363 361 0
354 430 435 0
363 354 435 0
353 354 363 0
430 354 429 0
365 367 355 0
368 356 355 0
368 355 367 0
356 368 443 0
433 356 443 0
358 356 433 0
357 358 432 0
432 358 433 0
361 360 359 0
360 361 362 0
362 361 363 0
436 371 369 0
436 369 362 0
435 436 362 0
363 435 362 0
446 371 436 0
449 438 364 0
449 364 373 0
364 440 366 0
438 440 364 0
365 366 367 0
366 442 367 0
366 440 442 0
367 442 368 0
368 442 444 0
368 444 443 0
371 370 369 0
446 447 371 0
447 370 371 0
447 372 370 0
372 450 374 0
447 450 372 0
373 374 449 0
449 374 450 0
452 453 375 0
375 453 378 0
375 380 452 0
452 380 455 0
384 382 376 0
377 385 376 0
376 385 384 0
385 377 459 0
377 454 459 0
377 379 454 0
379 378 453 0
379 453 454 0
457 455 380 0
457 380 381 0
381 386 457 0
457 386 462 0
389 387 383 0
464 389 383 0
464 383 382 0
458 464 382 0
384 458 382 0
458 384 385 0
458 385 460 0
460 385 459 0
390 462 386 0
390 467 462 0
392 391 388 0
387 389 388 0
389 392 388 0
389 393 392 0
389 464 469 0
389 469 393 0
394 396 468 0
467 394 468 0
390 394 467 0
396 472 468 0
399 397 392 0
392 397 391 0
393 470 474 0
399 393 474 0
392 393 399 0
470 393 469 0
395 396 394 0
401 473 400 0
400 473 395 0
473 472 395 0
472 396 395 0
401 477 473 0
404 402 398 0
479 404 398 0
479 398 397 0
475 479 397 0
399 475 397 0
475 399 474 0
405 406 401 0
405 401 400 0
477 401 483 0
483 401 406 0
408 407 403 0
484 408 403 0
484 403 402 0
480 484 402 0
404 480 402 0
480 404 479 0
409 410 406 0
409 406 405 0
483 406 487 0
487 406 410 0
412 411 408 0
408 411 407 0
408 484 488 0
408 488 412 0
413 415 410 0
413 410 409 0
487 410 490 0
490 410 415 0
417 416 412 0
412 416 411 0
412 488 493 0
412 493 417 0
414 415 413 0
420 491 418 0
418 491 414 0
491 490 414 0
490 415 414 0
420 496 491 0
423 421 417 0
417 421 416 0
417 493 494 0
425 417 494 0
423 417 425 0
499 425 494 0
426 428 419 0
428 502 419 0
419 502 418 0
502 497 418 0
497 420 418 0
420 497 496 0
423 422 421 0
422 423 424 0
424 423 425 0
500 431 429 0
500 429 424 0
499 500 424 0
425 499 424 0
505 431 500 0
432 434 427 0
434 511 427 0
427 511 426 0
511 503 426 0
503 428 426 0
428 503 502 0
437 435 430 0
514 437 430 0
514 430 429 0
506 514 429 0
431 506 429 0
506 431 505 0
517 508 439 0
510 441 439 0
510 439 508 0
520 441 510 0
443 445 433 0
445 524 433 0
433 524 432 0
524 512 432 0
512 434 432 0
434 512 511 0
437 436 435 0
515 448 446 0
515 446 436 0
514 515 436 0
437 514 436 0
518 451 448 0
518 448 515 0
451 518 517 0
451 517 439 0
449 451 439 0
438 449 439 0
438 439 440 0
440 439 441 0
520 521 441 0
521 440 441 0
521 442 440 0
442 523 444 0
521 523 442 0
443 444 445 0
444 525 445 0
444 523 525 0
445 525 524 0
448 447 446 0
447 448 450 0
450 448 451 0
450 451 449 0
456 453 452 0
455 456 452 0
461 459 454 0
528 461 454 0
528 454 453 0
527 528 453 0
456 527 453 0
530 527 463 0
463 527 457 0
527 456 457 0
456 455 457 0
462 463 457 0
465 464 458 0
460 466 458 0
458 466 465 0
533 466 460 0
533 460 459 0
529 533 459 0
461 529 459 0
529 461 528 0
532 530 463 0
463 462 532 0
462 536 532 0
462 467 536 0
471 469 465 0
465 469 464 0
466 534 538 0
471 466 538 0
465 466 471 0
534 466 533 0
537 536 467 0
537 467 468 0
468 472 537 0
537 472 541 0
476 474 470 0
542 476 470 0
542 470 469 0
539 542 469 0
471 539 469 0
539 471 538 0
472 473 478 0
544 472 478 0
541 472 544 0
477 478 473 0
481 479 475 0
474 476 475 0
476 481 475 0
476 482 481 0
476 542 546 0
476 546 482 0
545 544 478 0
478 477 545 0
477 549 545 0
477 483 549 0
485 484 480 0
479 481 480 0
481 485 480 0
481 486 485 0
482 547 550 0
486 482 550 0
481 482 486 0
547 482 546 0
487 549 483 0
487 553 549 0
489 488 485 0
485 488 484 0
486 551 555 0
489 486 555 0
485 486 489 0
551 486 550 0
490 492 554 0
553 490 554 0
487 490 553 0
492 558 554 0
495 493 489 0
489 493 488 0
489 555 560 0
489 560 495 0
491 492 490 0
498 559 496 0
496 559 491 0
559 558 491 0
558 492 491 0
498 564 559 0
495 494 493 0
561 501 499 0
561 499 494 0
560 561 494 0
495 560 494 0
566 501 561 0
502 504 497 0
504 570 497 0
497 570 496 0
570 565 496 0
565 498 496 0
498 565 564 0
501 500 499 0
567 507 505 0
567 505 500 0
566 567 500 0
501 566 500 0
569 509 507 0
569 507 567 0
572 509 569 0
511 513 503 0
513 575 503 0
503 575 502 0
575 571 502 0
571 504 502 0
504 571 570 0
516 514 506 0
505 507 506 0
507 516 506 0
507 519 516 0
517 519 508 0
519 509 508 0
519 507 509 0
572 573 509 0
573 508 509 0
573 510 508 0
574 522 520 0
510 574 520 0
573 574 510 0
577 522 574 0
524 526 512 0
526 581 512 0
512 581 511 0
581 576 511 0
576 513 511 0
513 576 575 0
516 515 514 0
515 516 518 0
518 516 519 0
518 519 517 0
522 521 520 0
577 578 522 0
578 521 522 0
578 523 521 0
523 580 525 0
578 580 523 0
524 525 526 0
525 582 526 0
525 580 582 0
526 582 581 0
531 528 527 0
530 531 527 0
535 533 529 0
585 535 529 0
585 529 528 0
583 585 528 0
531 583 528 0
583 531 530 0
532 583 530 0
584 583 532 0
532 536 584 0
584 536 588 0
540 538 534 0
591 540 534 0
591 534 533 0
586 591 533 0
535 586 533 0
586 535 585 0
590 588 536 0
590 536 537 0
537 541 590 0
590 541 594 0
543 542 539 0
596 543 539 0
596 539 538 0
592 596 538 0
540 592 538 0
592 540 591 0
544 594 541 0
544 598 594 0
548 546 543 0
543 546 542 0
543 596 600 0
543 600 548 0
599 598 544 0
599 544 545 0
545 549 599 0
599 549 603 0
552 550 547 0
604 552 547 0
604 547 546 0
601 604 546 0
548 601 546 0
601 548 600 0
553 603 549 0
553 606 603 0
556 555 551 0
550 552 551 0
552 556 551 0
552 557 556 0
552 604 608 0
552 608 557 0
607 606 553 0
607 553 554 0
554 558 607 0
607 558 610 0
562 560 556 0
556 560 555 0
563 556 557 0
562 556 563 0
557 608 612 0
557 612 563 0
611 610 558 0
611 558 559 0
559 564 611 0
611 564 614 0
562 561 560 0
561 562 566 0
562 568 566 0
562 563 568 0
563 612 616 0
563 616 568 0
619 615 565 0
619 565 570 0
564 565 614 0
614 565 615 0
568 567 566 0
616 617 568 0
617 567 568 0
617 569 567 0
572 569 617 0
572 617 621 0
628 620 571 0
628 571 575 0
570 571 619 0
619 571 620 0
621 622 572 0
572 622 573 0
573 624 574 0
622 624 573 0
626 579 577 0
574 626 577 0
624 626 574 0
630 579 626 0
633 629 576 0
633 576 581 0
575 576 628 0
628 576 629 0
579 578 577 0
630 631 579 0
631 578 579 0
631 580 578 0
580 634 582 0
631 634 580 0
581 582 633 0
633 582 634 0
587 585 583 0
584 589 583 0
583 589 587 0
588 589 584 0
593 591 586 0
637 593 586 0
637 586 585 0
635 637 585 0
587 635 585 0
635 587 589 0
635 589 636 0
640 636 595 0
595 636 590 0
636 589 590 0
589 588 590 0
594 595 590 0
597 596 592 0
643 597 592 0
643 592 591 0
638 643 591 0
593 638 591 0
638 593 637 0
642 640 595 0
595 594 642 0
594 646 642 0
594 598 646 0
602 600 597 0
597 600 596 0
597 643 649 0
597 649 602 0
648 646 598 0
648 598 599 0
599 603 648 0
648 603 652 0
605 604 601 0
654 605 601 0
654 601 600 0
650 654 600 0
602 650 600 0
650 602 649 0
606 652 603 0
606 657 652 0
609 608 605 0
605 608 604 0
605 654 659 0
605 659 609 0
658 657 606 0
658 606 607 0
607 610 658 0
658 610 662 0
613 612 609 0
609 612 608 0
609 659 664 0
609 664 613 0
663 662 610 0
663 610 611 0
611 614 663 0
663 614 667 0
618 616 613 0
613 616 612 0
613 664 669 0
613 669 618 0
676 668 615 0
676 615 619 0
614 615 667 0
667 615 668 0
618 617 616 0
670 623 621 0
670 621 617 0
669 670 617 0
618 669 617 0
672 625 623 0
672 623 670 0
674 627 625 0
674 625 672 0
678 627 674 0
681 677 620 0
681 620 628 0
619 620 676 0
676 620 677 0
623 622 621 0
622 623 624 0
624 623 625 0
624 625 626 0
626 625 627 0
679 632 630 0
679 630 626 0
678 679 626 0
627 678 626 0
684 632 679 0
685 682 629 0
685 629 633 0
628 629 681 0
681 629 682 0
632 631 630 0
684 686 632 0
686 631 632 0
686 634 631 0
633 634 685 0
685 634 686 0
639 637 635 0
636 641 635 0
635 641 639 0
640 641 636 0
644 643 638 0
637 639 638 0
639 644 638 0
639 645 644 0
641 688 689 0
645 641 689 0
639 641 645 0
691 688 647 0
647 688 642 0
688 641 642 0
641 640 642 0
646 647 642 0
651 649 644 0
644 649 643 0
645 690 694 0
651 645 694 0
644 645 651 0
690 645 689 0
693 691 647 0
697 693 653 0
653 693 648 0
693 647 648 0
647 646 648 0
652 653 648 0
655 654 650 0
649 651 650 0
651 655 650 0
651 656 655 0
651 694 700 0
651 700 656 0
699 697 653 0
653 652 699 0
652 704 699 0
652 657 704 0
660 659 655 0
655 659 654 0
661 655 656 0
660 655 661 0
656 700 707 0
656 707 661 0
706 704 657 0
706 657 658 0
658 662 706 0
706 662 710 0
665 664 660 0
660 664 659 0
666 660 661 0
665 660 666 0
661 707 713 0
661 713 666 0
712 710 662 0
712 662 663 0
663 667 712 0
712 667 717 0
671 669 665 0
665 669 664 0
673 665 666 0
671 665 673 0
666 713 714 0
675 666 714 0
673 666 675 0
720 675 714 0
726 718 668 0
726 668 676 0
667 668 717 0
717 668 718 0
671 670 669 0
670 671 672 0
672 671 673 0
672 673 674 0
674 673 675 0
721 680 678 0
721 678 674 0
720 721 674 0
675 720 674 0
729 680 721 0
730 724 683 0
677 681 683 0
724 677 683 0
727 677 724 0
676 677 726 0
726 677 727 0
680 679 678 0
731 687 684 0
731 684 679 0
729 731 679 0
680 729 679 0
687 731 730 0
687 730 683 0
685 687 683 0
682 685 683 0
682 683 681 0
687 686 684 0
686 687 685 0
692 689 688 0
691 692 688 0
695 694 690 0
689 692 690 0
692 695 690 0
692 696 695 0
693 698 691 0
698 692 691 0
698 696 692 0
697 698 693 0
701 700 695 0
695 700 694 0
702 695 696 0
701 695 702 0
703 696 698 0
702 696 703 0
699 705 697 0
705 698 697 0
705 703 698 0
704 705 699 0
708 707 701 0
701 707 700 0
709 701 702 0
708 701 709 0
703 733 735 0
709 703 735 0
702 703 709 0
733 703 705 0
733 705 734 0
737 734 711 0
711 734 706 0
734 705 706 0
705 704 706 0
710 711 706 0
715 713 708 0
708 713 707 0
716 708 709 0
715 708 716 0
709 735 740 0
709 740 716 0
739 737 711 0
745 739 719 0
719 739 712 0
739 711 712 0
711 710 712 0
717 719 712 0
715 714 713 0
714 715 720 0
715 722 720 0
715 716 722 0
716 740 741 0
723 716 741 0
722 716 723 0
743 725 723 0
743 723 741 0
746 728 725 0
746 725 743 0
728 746 745 0
728 745 719 0
726 728 719 0
718 726 719 0
718 719 717 0
722 721 720 0
721 722 729 0
722 732 729 0
722 723 732 0
730 732 724 0
732 725 724 0
732 723 725 0
724 725 727 0
727 725 728 0
727 728 726 0
732 731 729 0
731 732 730 0
736 735 733 0
734 738 733 0
733 738 736 0
737 738 734 0
742 740 736 0
736 740 735 0
744 736 738 0
742 736 744 0
739 747 737 0
747 738 737 0
747 744 738 0
745 747 739 0
742 741 740 0
741 742 743 0
