#!ascii version of /Users/gilles/git/nukkies/notebooks/data/KCAT_STh_R.asc
504 1004
-7.666840  -58.374527  -30.195477  0
-7.166840  -58.874527  -30.195477  0
-7.666840  -58.874527  -30.195477  0
-7.166840  -59.374527  -30.195477  0
-7.666840  -59.374527  -30.195477  0
-8.166840  -59.374527  -30.195477  0
-6.666840  -59.874527  -30.195477  0
-7.166840  -59.874527  -30.195477  0
-7.666840  -59.874527  -30.195477  0
-8.166840  -59.874527  -30.195477  0
-6.666840  -60.374527  -30.195477  0
-7.166840  -60.374527  -30.195477  0
-7.666840  -60.374527  -30.195477  0
-8.166840  -60.374527  -30.195477  0
-7.166840  -60.874527  -30.195477  0
-7.666840  -60.874527  -30.195477  0
-7.666840  -61.374527  -30.195477  0
-8.166840  -61.374527  -30.195477  0
-7.666840  -58.124527  -29.945477  0
-8.166840  -57.874527  -29.695477  0
-7.416840  -58.374527  -29.945477  0
-7.166840  -58.624527  -29.945477  0
-7.916840  -58.374527  -29.945477  0
-8.166840  -58.374527  -29.695477  0
-8.666840  -58.374527  -29.695477  0
-6.916840  -58.874527  -29.945477  0
-7.916840  -58.874527  -29.945477  0
-8.166840  -59.124527  -29.945477  0
-8.166840  -58.874527  -29.695477  0
-8.666840  -58.874527  -29.695477  0
-9.166840  -58.874527  -29.695477  0
-6.916840  -59.374527  -29.945477  0
-6.666840  -59.624527  -29.945477  0
-8.416840  -59.374527  -29.945477  0
-8.666840  -59.374527  -29.695477  0
-9.166840  -59.374527  -29.695477  0
-6.416840  -59.874527  -29.945477  0
-6.666840  -59.874527  -29.695477  0
-8.416840  -59.874527  -29.945477  0
-8.666840  -59.874527  -29.695477  0
-9.166840  -59.874527  -29.695477  0
-6.416840  -60.374527  -29.945477  0
-6.666840  -60.624527  -29.945477  0
-6.666840  -60.374527  -29.695477  0
-8.416840  -60.374527  -29.945477  0
-8.166840  -60.624527  -29.945477  0
-8.666840  -60.374527  -29.695477  0
-9.166840  -60.374527  -29.695477  0
-6.916840  -60.874527  -29.945477  0
-7.166840  -61.124527  -29.945477  0
-7.916840  -60.874527  -29.945477  0
-8.166840  -61.124527  -29.945477  0
-8.166840  -60.874527  -29.695477  0
-8.666840  -60.874527  -29.695477  0
-9.166840  -60.874527  -29.695477  0
-7.416840  -61.374527  -29.945477  0
-7.666840  -61.624527  -29.945477  0
-8.416840  -61.374527  -29.945477  0
-8.166840  -61.624527  -29.945477  0
-8.666840  -61.374527  -29.695477  0
-9.166840  -61.374527  -29.695477  0
-8.166840  -61.874527  -29.695477  0
-8.666840  -61.874527  -29.695477  0
-9.166840  -61.874527  -29.695477  0
-8.166840  -57.624527  -29.445477  0
-9.166840  -57.374527  -29.195477  0
-7.916840  -57.874527  -29.445477  0
-7.666840  -58.124527  -29.445477  0
-8.416840  -57.874527  -29.445477  0
-8.666840  -58.124527  -29.445477  0
-8.666840  -57.874527  -29.195477  0
-9.166840  -57.874527  -29.195477  0
-9.666840  -57.874527  -29.195477  0
-7.416840  -58.374527  -29.445477  0
-7.166840  -58.624527  -29.445477  0
-8.916840  -58.374527  -29.445477  0
-9.166840  -58.624527  -29.445477  0
-9.166840  -58.374527  -29.195477  0
-9.666840  -58.374527  -29.195477  0
-6.916840  -58.874527  -29.445477  0
-9.416840  -58.874527  -29.445477  0
-9.666840  -58.874527  -29.195477  0
-10.166840  -58.874527  -29.195477  0
-6.916840  -59.374527  -29.445477  0
-9.416840  -59.374527  -29.445477  0
-9.666840  -59.374527  -29.195477  0
-10.166840  -59.374527  -29.195477  0
-6.916840  -59.874527  -29.445477  0
-9.416840  -59.874527  -29.445477  0
-9.666840  -59.874527  -29.195477  0
-10.166840  -59.874527  -29.195477  0
-6.916840  -60.374527  -29.445477  0
-9.416840  -60.374527  -29.445477  0
-9.666840  -60.374527  -29.195477  0
-10.166840  -60.374527  -29.195477  0
-6.916840  -60.874527  -29.445477  0
-7.166840  -61.124527  -29.445477  0
-9.416840  -60.874527  -29.445477  0
-9.666840  -60.874527  -29.195477  0
-10.166840  -60.874527  -29.195477  0
-7.416840  -61.374527  -29.445477  0
-7.666840  -61.624527  -29.445477  0
-9.416840  -61.374527  -29.445477  0
-9.666840  -61.374527  -29.195477  0
-10.166840  -61.374527  -29.195477  0
-7.916840  -61.874527  -29.445477  0
-8.166840  -62.124527  -29.445477  0
-8.666840  -62.124527  -29.445477  0
-9.416840  -61.874527  -29.445477  0
-9.166840  -62.124527  -29.445477  0
-8.666840  -62.374527  -29.195477  0
-9.166840  -62.374527  -29.195477  0
-9.166840  -57.124527  -28.945477  0
-8.166840  -57.624527  -28.945477  0
-8.916840  -57.374527  -28.945477  0
-8.666840  -57.624527  -28.945477  0
-9.416840  -57.374527  -28.945477  0
-9.666840  -57.624527  -28.945477  0
-7.916840  -57.874527  -28.945477  0
-7.666840  -58.124527  -28.945477  0
-8.166840  -57.874527  -28.695477  0
-9.916840  -57.874527  -28.945477  0
-10.166840  -57.874527  -28.695477  0
-7.416840  -58.374527  -28.945477  0
-7.166840  -58.624527  -28.945477  0
-7.666840  -58.374527  -28.695477  0
-9.916840  -58.374527  -28.945477  0
-10.166840  -58.624527  -28.945477  0
-10.166840  -58.374527  -28.695477  0
-6.916840  -58.874527  -28.945477  0
-7.166840  -58.874527  -28.695477  0
-10.416840  -58.874527  -28.945477  0
-6.916840  -59.374527  -28.945477  0
-7.166840  -59.374527  -28.695477  0
-10.416883  -59.374477  -28.945412  0
-10.666883  -59.374477  -28.695412  0
-6.916840  -59.874527  -28.945477  0
-7.166840  -59.874527  -28.695477  0
-10.416840  -59.874527  -28.945477  0
-10.666840  -59.874527  -28.695477  0
-11.166840  -59.874527  -28.695477  0
-6.916840  -60.374527  -28.945477  0
-7.166840  -60.374527  -28.695477  0
-10.416840  -60.374527  -28.945477  0
-10.666840  -60.374527  -28.695477  0
-11.166840  -60.374527  -28.695477  0
-6.916840  -60.874527  -28.945477  0
-7.166840  -61.124527  -28.945477  0
-7.166840  -60.874527  -28.695477  0
-10.416840  -60.874527  -28.945477  0
-10.666840  -60.874527  -28.695477  0
-11.166840  -60.874527  -28.695477  0
-7.416840  -61.374527  -28.945477  0
-7.666840  -61.624527  -28.945477  0
-9.666840  -61.624527  -28.945477  0
-10.416840  -61.374527  -28.945477  0
-10.166840  -61.624527  -28.945477  0
-10.666840  -61.374527  -28.695477  0
-7.916840  -61.874527  -28.945477  0
-8.166840  -62.124527  -28.945477  0
-9.416840  -61.874527  -28.945477  0
-9.666840  -61.874527  -28.695477  0
-10.166840  -61.874527  -28.695477  0
-8.416840  -62.374527  -28.945477  0
-8.666840  -62.624527  -28.945477  0
-9.416840  -62.374527  -28.945477  0
-9.166840  -62.624527  -28.945477  0
-9.666840  -62.374527  -28.695477  0
-9.166840  -57.124527  -28.445477  0
-8.916840  -57.374527  -28.445477  0
-8.666840  -57.624527  -28.445477  0
-9.416840  -57.374527  -28.445477  0
-9.666840  -57.624527  -28.445477  0
-10.166840  -57.624527  -28.445477  0
-10.166840  -57.374527  -28.195477  0
-8.416840  -57.874527  -28.445477  0
-8.166840  -58.124527  -28.445477  0
-10.416840  -57.874527  -28.445477  0
-7.916840  -58.374527  -28.445477  0
-7.666840  -58.624527  -28.445477  0
-8.166840  -58.374527  -28.195477  0
-10.416883  -58.374477  -28.445406  0
-10.666124  -58.376442  -28.197102  0
-7.416840  -58.874527  -28.445477  0
-7.666840  -58.874527  -28.195477  0
-10.417020  -58.874325  -28.445190  0
-10.665564  -59.126343  -28.447205  0
-10.665529  -58.876961  -28.197756  0
-7.416840  -59.374527  -28.445477  0
-7.666840  -59.374527  -28.195477  0
-10.916351  -59.374771  -28.445692  0
-11.166840  -59.624527  -28.445477  0
-11.166220  -59.375210  -28.196281  0
-7.416840  -59.874527  -28.445477  0
-7.666840  -59.874527  -28.195477  0
-11.417230  -59.874836  -28.445980  0
-7.416840  -60.374527  -28.445477  0
-7.666840  -60.374527  -28.195477  0
-11.417239  -60.374527  -28.445541  0
-11.666840  -60.374527  -28.195477  0
-7.416840  -60.874527  -28.445477  0
-7.666840  -60.874527  -28.195477  0
-11.416840  -60.874527  -28.445477  0
-11.166840  -61.124527  -28.445477  0
-11.666840  -60.874527  -28.195477  0
-7.416840  -61.374527  -28.445477  0
-7.666840  -61.624527  -28.445477  0
-7.666840  -61.374527  -28.195477  0
-10.916840  -61.374527  -28.445477  0
-10.666840  -61.624527  -28.445477  0
-11.166840  -61.374527  -28.195477  0
-7.916840  -61.874527  -28.445477  0
-8.166840  -62.124527  -28.445477  0
-8.166840  -61.874527  -28.195477  0
-10.416840  -61.874527  -28.445477  0
-10.166840  -62.124527  -28.445477  0
-10.666840  -61.874527  -28.195477  0
-8.416840  -62.374527  -28.445477  0
-8.666840  -62.624527  -28.445477  0
-9.166840  -62.624527  -28.445477  0
-9.916840  -62.374527  -28.445477  0
-9.666840  -62.624527  -28.445477  0
-10.166840  -62.374527  -28.195477  0
-10.666840  -62.374527  -28.195477  0
-9.666840  -62.874527  -28.195477  0
-10.166840  -62.874527  -28.195477  0
-9.166840  -57.124527  -27.945477  0
-10.166840  -57.124527  -27.945477  0
-8.916840  -57.374527  -27.945477  0
-8.666840  -57.624527  -27.945477  0
-9.416840  -57.374527  -27.945477  0
-9.166840  -57.374527  -27.695477  0
-9.916840  -57.374527  -27.945477  0
-9.666840  -57.624527  -27.945477  0
-10.416840  -57.374527  -27.945477  0
-8.416840  -57.874527  -27.945477  0
-8.666840  -57.874527  -27.695477  0
-10.416840  -57.874527  -27.945477  0
-10.667221  -58.124596  -27.945280  0
-10.667408  -57.874889  -27.695391  0
-8.416840  -58.374527  -27.945477  0
-8.166840  -58.624527  -27.945477  0
-8.666840  -58.374527  -27.695477  0
-10.913384  -58.382023  -27.953613  0
-7.916840  -58.874527  -27.945477  0
-8.166840  -58.874527  -27.695477  0
-10.898695  -58.897232  -27.967876  0
-11.160676  -59.133781  -27.952887  0
-11.120031  -58.930176  -27.727257  0
-11.596324  -58.968613  -27.699169  0
-7.916840  -59.374527  -27.945477  0
-8.166840  -59.374527  -27.695477  0
-11.413815  -59.384583  -27.951508  0
-11.668654  -59.400928  -27.693308  0
-7.916840  -59.874527  -27.945477  0
-8.166840  -59.874527  -27.695477  0
-11.419299  -59.877533  -27.946445  0
-11.667904  -60.124508  -27.945652  0
-11.671871  -59.877178  -27.696440  0
-12.187071  -59.880135  -27.694525  0
-7.916840  -60.374527  -27.945477  0
-8.166840  -60.374527  -27.695477  0
-11.917370  -60.374527  -27.945568  0
-12.171391  -60.374454  -27.696241  0
-7.916840  -60.874527  -27.945477  0
-8.166840  -60.874527  -27.695477  0
-11.916840  -60.874527  -27.945477  0
-11.666840  -61.124527  -27.945477  0
-12.166840  -60.874527  -27.695477  0
-7.916840  -61.374527  -27.945477  0
-8.166840  -61.624527  -27.945477  0
-8.166840  -61.374527  -27.695477  0
-11.416840  -61.374527  -27.945477  0
-11.166840  -61.624527  -27.945477  0
-11.666840  -61.374527  -27.695477  0
-8.416840  -61.874527  -27.945477  0
-8.666840  -61.874527  -27.695477  0
-10.916840  -61.874527  -27.945477  0
-8.416840  -62.374527  -27.945477  0
-8.666840  -62.624527  -27.945477  0
-8.666840  -62.374527  -27.695477  0
-9.166840  -62.624527  -27.945477  0
-9.166840  -62.374527  -27.695477  0
-10.916840  -62.374527  -27.945477  0
-10.666840  -62.624527  -27.945477  0
-9.416840  -62.874527  -27.945477  0
-9.666840  -63.124527  -27.945477  0
-9.666840  -62.874527  -27.695477  0
-10.416840  -62.874527  -27.945477  0
-10.166840  -63.124527  -27.945477  0
-10.166840  -62.874527  -27.695477  0
-10.166840  -57.124527  -27.445477  0
-9.166840  -57.624527  -27.445477  0
-9.916840  -57.374527  -27.445477  0
-9.666840  -57.624527  -27.445477  0
-10.416840  -57.374527  -27.445477  0
-10.166840  -57.374527  -27.195477  0
-10.667056  -57.624714  -27.445484  0
-8.916840  -57.874527  -27.445477  0
-9.166840  -57.874527  -27.195477  0
-10.913911  -57.880676  -27.453136  0
-8.916840  -58.374527  -27.445477  0
-8.666840  -58.624527  -27.445477  0
-9.166840  -58.374527  -27.195477  0
-10.873764  -58.413483  -27.503336  0
-11.041921  -58.727180  -27.554426  0
-11.471312  -58.780388  -27.522373  0
-8.416840  -58.874527  -27.445477  0
-8.666840  -58.874527  -27.195477  0
-11.722446  -59.031116  -27.418276  0
-11.788252  -59.074718  -27.151310  0
-8.416840  -59.374527  -27.445477  0
-8.666840  -59.374527  -27.195477  0
-11.890699  -59.446644  -27.402771  0
-12.200083  -59.647900  -27.427402  0
-8.416840  -59.874527  -27.445477  0
-8.666840  -59.874527  -27.195477  0
-12.458008  -59.886227  -27.433882  0
-8.416840  -60.374527  -27.445477  0
-8.666840  -60.374527  -27.195477  0
-12.438134  -60.377941  -27.443722  0
-12.674650  -60.375931  -27.195446  0
-8.416840  -60.874527  -27.445477  0
-8.666840  -60.874527  -27.195477  0
-12.418982  -60.874493  -27.445835  0
-12.166840  -61.124527  -27.445477  0
-12.667558  -60.874523  -27.195597  0
-8.416840  -61.374527  -27.445477  0
-8.666840  -61.624527  -27.445477  0
-8.666840  -61.374527  -27.195477  0
-9.166840  -61.374527  -27.195477  0
-11.166840  -61.624527  -27.445477  0
-11.916840  -61.374527  -27.445477  0
-11.666840  -61.624527  -27.445477  0
-12.166840  -61.374527  -27.195477  0
-8.916840  -61.874527  -27.445477  0
-9.166840  -62.124527  -27.445477  0
-9.166840  -61.874527  -27.195477  0
-10.916840  -61.874527  -27.445477  0
-11.166840  -61.874527  -27.195477  0
-11.666840  -61.874527  -27.195477  0
-9.416840  -62.374527  -27.445477  0
-9.666840  -62.624527  -27.445477  0
-9.666840  -62.374527  -27.195477  0
-10.166840  -62.624527  -27.445477  0
-10.916840  -62.374527  -27.445477  0
-10.666840  -62.624527  -27.445477  0
-11.166840  -62.374527  -27.195477  0
-9.666840  -57.624527  -26.945477  0
-10.166840  -57.624527  -26.945477  0
-10.666468  -57.625374  -26.947060  0
-9.416840  -57.874527  -26.945477  0
-9.666840  -57.874527  -26.695477  0
-10.166528  -57.873734  -26.695601  0
-10.900961  -57.881355  -26.970131  0
-10.664872  -57.872894  -26.697931  0
-9.416840  -58.374527  -26.945477  0
-9.166840  -58.624527  -26.945477  0
-10.838573  -58.412563  -27.047554  0
-10.979686  -58.729591  -27.131990  0
-11.328926  -58.812721  -27.151388  0
-11.752613  -58.853519  -27.034430  0
-8.916840  -58.874527  -26.945477  0
-9.166840  -58.874527  -26.695477  0
-11.854091  -59.102623  -27.011673  0
-11.726879  -59.266636  -26.924852  0
-8.916840  -59.374527  -26.945477  0
-9.166840  -59.374527  -26.695477  0
-11.783588  -59.468357  -26.862885  0
-12.195014  -59.663860  -26.899178  0
-8.916840  -59.874527  -26.945477  0
-9.166362  -59.874580  -26.694536  0
-12.463248  -59.891407  -26.925276  0
-12.191282  -59.913380  -26.641195  0
-12.695542  -60.136009  -26.933762  0
-8.916840  -60.374527  -26.945477  0
-9.165692  -60.374657  -26.693218  0
-12.886402  -60.376076  -26.971138  0
-12.634933  -60.382248  -26.722197  0
-8.916840  -60.874527  -26.945477  0
-9.165788  -61.124641  -26.943407  0
-9.165903  -60.874638  -26.693632  0
-12.899055  -60.874245  -26.958599  0
-12.652296  -61.124359  -26.948345  0
-9.415967  -61.374622  -26.943762  0
-9.664147  -61.374237  -26.690084  0
-10.161992  -61.373878  -26.680426  0
-12.416840  -61.374527  -26.945477  0
-12.166840  -61.624527  -26.945477  0
-9.416651  -61.874550  -26.945107  0
-9.666840  -62.124527  -26.945477  0
-9.666625  -61.874550  -26.695051  0
-10.165991  -61.874802  -26.691994  0
-11.916840  -61.874527  -26.945477  0
-11.666840  -62.124527  -26.945477  0
-9.916840  -62.374527  -26.945477  0
-10.166840  -62.624527  -26.945477  0
-10.166840  -62.374527  -26.695477  0
-10.666840  -62.624527  -26.945477  0
-10.666840  -62.374527  -26.695477  0
-11.416840  -62.374527  -26.945477  0
-11.166840  -62.624527  -26.945477  0
-11.166840  -62.374527  -26.695477  0
-9.665939  -58.122253  -26.445843  0
-10.161057  -58.117222  -26.449591  0
-10.652165  -58.116409  -26.460531  0
-9.416840  -58.374527  -26.445477  0
-9.665934  -58.372234  -26.195845  0
-10.157615  -58.364445  -26.199562  0
-10.852262  -58.371464  -26.514566  0
-10.631027  -58.353489  -26.221359  0
-10.970824  -58.668098  -26.636209  0
-11.274235  -58.758980  -26.733131  0
-11.612782  -58.837776  -26.671862  0
-9.416840  -58.874527  -26.445477  0
-9.665229  -58.873737  -26.194817  0
-10.159329  -58.867962  -26.195942  0
-10.628649  -58.851955  -26.205280  0
-11.023604  -58.843143  -26.282108  0
-11.332911  -58.910595  -26.432829  0
-11.811060  -59.046535  -26.587297  0
-11.697024  -59.199451  -26.528864  0
-11.653948  -58.978657  -26.433764  0
-9.416840  -59.374527  -26.445477  0
-9.663278  -59.373169  -26.189888  0
-10.153234  -59.368355  -26.185297  0
-11.672532  -59.409546  -26.403206  0
-11.384461  -59.349228  -26.274149  0
-9.415804  -59.874641  -26.443438  0
-9.660785  -59.870266  -26.182508  0
-10.152027  -59.859226  -26.166496  0
-11.836524  -59.917953  -26.384201  0
-12.148114  -60.150146  -26.434061  0
-9.412695  -60.372383  -26.436741  0
-9.650342  -60.356956  -26.159544  0
-12.279095  -60.406166  -26.529722  0
-12.580183  -60.640732  -26.526712  0
-9.411297  -60.872169  -26.433952  0
-9.661500  -61.123661  -26.434736  0
-9.653924  -60.866764  -26.166092  0
-10.156563  -61.119843  -26.419888  0
-10.144020  -60.853848  -26.150841  0
-10.643460  -60.859802  -26.154303  0
-12.812058  -60.856770  -26.488209  0
-12.570000  -61.073147  -26.498810  0
-10.409116  -61.369484  -26.410624  0
-10.670659  -61.372753  -26.150932  0
-12.431929  -61.387802  -26.439354  0
-12.188459  -61.643063  -26.447824  0
-12.180966  -61.365955  -26.216990  0
-10.415613  -61.874332  -26.426495  0
-10.666893  -62.125042  -26.440344  0
-10.671999  -61.875538  -26.178665  0
-11.170104  -62.125374  -26.441828  0
-11.172430  -61.871693  -26.161413  0
-11.925948  -61.882874  -26.438766  0
-11.665103  -62.121082  -26.432110  0
-11.706515  -61.887024  -26.198462  0
-10.584179  -59.081787  -25.940899  0
-11.017492  -59.052185  -25.959366  0
-10.378120  -59.360199  -25.926092  0
-10.599775  -59.359447  -25.672350  0
-11.232853  -59.313778  -25.932972  0
-11.036629  -59.336311  -25.680143  0
-11.454266  -59.597485  -25.919828  0
-10.384728  -59.860710  -25.911530  0
-10.136542  -60.087727  -25.896650  0
-10.610036  -59.848999  -25.669447  0
-11.040592  -59.907867  -25.759035  0
-11.785999  -59.900162  -25.921434  0
-11.531393  -59.890804  -25.704498  0
-12.048725  -60.167240  -25.981779  0
-9.889896  -60.332054  -25.891115  0
-10.131901  -60.578106  -25.897142  0
-10.120824  -60.323418  -25.656387  0
-10.605141  -60.606033  -25.970350  0
-10.589782  -60.352730  -25.731506  0
-11.566279  -60.444557  -25.831432  0
-12.257118  -60.429928  -26.071220  0
-12.040454  -60.415009  -25.896151  0
-12.472396  -60.634224  -26.119993  0
-10.884069  -60.890976  -25.970596  0
-11.136646  -60.922371  -25.767927  0
-11.729744  -60.890667  -25.873409  0
-12.167146  -61.077492  -26.084177  0
-12.721777  -60.837341  -26.065161  0
-12.487855  -61.022835  -26.153177  0
-12.426951  -60.831791  -26.010885  0
-10.929805  -61.392883  -25.912178  0
-11.191718  -61.632637  -25.898766  0
-11.215940  -61.404911  -25.645201  0
-11.949274  -61.335060  -26.006683  0
-11.725079  -61.636791  -25.918209  0
-11.728579  -61.381817  -25.717264  0
-11.017632  -60.240246  -25.687214  0
-10.797866  -60.423832  -25.631069  0
-11.294079  -60.503773  -25.684372  0
-11.075884  -60.689476  -25.629583  0
-11.017097  -60.487545  -25.501268  0
-12.124218  -60.641460  -25.910118  0
-11.981913  -60.846691  -25.894657  0
-12.319098  -60.828278  -25.921793  0
-12.173443  -61.041904  -25.841242  0
-12.189178  -60.832275  -25.800941  0
18 20 0 0
0 22 18 0
21 25 1 0
21 1 20 0
1 0 20 0
1 2 0 0
22 0 26 0
26 0 2 0
1 25 3 0
3 25 31 0
1 4 2 0
1 3 4 0
26 2 27 0
2 5 27 0
2 4 5 0
5 33 27 0
32 36 6 0
32 6 31 0
6 3 31 0
6 7 3 0
3 8 4 0
3 7 8 0
4 9 5 0
4 8 9 0
33 5 38 0
38 5 9 0
6 36 10 0
10 36 41 0
6 11 7 0
6 10 11 0
7 12 8 0
7 11 12 0
8 13 9 0
8 12 13 0
38 9 44 0
44 9 13 0
41 42 10 0
48 14 42 0
14 10 42 0
14 11 10 0
11 15 12 0
11 14 15 0
45 13 50 0
13 15 50 0
13 12 15 0
13 45 44 0
48 49 14 0
55 16 49 0
16 14 49 0
16 15 14 0
50 15 51 0
15 17 51 0
15 16 17 0
17 57 51 0
55 56 16 0
16 56 17 0
17 56 58 0
17 58 57 0
64 66 19 0
19 68 64 0
67 73 18 0
18 73 20 0
23 19 22 0
19 67 22 0
67 18 22 0
19 66 67 0
68 19 69 0
19 24 69 0
19 23 24 0
24 75 69 0
74 79 21 0
21 79 25 0
21 20 73 0
21 73 74 0
26 28 23 0
26 23 22 0
23 29 24 0
23 28 29 0
75 24 76 0
24 30 76 0
24 29 30 0
30 80 76 0
79 31 25 0
83 31 79 0
27 28 26 0
28 27 33 0
34 28 33 0
29 28 34 0
29 35 30 0
29 34 35 0
80 30 84 0
84 30 35 0
37 36 32 0
87 37 32 0
31 87 32 0
83 87 31 0
38 39 34 0
38 34 33 0
34 40 35 0
34 39 40 0
84 35 88 0
88 35 40 0
43 41 37 0
37 41 36 0
37 87 91 0
37 91 43 0
44 46 39 0
44 39 38 0
39 47 40 0
39 46 47 0
88 40 92 0
92 40 47 0
43 42 41 0
48 42 43 0
91 48 43 0
95 48 91 0
50 52 45 0
46 44 45 0
52 46 45 0
53 46 52 0
46 54 47 0
46 53 54 0
92 47 97 0
97 47 54 0
95 96 48 0
48 96 49 0
55 49 96 0
55 96 100 0
51 52 50 0
52 51 57 0
59 52 57 0
53 52 59 0
53 60 54 0
53 59 60 0
97 54 102 0
102 54 60 0
100 101 55 0
55 101 56 0
101 105 61 0
58 101 61 0
56 101 58 0
59 57 58 0
61 59 58 0
62 59 61 0
59 63 60 0
59 62 63 0
102 60 108 0
108 60 63 0
105 106 61 0
61 106 62 0
62 106 107 0
62 107 63 0
63 107 109 0
63 109 108 0
112 114 65 0
65 116 112 0
113 118 64 0
64 118 66 0
70 115 68 0
115 64 68 0
115 113 64 0
115 70 114 0
70 65 114 0
70 71 65 0
116 65 117 0
65 72 117 0
65 71 72 0
72 121 117 0
119 123 67 0
67 123 73 0
67 66 118 0
67 118 119 0
69 70 68 0
70 69 75 0
77 70 75 0
71 70 77 0
71 78 72 0
71 77 78 0
121 72 126 0
126 72 78 0
124 129 74 0
74 129 79 0
74 73 123 0
74 123 124 0
76 77 75 0
77 76 80 0
81 77 80 0
78 77 81 0
126 78 127 0
78 82 127 0
78 81 82 0
82 131 127 0
129 83 79 0
132 83 129 0
84 85 81 0
84 81 80 0
81 86 82 0
81 85 86 0
131 82 134 0
134 82 86 0
132 87 83 0
136 87 132 0
88 89 85 0
88 85 84 0
85 90 86 0
85 89 90 0
134 86 138 0
138 86 90 0
136 91 87 0
141 91 136 0
92 93 89 0
92 89 88 0
89 94 90 0
89 93 94 0
138 90 143 0
143 90 94 0
141 95 91 0
146 95 141 0
97 98 93 0
97 93 92 0
93 99 94 0
93 98 99 0
143 94 149 0
149 94 99 0
146 147 95 0
95 147 96 0
100 96 147 0
100 147 152 0
102 103 98 0
102 98 97 0
98 104 99 0
98 103 104 0
149 99 155 0
155 99 104 0
152 153 100 0
100 153 101 0
105 101 153 0
105 153 158 0
160 154 103 0
102 160 103 0
108 160 102 0
103 154 104 0
104 154 156 0
104 156 155 0
158 159 105 0
105 159 106 0
159 163 110 0
107 159 110 0
106 159 107 0
111 109 107 0
111 107 110 0
111 165 109 0
165 108 109 0
165 160 108 0
163 164 110 0
110 164 111 0
111 164 166 0
111 166 165 0
168 169 112 0
112 169 114 0
112 116 168 0
168 116 171 0
120 118 113 0
120 113 175 0
113 170 175 0
113 115 170 0
115 114 169 0
115 169 170 0
172 171 116 0
172 116 117 0
122 173 121 0
173 117 121 0
173 172 117 0
122 177 173 0
125 123 119 0
178 125 119 0
178 119 118 0
176 178 118 0
120 176 118 0
176 120 175 0
126 128 122 0
126 122 121 0
177 122 181 0
181 122 128 0
130 129 124 0
183 130 124 0
183 124 123 0
179 183 123 0
125 179 123 0
179 125 178 0
127 128 126 0
127 131 128 0
131 181 128 0
131 185 181 0
133 132 130 0
130 132 129 0
130 183 188 0
130 188 133 0
134 135 186 0
185 134 186 0
131 134 185 0
135 190 186 0
137 136 133 0
133 136 132 0
133 188 193 0
133 193 137 0
138 139 135 0
138 135 134 0
190 135 191 0
135 140 191 0
135 139 140 0
140 195 191 0
142 141 137 0
137 141 136 0
137 193 196 0
137 196 142 0
143 144 139 0
143 139 138 0
139 145 140 0
139 144 145 0
195 140 198 0
198 140 145 0
148 146 142 0
142 146 141 0
142 196 200 0
142 200 148 0
149 150 144 0
149 144 143 0
144 151 145 0
144 150 151 0
198 145 202 0
202 145 151 0
148 147 146 0
152 147 148 0
200 152 148 0
205 152 200 0
155 157 150 0
155 150 149 0
203 151 208 0
151 157 208 0
151 150 157 0
151 203 202 0
205 206 152 0
152 206 153 0
158 153 206 0
158 206 211 0
160 161 154 0
162 156 154 0
162 154 161 0
162 214 156 0
156 214 155 0
214 209 155 0
209 157 155 0
157 209 208 0
211 212 158 0
158 212 159 0
163 159 212 0
163 212 217 0
165 167 161 0
165 161 160 0
215 162 220 0
162 167 220 0
162 161 167 0
162 215 214 0
217 218 163 0
163 218 164 0
164 219 166 0
218 219 164 0
165 166 167 0
166 221 167 0
166 219 221 0
167 221 220 0
226 228 168 0
168 228 169 0
168 171 226 0
226 171 230 0
227 232 174 0
174 234 227 0
229 235 170 0
170 235 175 0
170 169 228 0
170 228 229 0
233 230 171 0
233 171 172 0
173 174 232 0
233 173 232 0
172 173 233 0
173 177 174 0
177 234 174 0
177 237 234 0
180 178 176 0
240 180 176 0
175 240 176 0
235 240 175 0
181 182 238 0
237 181 238 0
177 181 237 0
182 243 238 0
184 183 179 0
244 184 179 0
244 179 178 0
241 244 178 0
180 241 178 0
241 180 240 0
185 187 182 0
185 182 181 0
243 182 246 0
246 182 187 0
189 188 184 0
184 188 183 0
184 244 250 0
184 250 189 0
186 187 185 0
192 247 190 0
190 247 186 0
247 246 186 0
246 187 186 0
192 252 247 0
194 193 189 0
189 193 188 0
189 250 254 0
189 254 194 0
191 192 190 0
191 195 192 0
195 252 192 0
195 256 252 0
197 196 194 0
194 196 193 0
194 254 260 0
194 260 197 0
198 199 257 0
256 198 257 0
195 198 256 0
199 262 257 0
201 200 197 0
197 200 196 0
197 260 264 0
197 264 201 0
202 204 199 0
202 199 198 0
262 199 266 0
266 199 204 0
207 205 201 0
201 205 200 0
201 264 269 0
201 269 207 0
208 210 203 0
210 272 203 0
203 272 202 0
272 267 202 0
267 204 202 0
204 267 266 0
207 206 205 0
270 213 211 0
270 211 206 0
269 270 206 0
207 269 206 0
275 213 270 0
214 216 209 0
216 277 209 0
209 277 208 0
277 273 208 0
273 210 208 0
210 273 272 0
213 212 211 0
217 212 213 0
275 217 213 0
278 217 275 0
220 222 215 0
216 214 215 0
222 216 215 0
223 216 222 0
277 216 283 0
283 216 223 0
278 279 217 0
217 279 218 0
218 281 219 0
279 281 218 0
281 285 224 0
221 281 224 0
219 281 221 0
222 220 221 0
224 222 221 0
225 222 224 0
284 223 288 0
223 225 288 0
223 222 225 0
223 284 283 0
285 286 224 0
224 286 225 0
225 286 289 0
225 289 288 0
231 228 226 0
230 231 226 0
291 293 227 0
227 293 232 0
227 234 291 0
291 234 295 0
236 235 229 0
298 236 229 0
298 229 228 0
292 298 228 0
231 292 228 0
292 231 230 0
233 292 230 0
294 292 233 0
233 232 293 0
233 293 294 0
237 239 297 0
295 237 297 0
234 237 295 0
239 300 297 0
242 240 236 0
236 240 235 0
236 298 301 0
236 301 242 0
238 239 237 0
238 243 239 0
243 300 239 0
243 304 300 0
245 244 241 0
307 245 241 0
307 241 240 0
302 307 240 0
242 302 240 0
302 242 301 0
246 248 305 0
304 246 305 0
243 246 304 0
249 306 248 0
248 306 305 0
249 309 306 0
251 250 245 0
245 250 244 0
245 307 311 0
245 311 251 0
247 248 246 0
248 247 252 0
253 248 252 0
249 248 253 0
309 249 313 0
313 249 253 0
255 254 251 0
251 254 250 0
251 311 315 0
251 315 255 0
256 258 253 0
256 253 252 0
313 253 314 0
253 259 314 0
253 258 259 0
259 317 314 0
261 260 255 0
255 260 254 0
255 315 318 0
255 318 261 0
257 258 256 0
258 257 262 0
263 258 262 0
259 258 263 0
317 259 320 0
320 259 263 0
265 264 261 0
261 264 260 0
261 318 322 0
261 322 265 0
266 268 263 0
266 263 262 0
320 263 324 0
324 263 268 0
271 269 265 0
265 269 264 0
265 322 327 0
265 327 271 0
272 274 267 0
274 332 267 0
267 332 266 0
332 325 266 0
325 268 266 0
268 325 324 0
271 270 269 0
328 276 275 0
328 275 270 0
327 328 270 0
271 327 270 0
335 276 328 0
338 331 273 0
338 273 277 0
272 273 274 0
273 333 274 0
273 331 333 0
274 333 332 0
280 278 276 0
276 278 275 0
276 335 336 0
282 276 336 0
280 276 282 0
341 282 336 0
283 338 277 0
283 345 338 0
280 279 278 0
279 280 281 0
281 280 282 0
342 287 285 0
342 285 281 0
341 342 281 0
282 341 281 0
344 290 287 0
344 287 342 0
284 288 290 0
344 284 290 0
346 284 344 0
283 284 345 0
345 284 346 0
287 286 285 0
286 287 289 0
289 287 290 0
289 290 288 0
296 293 291 0
295 296 291 0
299 298 292 0
299 292 351 0
292 348 351 0
292 294 348 0
294 293 296 0
349 294 296 0
348 294 349 0
349 296 295 0
297 349 295 0
350 349 297 0
297 300 350 0
350 300 354 0
303 301 299 0
299 301 298 0
299 351 356 0
299 356 303 0
304 354 300 0
304 358 354 0
308 307 302 0
362 308 302 0
362 302 301 0
357 362 301 0
303 357 301 0
357 303 356 0
359 358 304 0
359 304 305 0
360 305 306 0
360 359 305 0
310 361 309 0
361 306 309 0
361 360 306 0
310 364 361 0
312 311 308 0
308 311 307 0
308 362 366 0
308 366 312 0
368 365 310 0
309 368 310 0
313 368 309 0
310 365 364 0
316 315 312 0
312 315 311 0
312 366 370 0
312 370 316 0
369 368 313 0
369 313 314 0
314 317 369 0
369 317 372 0
319 318 316 0
316 318 315 0
316 370 375 0
316 375 319 0
320 321 374 0
372 320 374 0
317 320 372 0
321 377 374 0
323 322 319 0
319 322 318 0
319 375 379 0
319 379 323 0
324 326 321 0
324 321 320 0
377 321 382 0
382 321 326 0
329 327 323 0
323 327 322 0
323 379 380 0
330 323 380 0
329 323 330 0
384 330 380 0
332 334 325 0
334 387 325 0
325 387 324 0
387 383 324 0
383 326 324 0
326 383 382 0
329 328 327 0
328 329 335 0
329 337 335 0
329 330 337 0
330 384 389 0
330 389 337 0
338 339 331 0
340 333 331 0
340 331 339 0
340 393 333 0
333 393 332 0
393 388 332 0
388 334 332 0
334 388 387 0
337 336 335 0
390 343 341 0
390 341 336 0
389 390 336 0
337 389 336 0
395 343 390 0
345 347 339 0
345 339 338 0
394 340 400 0
340 347 400 0
340 339 347 0
340 394 393 0
343 342 341 0
395 396 343 0
396 342 343 0
396 344 342 0
344 398 346 0
396 398 344 0
345 346 347 0
346 401 347 0
346 398 401 0
347 401 400 0
352 351 348 0
349 353 348 0
348 353 352 0
350 355 349 0
349 355 353 0
354 355 350 0
403 406 352 0
406 351 352 0
406 356 351 0
403 352 353 0
403 353 404 0
404 353 355 0
404 355 405 0
355 354 405 0
354 409 405 0
354 358 409 0
363 362 357 0
414 363 357 0
356 414 357 0
406 414 356 0
411 409 358 0
411 358 359 0
412 359 360 0
412 411 359 0
413 360 361 0
413 412 360 0
361 364 413 0
413 364 420 0
367 366 363 0
363 366 362 0
363 414 423 0
363 423 367 0
426 421 365 0
426 365 368 0
364 365 420 0
420 365 421 0
371 370 367 0
367 370 366 0
367 423 428 0
367 428 371 0
368 369 373 0
431 368 373 0
426 368 431 0
372 373 369 0
376 375 371 0
371 375 370 0
371 428 433 0
371 433 376 0
432 431 373 0
435 432 378 0
378 432 374 0
432 373 374 0
373 372 374 0
377 378 374 0
381 379 376 0
376 379 375 0
376 433 437 0
376 437 381 0
436 435 378 0
378 377 436 0
377 443 436 0
377 382 443 0
381 380 379 0
438 385 384 0
438 384 380 0
437 438 380 0
381 437 380 0
440 386 385 0
440 385 438 0
445 386 440 0
447 444 383 0
447 383 387 0
382 383 443 0
443 383 444 0
391 389 385 0
385 389 384 0
392 385 386 0
391 385 392 0
386 445 450 0
386 450 392 0
455 448 388 0
455 388 393 0
387 388 447 0
447 388 448 0
391 390 389 0
390 391 395 0
391 397 395 0
391 392 397 0
392 450 451 0
399 392 451 0
397 392 399 0
453 402 399 0
453 399 451 0
394 400 402 0
453 394 402 0
456 394 453 0
393 394 455 0
455 394 456 0
397 396 395 0
396 397 398 0
398 397 399 0
398 399 401 0
401 399 402 0
401 402 400 0
407 406 403 0
404 408 403 0
403 408 407 0
405 410 404 0
404 410 408 0
409 410 405 0
415 414 407 0
407 414 406 0
416 407 408 0
415 407 416 0
417 408 410 0
416 408 417 0
411 418 409 0
418 410 409 0
418 417 410 0
412 419 411 0
411 419 418 0
413 422 412 0
412 422 419 0
420 422 413 0
424 423 415 0
415 423 414 0
425 415 416 0
424 415 425 0
417 458 460 0
425 417 460 0
416 417 425 0
458 417 418 0
458 418 459 0
427 462 459 0
418 427 459 0
419 427 418 0
426 427 421 0
427 422 421 0
427 419 422 0
421 422 420 0
429 428 424 0
424 428 423 0
430 424 425 0
429 424 430 0
425 460 465 0
425 465 430 0
464 462 427 0
427 426 464 0
426 469 464 0
426 431 469 0
434 433 429 0
429 433 428 0
430 466 472 0
434 430 472 0
429 430 434 0
466 430 465 0
471 469 431 0
471 431 432 0
432 435 471 0
471 435 478 0
439 437 434 0
434 437 433 0
434 472 473 0
441 434 473 0
439 434 441 0
475 442 441 0
475 441 473 0
481 442 475 0
480 478 435 0
480 435 436 0
436 443 480 0
480 443 485 0
439 438 437 0
438 439 440 0
440 439 441 0
440 441 445 0
441 446 445 0
441 442 446 0
442 481 488 0
442 488 446 0
491 484 449 0
444 447 449 0
484 444 449 0
486 444 484 0
443 444 485 0
485 444 486 0
452 450 446 0
446 450 445 0
446 488 489 0
454 446 489 0
452 446 454 0
492 457 454 0
492 454 489 0
457 492 491 0
457 491 449 0
455 457 449 0
448 455 449 0
448 449 447 0
452 451 450 0
451 452 453 0
453 452 454 0
453 454 456 0
456 454 457 0
456 457 455 0
461 460 458 0
459 463 458 0
458 463 461 0
462 463 459 0
467 465 461 0
461 465 460 0
468 461 463 0
467 461 468 0
464 470 462 0
470 463 462 0
470 468 463 0
469 470 464 0
474 472 466 0
465 467 466 0
467 474 466 0
467 476 474 0
468 494 495 0
476 468 495 0
467 468 476 0
477 496 494 0
468 477 494 0
470 477 468 0
471 479 469 0
479 470 469 0
479 477 470 0
478 479 471 0
474 473 472 0
473 474 475 0
475 474 476 0
497 482 481 0
497 481 475 0
495 497 475 0
476 495 475 0
482 497 496 0
477 482 496 0
483 482 477 0
479 499 500 0
483 479 500 0
477 479 483 0
501 499 487 0
487 499 480 0
499 479 480 0
479 478 480 0
485 487 480 0
490 488 482 0
482 488 481 0
493 482 483 0
490 482 493 0
502 484 491 0
483 502 491 0
493 483 491 0
502 483 500 0
487 486 501 0
486 502 501 0
486 484 502 0
486 487 485 0
490 489 488 0
489 490 492 0
492 490 493 0
492 493 491 0
498 495 494 0
496 498 494 0
498 497 495 0
497 498 496 0
503 500 499 0
501 503 499 0
503 502 500 0
502 503 501 0
