#!ascii version of /Users/gilles/git/nukkies/notebooks/data/KCAT_STh_L.asc
528 1052
4.833160  -58.874527  -30.195477  0
4.333160  -58.874527  -30.195477  0
5.833160  -59.374527  -30.195477  0
5.333160  -59.374527  -30.195477  0
4.833160  -59.374527  -30.195477  0
4.333160  -59.374527  -30.195477  0
5.833160  -59.874527  -30.195477  0
5.333160  -59.874527  -30.195477  0
4.833160  -59.874527  -30.195477  0
4.333160  -59.874527  -30.195477  0
5.833160  -60.374527  -30.195477  0
5.333160  -60.374527  -30.195477  0
4.833160  -60.374527  -30.195477  0
5.833160  -60.874527  -30.195477  0
5.333160  -60.874527  -30.195477  0
4.833160  -60.874527  -30.195477  0
4.333160  -60.874527  -30.195477  0
5.333160  -61.374527  -30.195477  0
4.833160  -61.374527  -30.195477  0
5.833160  -57.874527  -29.695477  0
5.333160  -57.874527  -29.695477  0
6.333160  -58.374527  -29.695477  0
5.833160  -58.374527  -29.695477  0
5.333160  -58.374527  -29.695477  0
4.833160  -58.624527  -29.945477  0
4.833160  -58.374527  -29.695477  0
4.333160  -58.624527  -29.945477  0
6.333160  -58.874527  -29.695477  0
5.833160  -59.124527  -29.945477  0
5.833160  -58.874527  -29.695477  0
5.083160  -58.874527  -29.945477  0
5.333160  -59.124527  -29.945477  0
5.333160  -58.874527  -29.695477  0
4.083160  -58.874527  -29.945477  0
6.833160  -59.374527  -29.695477  0
6.083160  -59.374527  -29.945477  0
6.333160  -59.374527  -29.695477  0
4.083160  -59.374527  -29.945477  0
6.833160  -59.874527  -29.695477  0
6.083160  -59.874527  -29.945477  0
6.333160  -59.874527  -29.695477  0
4.083160  -59.874527  -29.945477  0
4.333160  -60.124527  -29.945477  0
6.833160  -60.374527  -29.695477  0
6.083160  -60.374527  -29.945477  0
6.333160  -60.374527  -29.695477  0
4.583160  -60.374527  -29.945477  0
4.333160  -60.624527  -29.945477  0
6.833160  -60.874527  -29.695477  0
6.083160  -60.874527  -29.945477  0
6.333160  -60.874527  -29.695477  0
5.833160  -61.124527  -29.945477  0
4.083160  -60.874527  -29.945477  0
4.333160  -61.124527  -29.945477  0
6.333160  -61.374527  -29.695477  0
5.583160  -61.374527  -29.945477  0
5.833160  -61.374527  -29.695477  0
5.333160  -61.624527  -29.945477  0
4.583160  -61.374527  -29.945477  0
4.833160  -61.624527  -29.945477  0
6.333160  -61.874527  -29.695477  0
5.833160  -61.874527  -29.695477  0
5.833160  -57.624527  -29.445477  0
5.833160  -57.374527  -29.195477  0
5.333160  -57.624527  -29.445477  0
6.833160  -57.874527  -29.195477  0
6.083160  -57.874527  -29.445477  0
6.333160  -58.124527  -29.445477  0
6.333160  -57.874527  -29.195477  0
5.083160  -57.874527  -29.445477  0
4.833160  -58.124527  -29.445477  0
6.583160  -58.374527  -29.445477  0
6.833160  -58.374527  -29.195477  0
4.583160  -58.374527  -29.445477  0
4.333160  -58.624527  -29.445477  0
7.333160  -58.874527  -29.195477  0
6.583160  -58.874527  -29.445477  0
6.833160  -59.124527  -29.445477  0
6.833160  -58.874527  -29.195477  0
4.083160  -58.874527  -29.445477  0
7.083160  -59.374527  -29.445477  0
7.333160  -59.374527  -29.195477  0
4.083160  -59.374527  -29.445477  0
7.083160  -59.874527  -29.445477  0
7.333160  -59.874527  -29.195477  0
4.083160  -59.874527  -29.445477  0
4.333160  -60.124527  -29.445477  0
4.333160  -59.874527  -29.195477  0
7.083160  -60.374527  -29.445477  0
7.333160  -60.374527  -29.195477  0
4.583160  -60.374527  -29.445477  0
4.333160  -60.624527  -29.445477  0
7.083160  -60.874527  -29.445477  0
6.833160  -61.124527  -29.445477  0
4.083160  -60.874527  -29.445477  0
4.333160  -61.124527  -29.445477  0
4.333160  -60.874527  -29.195477  0
6.583160  -61.374527  -29.445477  0
6.833160  -61.374527  -29.195477  0
5.333160  -61.624527  -29.445477  0
4.583160  -61.374527  -29.445477  0
4.833160  -61.624527  -29.445477  0
6.583160  -61.874527  -29.445477  0
6.833160  -61.874527  -29.195477  0
6.333160  -62.124527  -29.445477  0
5.583160  -61.874527  -29.445477  0
5.833160  -62.124527  -29.445477  0
6.833160  -56.874527  -28.695477  0
6.333160  -56.874527  -28.695477  0
5.833160  -57.124527  -28.945477  0
5.833160  -56.874527  -28.695477  0
6.833160  -57.624527  -28.945477  0
6.833160  -57.374527  -28.695477  0
6.083160  -57.374527  -28.945477  0
6.333160  -57.624527  -28.945477  0
6.333160  -57.374527  -28.695477  0
5.583160  -57.374527  -28.945477  0
5.333160  -57.624527  -28.945477  0
7.083160  -57.874527  -28.945477  0
7.333160  -57.874527  -28.695477  0
5.083160  -57.874527  -28.945477  0
4.833160  -58.124527  -28.945477  0
7.083160  -58.374527  -28.945477  0
7.333160  -58.624527  -28.945477  0
7.333160  -58.374527  -28.695477  0
4.583160  -58.374527  -28.945477  0
4.833160  -58.374527  -28.695477  0
4.333160  -58.624527  -28.945477  0
7.583160  -58.874527  -28.945477  0
7.833160  -58.874527  -28.695477  0
4.083160  -58.874527  -28.945477  0
4.333160  -58.874527  -28.695477  0
7.583160  -59.374527  -28.945477  0
7.833160  -59.374527  -28.695477  0
4.083160  -59.374527  -28.945477  0
4.333160  -59.624527  -28.945477  0
4.333160  -59.374527  -28.695477  0
7.583160  -59.874527  -28.945477  0
7.833160  -59.874527  -28.695477  0
4.583160  -59.874527  -28.945477  0
7.583160  -60.374527  -28.945477  0
7.833160  -60.374527  -28.695477  0
7.333160  -60.624527  -28.945477  0
4.583160  -60.374527  -28.945477  0
4.833160  -60.374527  -28.695477  0
7.833160  -60.874527  -28.695477  0
7.083160  -60.874527  -28.945477  0
7.333160  -60.874527  -28.695477  0
4.583160  -60.874527  -28.945477  0
4.833160  -60.874527  -28.695477  0
7.083160  -61.374527  -28.945477  0
7.333160  -61.374527  -28.695477  0
5.333160  -61.624527  -28.945477  0
4.583160  -61.374527  -28.945477  0
4.833160  -61.624527  -28.945477  0
4.833160  -61.374527  -28.695477  0
7.083160  -61.874527  -28.945477  0
6.833160  -62.124527  -28.945477  0
6.333160  -62.124527  -28.945477  0
5.583160  -61.874527  -28.945477  0
5.833160  -62.124527  -28.945477  0
5.833160  -61.874527  -28.695477  0
6.833160  -56.624527  -28.445477  0
6.333160  -56.624527  -28.445477  0
5.833160  -56.624527  -28.445477  0
7.833160  -56.874527  -28.195477  0
7.083160  -56.874527  -28.445477  0
7.333160  -56.874527  -28.195477  0
5.583160  -56.874527  -28.445477  0
5.833160  -56.874527  -28.195477  0
7.833160  -57.374527  -28.195477  0
7.083160  -57.374527  -28.445477  0
7.333160  -57.624527  -28.445477  0
7.333160  -57.374527  -28.195477  0
5.583160  -57.374527  -28.445477  0
5.333160  -57.624527  -28.445477  0
8.333160  -57.874527  -28.195477  0
7.583160  -57.874527  -28.445477  0
7.833160  -57.874527  -28.195477  0
5.083160  -57.874527  -28.445477  0
5.333160  -57.874527  -28.195477  0
8.833160  -58.374527  -28.195477  0
8.333160  -58.374527  -28.195477  0
7.583160  -58.374527  -28.445477  0
7.833160  -58.624527  -28.445477  0
7.833160  -58.374527  -28.195477  0
5.083160  -58.374527  -28.445477  0
4.833160  -58.624527  -28.445477  0
8.833160  -58.874527  -28.195477  0
8.083160  -58.874527  -28.445477  0
8.333160  -58.874527  -28.195477  0
4.583160  -58.874527  -28.445477  0
4.833160  -58.874527  -28.195477  0
8.833160  -59.374527  -28.195477  0
8.083160  -59.374527  -28.445477  0
8.333160  -59.374527  -28.195477  0
4.583160  -59.374527  -28.445477  0
4.833160  -59.374527  -28.195477  0
8.833160  -59.874527  -28.195477  0
8.083160  -59.874527  -28.445477  0
8.333160  -59.874527  -28.195477  0
4.583160  -59.874527  -28.445477  0
4.833160  -60.124527  -28.445477  0
4.833160  -59.874527  -28.195477  0
8.083160  -60.374527  -28.445477  0
8.333160  -60.374527  -28.195477  0
5.083160  -60.374527  -28.445477  0
8.083160  -60.874527  -28.445477  0
8.333160  -60.874527  -28.195477  0
7.833160  -61.124527  -28.445477  0
5.083160  -60.874527  -28.445477  0
5.333160  -60.874527  -28.195477  0
7.583160  -61.374527  -28.445477  0
7.833160  -61.374527  -28.195477  0
7.333160  -61.624527  -28.445477  0
5.833160  -61.624527  -28.445477  0
5.833160  -61.374527  -28.195477  0
5.083160  -61.374527  -28.445477  0
5.333160  -61.624527  -28.445477  0
5.333160  -61.374527  -28.195477  0
7.083160  -61.874527  -28.445477  0
7.333160  -61.874527  -28.195477  0
6.833160  -62.124527  -28.445477  0
6.083160  -61.874527  -28.445477  0
6.333160  -62.124527  -28.445477  0
6.333160  -61.874527  -28.195477  0
7.833160  -56.624527  -27.945477  0
7.333160  -56.624527  -27.945477  0
6.833160  -56.624527  -27.945477  0
6.333160  -56.624527  -27.945477  0
8.083160  -56.874527  -27.945477  0
8.333160  -56.874527  -27.695477  0
6.083160  -56.874527  -27.945477  0
6.333160  -56.874527  -27.695477  0
5.833160  -57.124527  -27.945477  0
8.833160  -57.374527  -27.695477  0
8.083160  -57.374527  -27.945477  0
8.333160  -57.624527  -27.945477  0
8.333160  -57.374527  -27.695477  0
5.583160  -57.374527  -27.945477  0
5.833160  -57.374527  -27.695477  0
8.583160  -57.874527  -27.945477  0
8.833160  -58.124527  -27.945477  0
8.833160  -57.874527  -27.695477  0
5.583160  -57.874527  -27.945477  0
5.833160  -57.874527  -27.695477  0
5.333160  -58.124527  -27.945477  0
9.083160  -58.374527  -27.945477  0
9.333160  -58.374527  -27.695477  0
5.833160  -58.374527  -27.695477  0
5.083160  -58.374527  -27.945477  0
5.333160  -58.374527  -27.695477  0
9.083160  -58.874527  -27.945477  0
9.333160  -58.874527  -27.695477  0
5.833160  -58.874527  -27.695477  0
5.083160  -58.874527  -27.945477  0
5.333160  -58.874527  -27.695477  0
9.083160  -59.374527  -27.945477  0
9.333160  -59.374527  -27.695477  0
5.083160  -59.374527  -27.945477  0
5.333160  -59.374527  -27.695477  0
9.083160  -59.874527  -27.945477  0
8.833160  -60.124527  -27.945477  0
5.833160  -59.874527  -27.695477  0
5.083160  -59.874527  -27.945477  0
5.333160  -59.874527  -27.695477  0
8.583160  -60.374527  -27.945477  0
8.833160  -60.374527  -27.695477  0
5.833160  -60.374527  -27.695477  0
5.083160  -60.374527  -27.945477  0
5.333160  -60.624527  -27.945477  0
5.333160  -60.374527  -27.695477  0
8.583160  -60.874527  -27.945477  0
8.333160  -61.124527  -27.945477  0
5.583160  -60.874527  -27.945477  0
5.833160  -61.124527  -27.945477  0
5.833160  -60.874527  -27.695477  0
8.083160  -61.374527  -27.945477  0
7.833160  -61.624527  -27.945477  0
6.083160  -61.374527  -27.945477  0
6.333160  -61.624527  -27.945477  0
6.333160  -61.374527  -27.695477  0
7.583160  -61.874527  -27.945477  0
7.833160  -61.874527  -27.695477  0
7.333160  -62.124527  -27.945477  0
6.583160  -61.874527  -27.945477  0
6.833160  -62.124527  -27.945477  0
6.833160  -61.874527  -27.695477  0
8.333160  -56.624527  -27.445477  0
7.833160  -56.624527  -27.445477  0
7.333160  -56.624527  -27.445477  0
6.833160  -56.624527  -27.445477  0
8.583160  -56.874527  -27.445477  0
8.833160  -57.124527  -27.445477  0
7.333160  -56.874527  -27.195477  0
6.583160  -56.874527  -27.445477  0
6.833160  -56.874527  -27.195477  0
6.333160  -57.124527  -27.445477  0
9.083160  -57.374527  -27.445477  0
6.083160  -57.374527  -27.445477  0
6.333160  -57.374527  -27.195477  0
9.083160  -57.874527  -27.445477  0
9.333160  -58.124527  -27.445477  0
9.333160  -57.874527  -27.195477  0
6.083160  -57.874527  -27.445477  0
9.583160  -58.374527  -27.445477  0
9.833160  -58.374527  -27.195477  0
6.083160  -58.374527  -27.445477  0
9.583160  -58.874527  -27.445477  0
9.833160  -58.874527  -27.195477  0
6.083160  -58.874527  -27.445477  0
5.833160  -59.124527  -27.445477  0
9.583160  -59.374527  -27.445477  0
9.833160  -59.374527  -27.195477  0
9.333160  -59.624527  -27.445477  0
5.583160  -59.374527  -27.445477  0
5.833160  -59.624527  -27.445477  0
5.833160  -59.374527  -27.195477  0
9.083160  -59.874527  -27.445477  0
9.333160  -59.874527  -27.195477  0
6.083160  -59.874527  -27.445477  0
9.083160  -60.374527  -27.445477  0
8.833160  -60.624527  -27.445477  0
6.083160  -60.374527  -27.445477  0
6.333160  -60.374527  -27.195477  0
8.583160  -60.874527  -27.445477  0
8.833160  -60.874527  -27.195477  0
8.333160  -61.124527  -27.445477  0
6.083160  -60.874527  -27.445477  0
6.333160  -61.124527  -27.445477  0
6.333160  -60.874527  -27.195477  0
8.083160  -61.374527  -27.445477  0
8.333160  -61.374527  -27.195477  0
6.583160  -61.374527  -27.445477  0
6.833160  -61.624527  -27.445477  0
8.083160  -61.874527  -27.445477  0
7.833160  -62.124527  -27.445477  0
7.833160  -61.874527  -27.195477  0
7.083160  -61.874527  -27.445477  0
7.333160  -62.124527  -27.445477  0
7.333160  -61.874527  -27.195477  0
8.333160  -56.624527  -26.945477  0
7.833160  -56.624527  -26.945477  0
8.583160  -56.874527  -26.945477  0
8.833160  -57.124527  -26.945477  0
8.333160  -56.874527  -26.695477  0
7.583160  -56.874527  -26.945477  0
7.833160  -56.874527  -26.695477  0
7.333160  -57.124527  -26.945477  0
6.833160  -57.124527  -26.945477  0
9.083160  -57.374527  -26.945477  0
9.333160  -57.624527  -26.945477  0
8.833160  -57.374527  -26.695477  0
8.333160  -57.374527  -26.695477  0
7.833160  -57.374527  -26.695477  0
7.333160  -57.374527  -26.695477  0
6.583160  -57.374527  -26.945477  0
6.833160  -57.374527  -26.695477  0
6.333160  -57.624527  -26.945477  0
9.583160  -57.874527  -26.945477  0
9.833160  -58.124527  -26.945477  0
7.333160  -57.874527  -26.695477  0
6.833160  -57.874527  -26.695477  0
6.083160  -57.874527  -26.945477  0
6.333160  -57.874527  -26.695477  0
10.083160  -58.374527  -26.945477  0
6.833160  -58.374527  -26.695477  0
6.083160  -58.374527  -26.945477  0
6.333160  -58.374527  -26.695477  0
10.083160  -58.874527  -26.945477  0
6.833160  -58.874527  -26.695477  0
6.083160  -58.874527  -26.945477  0
6.333160  -58.874527  -26.695477  0
10.083160  -59.374527  -26.945477  0
9.833160  -59.624527  -26.945477  0
6.083160  -59.374527  -26.945477  0
6.333160  -59.374527  -26.695477  0
9.583160  -59.874527  -26.945477  0
9.333160  -60.124527  -26.945477  0
6.833160  -59.874527  -26.695477  0
6.083160  -59.874527  -26.945477  0
6.333160  -60.124527  -26.945477  0
6.333160  -59.874527  -26.695477  0
9.083160  -60.374527  -26.945477  0
9.333160  -60.374527  -26.695477  0
6.583160  -60.374527  -26.945477  0
6.833160  -60.374527  -26.695477  0
9.083160  -60.874527  -26.945477  0
8.833160  -61.124527  -26.945477  0
7.333160  -60.874527  -26.695477  0
6.583160  -60.874527  -26.945477  0
6.833160  -60.874527  -26.695477  0
8.583160  -61.374527  -26.945477  0
8.833160  -61.374527  -26.695477  0
8.333160  -61.624527  -26.945477  0
7.833160  -61.624527  -26.945477  0
7.833160  -61.374527  -26.695477  0
7.333160  -61.624527  -26.945477  0
7.333160  -61.374527  -26.695477  0
6.583160  -61.374527  -26.945477  0
6.833160  -61.624527  -26.945477  0
6.833160  -61.374527  -26.695477  0
9.333160  -57.624527  -26.445477  0
8.833160  -57.624527  -26.445477  0
8.333160  -57.624527  -26.445477  0
7.833160  -57.624527  -26.445477  0
9.583160  -57.874527  -26.445477  0
9.833160  -58.124527  -26.445477  0
9.333160  -57.874527  -26.195477  0
8.833160  -57.874527  -26.195477  0
8.333160  -57.874527  -26.195477  0
7.583160  -57.874527  -26.445477  0
7.833160  -57.874527  -26.195477  0
7.333160  -58.124527  -26.445477  0
10.083160  -58.374527  -26.445477  0
7.833160  -58.374527  -26.195477  0
7.083160  -58.374527  -26.445477  0
7.333160  -58.374527  -26.195477  0
10.083160  -58.874527  -26.445477  0
10.333160  -58.874527  -26.195477  0
7.083160  -58.874527  -26.445477  0
7.333160  -58.874527  -26.195477  0
6.833160  -59.124527  -26.445477  0
10.083160  -59.374527  -26.445477  0
9.833160  -59.624527  -26.445477  0
7.333160  -59.374527  -26.195477  0
6.583160  -59.374527  -26.445477  0
6.833160  -59.624527  -26.445477  0
6.833160  -59.374527  -26.195477  0
9.583160  -59.874527  -26.445477  0
9.833160  -59.874527  -26.195477  0
7.083160  -59.874527  -26.445477  0
7.333160  -59.874527  -26.195477  0
9.583160  -60.374527  -26.445477  0
9.333160  -60.624527  -26.445477  0
7.833160  -60.374527  -26.195477  0
7.083160  -60.374527  -26.445477  0
7.333160  -60.624527  -26.445477  0
7.333160  -60.374527  -26.195477  0
9.083160  -60.874527  -26.445477  0
7.583160  -60.874527  -26.445477  0
7.833160  -61.124527  -26.445477  0
7.833160  -60.874527  -26.195477  0
9.083160  -61.374527  -26.445477  0
8.833160  -61.624527  -26.445477  0
8.833160  -61.374527  -26.195477  0
8.083160  -61.374527  -26.445477  0
8.333160  -61.624527  -26.445477  0
8.333160  -61.374527  -26.195477  0
9.833160  -58.124527  -25.945477  0
9.333160  -58.124527  -25.945477  0
8.833160  -58.124527  -25.945477  0
8.333160  -58.124527  -25.945477  0
10.083160  -58.374527  -25.945477  0
10.333160  -58.624527  -25.945477  0
8.083160  -58.374527  -25.945477  0
7.833160  -58.624527  -25.945477  0
10.583160  -58.874527  -25.945477  0
10.333160  -59.124527  -25.945477  0
7.583160  -58.874527  -25.945477  0
7.833160  -58.874527  -25.695477  0
10.083160  -59.374527  -25.945477  0
10.333160  -59.374527  -25.695477  0
7.583160  -59.374527  -25.945477  0
7.833160  -59.374527  -25.695477  0
10.083160  -59.874527  -25.945477  0
9.833160  -60.124527  -25.945477  0
7.583160  -59.874527  -25.945477  0
7.833160  -60.124527  -25.945477  0
7.833160  -59.874527  -25.695477  0
9.583160  -60.374527  -25.945477  0
9.333160  -60.624527  -25.945477  0
8.083160  -60.374527  -25.945477  0
8.333160  -60.374527  -25.695477  0
9.083160  -60.874527  -25.945477  0
8.833160  -61.124527  -25.945477  0
8.833160  -60.874527  -25.695477  0
8.083160  -60.874527  -25.945477  0
8.333160  -61.124527  -25.945477  0
8.333160  -60.874527  -25.695477  0
9.833160  -58.124527  -25.445477  0
9.333160  -58.124527  -25.445477  0
8.833160  -58.124527  -25.445477  0
8.333160  -58.124527  -25.445477  0
10.083160  -58.374527  -25.445477  0
10.333160  -58.624527  -25.445477  0
9.833160  -58.374527  -25.195477  0
9.333160  -58.374527  -25.195477  0
8.833160  -58.374527  -25.195477  0
8.083160  -58.374527  -25.445477  0
8.333160  -58.374527  -25.195477  0
10.583160  -58.874527  -25.445477  0
10.333160  -58.874527  -25.195477  0
9.833160  -58.874527  -25.195477  0
9.333160  -58.874527  -25.195477  0
8.833160  -58.874527  -25.195477  0
8.083160  -58.874527  -25.445477  0
8.333160  -58.874527  -25.195477  0
10.583160  -59.374527  -25.445477  0
10.333160  -59.624527  -25.445477  0
8.833160  -59.374527  -25.195477  0
8.083160  -59.374527  -25.445477  0
8.333160  -59.374527  -25.195477  0
10.083160  -59.874527  -25.445477  0
9.833160  -60.124527  -25.445477  0
9.833160  -59.874527  -25.195477  0
9.333160  -59.874527  -25.195477  0
8.833160  -59.874527  -25.195477  0
8.083160  -59.874527  -25.445477  0
8.333160  -60.124527  -25.445477  0
8.333160  -59.874527  -25.195477  0
9.583160  -60.374527  -25.445477  0
9.333160  -60.624527  -25.445477  0
9.333160  -60.374527  -25.195477  0
8.583160  -60.374527  -25.445477  0
8.833160  -60.624527  -25.445477  0
8.833160  -60.374527  -25.195477  0
10.333160  -59.124527  -24.945477  0
9.833160  -59.124527  -24.945477  0
9.333160  -59.124527  -24.945477  0
10.583160  -59.374527  -24.945477  0
10.333160  -59.624527  -24.945477  0
10.333160  -59.374527  -24.695477  0
9.833160  -59.624527  -24.945477  0
9.833160  -59.374527  -24.695477  0
9.083160  -59.374527  -24.945477  0
9.333160  -59.624527  -24.945477  0
9.333160  -59.374527  -24.695477  0
24 30 0 0
1 26 0 0
0 26 24 0
1 33 26 0
28 35 2 0
3 31 2 0
2 31 28 0
31 3 30 0
3 0 30 0
3 4 0 0
0 5 1 0
0 4 5 0
33 1 37 0
37 1 5 0
2 35 6 0
6 35 39 0
2 7 3 0
2 6 7 0
3 8 4 0
3 7 8 0
4 9 5 0
4 8 9 0
37 5 41 0
41 5 9 0
6 39 10 0
10 39 44 0
6 11 7 0
6 10 11 0
7 12 8 0
7 11 12 0
42 9 46 0
9 12 46 0
9 8 12 0
9 42 41 0
10 44 13 0
13 44 49 0
10 14 11 0
10 13 14 0
11 15 12 0
11 14 15 0
46 12 47 0
12 16 47 0
12 15 16 0
16 52 47 0
49 51 13 0
55 17 51 0
17 13 51 0
17 14 13 0
14 18 15 0
14 17 18 0
53 16 58 0
16 18 58 0
16 15 18 0
16 53 52 0
55 57 17 0
17 57 18 0
18 57 59 0
18 59 58 0
62 66 19 0
20 64 19 0
19 64 62 0
20 69 64 0
67 71 21 0
67 21 66 0
21 19 66 0
21 22 19 0
19 23 20 0
19 22 23 0
69 20 70 0
20 25 70 0
20 23 25 0
25 73 70 0
21 71 27 0
27 71 76 0
21 29 22 0
21 27 29 0
22 32 23 0
22 29 32 0
32 30 24 0
25 32 24 0
23 32 25 0
74 73 25 0
24 74 25 0
26 74 24 0
26 33 74 0
74 33 79 0
77 80 34 0
77 34 76 0
34 27 76 0
34 36 27 0
36 35 28 0
29 36 28 0
27 36 29 0
29 28 31 0
29 31 32 0
32 31 30 0
37 79 33 0
37 82 79 0
34 80 38 0
38 80 83 0
34 40 36 0
34 38 40 0
40 39 35 0
40 35 36 0
41 82 37 0
41 85 82 0
38 83 43 0
43 83 88 0
38 45 40 0
38 43 45 0
45 44 39 0
45 39 40 0
90 86 42 0
90 42 46 0
41 42 85 0
85 42 86 0
43 88 48 0
48 88 92 0
43 50 45 0
43 48 50 0
50 49 44 0
50 44 45 0
91 90 46 0
91 46 47 0
47 52 91 0
91 52 94 0
92 93 48 0
97 54 93 0
54 48 93 0
54 50 48 0
56 51 49 0
50 56 49 0
54 56 50 0
56 55 51 0
100 95 53 0
100 53 58 0
52 53 94 0
94 53 95 0
54 97 60 0
60 97 102 0
54 61 56 0
54 60 61 0
56 61 55 0
61 99 55 0
99 57 55 0
61 105 99 0
57 101 59 0
99 101 57 0
58 59 100 0
100 59 101 0
102 104 60 0
60 104 61 0
61 104 106 0
61 106 105 0
109 113 63 0
63 116 109 0
111 118 65 0
68 114 65 0
65 114 111 0
114 68 113 0
113 68 63 0
68 66 63 0
66 62 63 0
117 116 63 0
62 117 63 0
64 117 62 0
64 69 117 0
117 69 120 0
65 118 72 0
72 118 122 0
72 71 67 0
68 72 67 0
65 72 68 0
68 67 66 0
121 120 69 0
121 69 70 0
70 73 121 0
121 73 125 0
123 128 75 0
123 75 122 0
75 72 122 0
75 78 72 0
78 76 71 0
78 71 72 0
127 125 73 0
127 73 74 0
74 79 127 0
127 79 130 0
75 128 81 0
81 128 132 0
81 80 77 0
78 81 77 0
75 81 78 0
78 77 76 0
82 130 79 0
82 134 130 0
81 132 84 0
84 132 137 0
84 83 80 0
84 80 81 0
139 135 87 0
135 134 87 0
134 85 87 0
134 82 85 0
84 137 89 0
89 137 140 0
89 88 83 0
89 83 84 0
139 87 86 0
90 139 86 0
143 139 90 0
86 87 85 0
140 142 89 0
88 89 142 0
146 88 142 0
92 88 146 0
90 91 96 0
148 90 96 0
143 90 148 0
94 96 91 0
93 92 98 0
92 150 98 0
92 146 150 0
98 97 93 0
148 96 95 0
100 148 95 0
153 148 100 0
95 96 94 0
98 150 103 0
103 150 156 0
103 102 97 0
103 97 98 0
159 152 99 0
159 99 105 0
99 154 101 0
152 154 99 0
100 101 153 0
153 101 154 0
156 157 103 0
103 157 102 0
157 104 102 0
157 158 104 0
104 160 106 0
158 160 104 0
105 106 159 0
159 106 160 0
162 166 107 0
108 163 107 0
107 163 162 0
110 164 108 0
108 164 163 0
110 168 164 0
107 166 112 0
112 166 171 0
107 115 108 0
107 112 115 0
115 113 109 0
110 115 109 0
108 115 110 0
109 116 110 0
116 168 110 0
116 174 168 0
172 177 119 0
172 119 171 0
171 119 112 0
119 118 112 0
118 111 112 0
112 111 114 0
112 114 115 0
115 114 113 0
175 174 116 0
175 116 117 0
117 120 175 0
175 120 179 0
119 177 124 0
124 177 183 0
124 122 118 0
124 118 119 0
120 121 126 0
186 120 126 0
179 120 186 0
125 126 121 0
184 189 129 0
184 129 183 0
183 129 124 0
129 128 124 0
128 123 124 0
124 123 122 0
187 186 126 0
191 187 131 0
131 187 127 0
187 126 127 0
126 125 127 0
130 131 127 0
129 189 133 0
133 189 194 0
133 132 128 0
133 128 129 0
191 131 136 0
191 136 196 0
134 136 130 0
130 136 131 0
133 194 138 0
138 194 199 0
138 137 132 0
138 132 133 0
196 136 135 0
139 196 135 0
201 196 139 0
135 136 134 0
138 199 141 0
141 199 204 0
141 140 137 0
141 137 138 0
206 202 144 0
202 201 144 0
201 143 144 0
201 139 143 0
141 204 145 0
145 204 207 0
147 142 140 0
141 147 140 0
145 147 141 0
147 146 142 0
206 144 149 0
206 149 210 0
148 149 143 0
143 149 144 0
207 209 145 0
212 151 209 0
151 145 209 0
151 147 145 0
151 150 146 0
151 146 147 0
210 149 155 0
210 155 217 0
153 155 148 0
148 155 149 0
212 214 151 0
150 151 214 0
220 150 214 0
156 150 220 0
223 215 161 0
152 159 161 0
215 152 161 0
218 152 215 0
155 154 217 0
154 218 217 0
154 152 218 0
154 155 153 0
220 222 156 0
156 222 157 0
157 224 158 0
222 224 157 0
161 160 223 0
160 224 223 0
160 158 224 0
160 161 159 0
226 230 165 0
167 227 165 0
165 227 226 0
166 162 167 0
162 227 167 0
162 228 227 0
229 162 163 0
229 228 162 0
232 229 169 0
229 164 169 0
229 163 164 0
168 169 164 0
165 230 170 0
170 230 236 0
165 173 167 0
165 170 173 0
173 171 166 0
173 166 167 0
234 232 169 0
169 168 234 0
168 239 234 0
168 174 239 0
237 241 176 0
237 176 236 0
176 170 236 0
176 178 170 0
178 177 172 0
173 178 172 0
170 178 173 0
173 172 171 0
174 175 180 0
244 174 180 0
239 174 244 0
179 180 175 0
242 247 181 0
242 181 241 0
181 176 241 0
181 182 176 0
176 185 178 0
176 182 185 0
185 183 177 0
185 177 178 0
246 244 180 0
180 179 246 0
179 250 246 0
179 186 250 0
181 247 188 0
188 247 252 0
181 190 182 0
181 188 190 0
190 189 184 0
185 190 184 0
182 190 185 0
185 184 183 0
186 187 192 0
255 186 192 0
250 186 255 0
191 192 187 0
188 252 193 0
193 252 257 0
188 195 190 0
188 193 195 0
195 194 189 0
195 189 190 0
255 192 197 0
255 197 259 0
196 197 191 0
191 197 192 0
193 257 198 0
198 257 261 0
193 200 195 0
193 198 200 0
200 199 194 0
200 194 195 0
259 197 203 0
259 203 264 0
201 203 196 0
196 203 197 0
261 262 198 0
266 205 262 0
205 198 262 0
205 200 198 0
205 204 199 0
205 199 200 0
264 203 202 0
206 264 202 0
269 264 206 0
202 203 201 0
205 266 208 0
208 266 272 0
208 207 204 0
208 204 205 0
274 270 211 0
270 269 211 0
269 210 211 0
269 206 210 0
272 273 208 0
273 277 213 0
273 213 209 0
208 273 209 0
207 208 209 0
213 212 209 0
279 275 216 0
216 275 274 0
211 216 274 0
219 216 211 0
217 219 210 0
210 219 211 0
277 278 213 0
278 282 221 0
278 221 214 0
213 278 214 0
212 213 214 0
221 220 214 0
285 280 225 0
225 280 279 0
225 279 216 0
223 225 216 0
215 223 216 0
215 216 218 0
218 216 219 0
218 219 217 0
282 284 221 0
221 284 220 0
284 222 220 0
284 286 222 0
225 224 285 0
224 286 285 0
224 222 286 0
224 225 223 0
288 292 231 0
230 226 231 0
226 288 231 0
226 289 288 0
290 226 227 0
290 289 226 0
291 227 228 0
291 290 227 0
295 291 233 0
291 229 233 0
291 228 229 0
232 233 229 0
293 298 235 0
293 235 292 0
235 231 292 0
235 238 231 0
238 236 230 0
238 230 231 0
297 295 233 0
299 297 240 0
240 297 234 0
297 233 234 0
233 232 234 0
239 240 234 0
235 298 243 0
243 298 301 0
243 241 237 0
238 243 237 0
235 243 238 0
238 237 236 0
299 240 245 0
299 245 304 0
244 245 239 0
239 245 240 0
302 305 248 0
302 248 301 0
301 248 243 0
248 247 243 0
247 242 243 0
243 242 241 0
304 245 249 0
304 249 307 0
246 251 244 0
251 245 244 0
251 249 245 0
250 251 246 0
248 305 253 0
253 305 308 0
253 252 247 0
253 247 248 0
307 249 254 0
307 254 310 0
256 249 251 0
254 249 256 0
255 256 250 0
250 256 251 0
253 308 258 0
258 308 312 0
258 257 252 0
258 252 253 0
311 310 254 0
260 315 311 0
254 260 311 0
256 260 254 0
259 260 255 0
255 260 256 0
312 314 258 0
257 258 314 0
318 257 314 0
261 257 318 0
320 316 263 0
263 316 315 0
260 263 315 0
265 263 260 0
264 265 259 0
259 265 260 0
262 261 267 0
261 321 267 0
261 318 321 0
267 266 262 0
320 263 268 0
320 268 323 0
271 263 265 0
268 263 271 0
269 271 264 0
264 271 265 0
321 322 267 0
266 267 322 0
325 266 322 0
272 266 325 0
323 268 276 0
323 276 328 0
274 276 270 0
276 271 270 0
276 268 271 0
270 271 269 0
325 327 272 0
272 327 273 0
277 273 327 0
277 327 331 0
333 329 281 0
281 329 328 0
281 328 276 0
279 281 276 0
275 279 276 0
275 276 274 0
278 277 283 0
277 335 283 0
277 331 335 0
283 282 278 0
338 334 287 0
287 334 333 0
287 333 281 0
285 287 281 0
280 285 281 0
280 281 279 0
335 336 283 0
283 336 282 0
336 284 282 0
336 339 284 0
287 286 338 0
286 339 338 0
286 284 339 0
286 287 285 0
341 343 288 0
288 343 292 0
342 288 289 0
342 341 288 0
346 342 294 0
342 290 294 0
342 289 290 0
291 296 290 0
290 296 294 0
295 296 291 0
344 350 293 0
293 350 298 0
293 292 343 0
293 343 344 0
348 346 294 0
348 294 296 0
348 296 349 0
356 349 300 0
300 349 297 0
349 296 297 0
296 295 297 0
299 300 297 0
351 359 303 0
350 351 303 0
301 350 303 0
298 350 301 0
358 356 300 0
300 299 358 0
299 363 358 0
299 304 363 0
360 365 306 0
360 306 359 0
359 306 303 0
306 305 303 0
305 302 303 0
303 302 301 0
307 363 304 0
307 367 363 0
306 365 309 0
309 365 369 0
309 308 305 0
309 305 306 0
310 367 307 0
310 371 367 0
309 369 313 0
313 369 373 0
313 312 308 0
313 308 309 0
310 311 317 0
375 310 317 0
371 310 375 0
315 317 311 0
373 374 313 0
374 377 319 0
374 319 314 0
313 374 314 0
312 313 314 0
319 318 314 0
375 317 316 0
320 375 316 0
380 375 320 0
316 317 315 0
377 378 319 0
318 319 378 0
383 318 378 0
321 318 383 0
385 381 324 0
381 380 324 0
380 323 324 0
380 320 323 0
322 321 326 0
321 387 326 0
321 383 387 0
326 325 322 0
385 324 330 0
385 330 390 0
328 330 323 0
323 330 324 0
387 388 326 0
388 392 332 0
388 332 327 0
326 388 327 0
325 326 327 0
332 331 327 0
390 330 329 0
333 390 329 0
399 390 333 0
329 330 328 0
392 394 332 0
335 331 332 0
395 335 332 0
394 395 332 0
335 395 337 0
397 340 337 0
397 337 395 0
334 338 340 0
397 334 340 0
400 334 397 0
333 334 399 0
399 334 400 0
337 336 335 0
336 337 339 0
339 337 340 0
339 340 338 0
345 343 341 0
342 347 341 0
341 347 345 0
346 347 342 0
352 350 344 0
343 345 344 0
345 352 344 0
345 353 352 0
354 345 347 0
353 345 354 0
348 355 346 0
355 347 346 0
355 354 347 0
349 357 348 0
348 357 355 0
356 357 349 0
402 406 351 0
351 406 359 0
351 350 352 0
403 351 352 0
402 351 403 0
403 352 353 0
403 353 404 0
404 353 354 0
404 354 405 0
361 411 405 0
354 361 405 0
355 361 354 0
362 355 357 0
361 355 362 0
358 364 356 0
364 357 356 0
364 362 357 0
363 364 358 0
407 414 360 0
360 414 365 0
360 359 406 0
360 406 407 0
413 411 361 0
366 416 413 0
361 366 413 0
362 366 361 0
368 362 364 0
366 362 368 0
367 368 363 0
363 368 364 0
414 369 365 0
418 369 414 0
416 366 370 0
416 370 420 0
372 366 368 0
370 366 372 0
371 372 367 0
367 372 368 0
418 373 369 0
423 373 418 0
422 420 370 0
376 426 422 0
370 376 422 0
372 376 370 0
375 376 371 0
371 376 372 0
423 424 373 0
373 424 374 0
377 374 424 0
377 424 429 0
431 427 379 0
379 427 426 0
376 379 426 0
382 379 376 0
380 382 375 0
375 382 376 0
378 377 384 0
377 433 384 0
377 429 433 0
384 383 378 0
431 379 386 0
431 386 436 0
385 386 381 0
386 382 381 0
386 379 382 0
381 382 380 0
433 434 384 0
383 384 434 0
439 383 434 0
387 383 439 0
440 437 389 0
389 437 436 0
386 389 436 0
391 389 386 0
390 391 385 0
385 391 386 0
388 387 393 0
387 443 393 0
387 439 443 0
393 392 388 0
446 441 396 0
396 441 440 0
389 396 440 0
398 396 389 0
401 389 391 0
398 389 401 0
399 401 390 0
390 401 391 0
443 444 393 0
393 444 392 0
444 394 392 0
444 447 394 0
396 395 446 0
395 447 446 0
395 394 447 0
395 396 397 0
397 396 398 0
397 398 400 0
400 398 401 0
400 401 399 0
408 406 402 0
403 409 402 0
402 409 408 0
404 410 403 0
403 410 409 0
405 412 404 0
404 412 410 0
411 412 405 0
449 453 407 0
407 453 414 0
407 406 408 0
450 407 408 0
449 407 450 0
450 408 409 0
450 409 451 0
451 409 410 0
451 410 452 0
415 455 452 0
410 415 452 0
412 415 410 0
413 417 411 0
417 412 411 0
417 415 412 0
416 417 413 0
454 457 419 0
453 454 419 0
418 453 419 0
414 453 418 0
456 455 415 0
421 459 456 0
415 421 456 0
417 421 415 0
420 421 416 0
416 421 417 0
457 458 419 0
418 419 458 0
461 418 458 0
423 418 461 0
459 421 425 0
459 425 463 0
422 428 420 0
428 421 420 0
428 425 421 0
426 428 422 0
424 423 430 0
423 465 430 0
423 461 465 0
430 429 424 0
463 425 432 0
463 432 467 0
431 432 427 0
432 428 427 0
432 425 428 0
427 428 426 0
465 466 430 0
429 430 466 0
470 429 466 0
433 429 470 0
472 468 435 0
435 468 467 0
432 435 467 0
438 435 432 0
436 438 431 0
431 438 432 0
470 471 433 0
433 471 434 0
439 434 471 0
439 471 474 0
472 435 442 0
472 442 477 0
440 442 437 0
442 438 437 0
442 435 438 0
437 438 436 0
445 443 475 0
443 474 475 0
443 439 474 0
478 448 445 0
478 445 475 0
448 478 477 0
448 477 442 0
446 448 442 0
441 446 442 0
441 442 440 0
445 444 443 0
444 445 447 0
447 445 448 0
447 448 446 0
480 484 449 0
449 484 453 0
481 449 450 0
481 480 449 0
482 450 451 0
482 481 450 0
483 451 452 0
483 482 451 0
452 455 483 0
483 455 489 0
485 491 454 0
454 491 457 0
454 453 484 0
454 484 485 0
455 456 460 0
496 455 460 0
489 455 496 0
459 460 456 0
458 457 462 0
457 498 462 0
457 491 498 0
462 461 458 0
496 460 464 0
496 464 501 0
463 464 459 0
459 464 460 0
498 499 462 0
461 462 499 0
503 461 499 0
465 461 503 0
501 464 469 0
501 469 508 0
467 469 463 0
463 469 464 0
503 504 465 0
465 504 466 0
470 466 504 0
470 504 511 0
514 509 473 0
473 509 508 0
473 508 469 0
472 473 469 0
468 472 469 0
468 469 467 0
511 512 470 0
470 512 471 0
515 476 474 0
471 515 474 0
512 515 471 0
476 515 514 0
473 476 514 0
479 476 473 0
477 479 472 0
472 479 473 0
476 475 474 0
475 476 478 0
478 476 479 0
478 479 477 0
486 484 480 0
481 487 480 0
480 487 486 0
482 488 481 0
481 488 487 0
483 490 482 0
482 490 488 0
489 490 483 0
492 491 485 0
484 486 485 0
486 492 485 0
486 493 492 0
494 486 487 0
493 486 494 0
495 487 488 0
494 487 495 0
497 488 490 0
495 488 497 0
496 497 489 0
489 497 490 0
517 520 492 0
520 491 492 0
520 498 491 0
517 492 493 0
517 493 518 0
518 493 494 0
518 494 519 0
500 525 519 0
494 500 519 0
495 500 494 0
502 495 497 0
500 495 502 0
501 502 496 0
496 502 497 0
520 521 498 0
498 521 499 0
523 505 503 0
499 523 503 0
521 523 499 0
526 506 505 0
526 505 523 0
506 526 525 0
500 506 525 0
507 506 500 0
510 500 502 0
507 500 510 0
508 510 501 0
501 510 502 0
505 504 503 0
504 505 511 0
505 513 511 0
505 506 513 0
516 506 507 0
513 506 516 0
514 516 509 0
516 510 509 0
516 507 510 0
509 510 508 0
513 512 511 0
512 513 515 0
515 513 516 0
515 516 514 0
522 520 517 0
518 524 517 0
517 524 522 0
519 527 518 0
518 527 524 0
525 527 519 0
522 521 520 0
521 522 523 0
523 522 524 0
523 524 526 0
526 524 527 0
526 527 525 0
