#!ascii version of /Users/gilles/git/nukkies/notebooks/data/KP6T_STh_L.asc
536 1070
3.766317  -62.208073  -61.392681  0
3.698862  -62.481480  -61.394875  0
4.603835  -61.124245  -61.418732  0
5.098278  -61.589733  -61.442677  0
4.682050  -61.567265  -61.427483  0
4.176703  -61.674610  -61.361816  0
3.788676  -62.098583  -61.283672  0
5.556526  -62.109230  -61.449776  0
5.089386  -62.062695  -61.477371  0
4.647274  -62.042408  -61.443287  0
3.927131  -62.177177  -61.369766  0
4.209529  -62.064976  -61.391209  0
3.608879  -62.219151  -61.259377  0
5.556526  -62.609230  -61.449776  0
5.058288  -62.597630  -61.459213  0
4.595143  -62.547264  -61.479595  0
3.854149  -62.484947  -61.394089  0
4.118491  -62.518677  -61.386612  0
3.570897  -62.454956  -61.242935  0
3.667237  -62.616558  -61.306122  0
5.556526  -63.109230  -61.449776  0
5.056526  -63.109230  -61.449776  0
4.560344  -63.084080  -61.470219  0
4.074335  -63.041046  -61.470982  0
3.622200  -62.937309  -61.362206  0
5.556526  -63.609230  -61.449776  0
5.056526  -63.609230  -61.449776  0
4.556526  -63.609230  -61.449776  0
4.060994  -63.575726  -61.461655  0
5.556526  -64.109230  -61.449776  0
5.056526  -64.109230  -61.449776  0
4.556526  -64.109230  -61.449776  0
4.056526  -64.109230  -61.449776  0
5.056526  -64.609230  -61.449776  0
4.556526  -64.609230  -61.449776  0
5.547308  -60.593864  -60.885864  0
5.040471  -60.561108  -60.816547  0
4.559062  -60.862671  -61.144318  0
5.556526  -61.109230  -60.949776  0
4.810553  -61.104126  -61.137882  0
5.056526  -61.359230  -61.199776  0
5.059316  -61.100941  -60.918652  0
4.307497  -61.124638  -61.143646  0
4.098822  -61.399467  -61.185837  0
5.306526  -61.609230  -61.199776  0
5.556526  -61.859230  -61.199776  0
5.556526  -61.609230  -60.949776  0
3.896685  -61.690437  -61.201237  0
3.766250  -62.010345  -61.061832  0
5.806526  -62.109230  -61.199776  0
6.056526  -62.109230  -60.949776  0
3.578340  -62.104271  -60.984936  0
5.806526  -62.609230  -61.199776  0
6.056526  -62.609230  -60.949776  0
3.546129  -62.382404  -60.972961  0
5.806526  -63.109230  -61.199776  0
3.509882  -62.807919  -61.046978  0
3.647122  -63.190662  -61.201878  0
3.664115  -62.922607  -60.944317  0
5.806526  -63.609230  -61.199776  0
6.056526  -63.609230  -60.949776  0
3.835043  -63.549625  -61.216080  0
5.806526  -64.109230  -61.199776  0
6.056526  -64.109230  -60.949776  0
5.556526  -64.359230  -61.199776  0
3.806526  -64.109230  -61.199776  0
4.056526  -64.359230  -61.199776  0
5.306526  -64.609230  -61.199776  0
5.556526  -64.609230  -60.949776  0
5.056526  -64.859230  -61.199776  0
4.306526  -64.609230  -61.199776  0
4.556526  -64.859230  -61.199776  0
6.041896  -59.591496  -60.455864  0
5.577758  -59.599873  -60.408970  0
5.525213  -60.350513  -60.652210  0
5.563422  -60.081329  -60.400311  0
5.064160  -60.304157  -60.548649  0
5.175267  -60.094727  -60.277191  0
4.958230  -60.124741  -60.222191  0
5.797462  -60.609974  -60.698742  0
6.047462  -60.609974  -60.448742  0
4.832539  -60.511658  -60.428902  0
4.541736  -60.812145  -60.562939  0
6.556526  -61.109230  -60.449776  0
5.806526  -61.109230  -60.699776  0
6.056526  -61.109230  -60.449776  0
4.296113  -61.089211  -60.616596  0
4.065778  -61.383018  -60.695843  0
6.556526  -61.609230  -60.449776  0
5.806526  -61.609230  -60.699776  0
6.056526  -61.859230  -60.699776  0
6.056526  -61.609230  -60.449776  0
3.833646  -61.631035  -60.733234  0
3.680306  -61.913765  -60.668373  0
6.306526  -62.109230  -60.699776  0
6.556526  -62.109230  -60.449776  0
3.455801  -62.022633  -60.649902  0
3.587763  -62.130348  -60.460167  0
6.306526  -62.609230  -60.699776  0
6.556526  -62.609230  -60.449776  0
6.056526  -62.859230  -60.699776  0
3.429499  -62.440403  -60.638000  0
3.606790  -62.771626  -60.711235  0
3.580017  -62.573006  -60.429123  0
6.556526  -63.109230  -60.449776  0
5.806526  -63.109230  -60.699776  0
6.056526  -63.359230  -60.699776  0
6.056526  -63.109230  -60.449776  0
3.851093  -63.048218  -60.723801  0
6.306526  -63.609230  -60.699776  0
6.556526  -63.609230  -60.449776  0
3.806526  -63.609230  -60.699776  0
6.306526  -64.109230  -60.699776  0
6.556526  -64.109230  -60.449776  0
6.056526  -64.359230  -60.699776  0
3.806526  -64.109230  -60.699776  0
4.056526  -64.359230  -60.699776  0
6.556526  -64.609230  -60.449776  0
5.806526  -64.609230  -60.699776  0
6.056526  -64.609230  -60.449776  0
5.556526  -64.859230  -60.699776  0
5.056526  -64.859230  -60.699776  0
4.306526  -64.609230  -60.699776  0
4.556526  -64.859230  -60.699776  0
6.556526  -59.109230  -59.949776  0
6.056526  -59.359230  -60.199776  0
5.528551  -59.353550  -60.213333  0
6.306526  -59.609230  -60.199776  0
6.556526  -59.609230  -59.949776  0
6.044440  -59.860218  -60.198402  0
5.308235  -59.671036  -60.206348  0
5.156772  -59.918262  -60.148907  0
5.078678  -59.761307  -59.950375  0
4.911190  -59.967571  -60.114552  0
6.556526  -60.109230  -59.949776  0
5.794440  -60.110218  -60.198402  0
6.056526  -60.359230  -60.199776  0
6.056526  -60.109230  -59.949776  0
4.800723  -60.172413  -60.080238  0
4.868214  -60.338226  -60.023956  0
4.924119  -60.184605  -59.899120  0
7.056526  -60.609230  -59.949776  0
6.306526  -60.609230  -60.199776  0
6.556526  -60.859230  -60.199776  0
6.556526  -60.609230  -59.949776  0
4.779610  -60.556332  -59.985481  0
4.525809  -60.790524  -60.014118  0
7.556526  -61.109230  -59.949776  0
6.806526  -61.109230  -60.199776  0
7.056526  -61.109230  -59.949776  0
4.281586  -61.094147  -60.129097  0
4.056526  -61.359230  -60.199776  0
6.806526  -61.609230  -60.199776  0
7.056526  -61.609230  -59.949776  0
3.806526  -61.609230  -60.199776  0
4.056526  -61.609230  -59.949776  0
6.806526  -62.109230  -60.199776  0
7.056526  -62.109230  -59.949776  0
3.806526  -62.109230  -60.199776  0
4.056526  -62.109230  -59.949776  0
6.806526  -62.609230  -60.199776  0
7.056526  -62.609230  -59.949776  0
3.806526  -62.609230  -60.199776  0
4.056526  -62.609230  -59.949776  0
6.806526  -63.109230  -60.199776  0
7.056526  -63.109230  -59.949776  0
3.806526  -63.109230  -60.199776  0
4.056526  -63.109230  -59.949776  0
6.806526  -63.609230  -60.199776  0
7.056526  -63.609230  -59.949776  0
3.806526  -63.609230  -60.199776  0
4.056526  -63.609230  -59.949776  0
6.806526  -64.109230  -60.199776  0
7.056526  -64.109230  -59.949776  0
4.556526  -64.109230  -59.949776  0
3.806526  -64.109230  -60.199776  0
4.056526  -64.359230  -60.199776  0
4.056526  -64.109230  -59.949776  0
6.806526  -64.609230  -60.199776  0
6.556526  -64.859230  -60.199776  0
6.056526  -64.859230  -60.199776  0
5.556526  -64.859230  -60.199776  0
5.056526  -64.859230  -60.199776  0
5.056526  -64.609230  -59.949776  0
4.306526  -64.609230  -60.199776  0
4.556526  -64.859230  -60.199776  0
4.556526  -64.609230  -59.949776  0
6.556526  -58.859230  -59.699776  0
6.806526  -59.109230  -59.699776  0
6.306526  -59.109230  -59.699776  0
6.056526  -59.359230  -59.699776  0
5.538533  -59.377228  -59.697708  0
5.037292  -59.429024  -59.716991  0
7.556526  -59.609230  -59.449772  0
6.806526  -59.609230  -59.699776  0
7.056526  -59.609230  -59.449772  0
4.795629  -59.740108  -59.724789  0
5.015624  -59.680691  -59.472366  0
7.556526  -60.109230  -59.449772  0
6.806526  -60.109230  -59.699776  0
7.056526  -60.359230  -59.699776  0
7.056526  -60.109230  -59.449772  0
4.901374  -60.198780  -59.688618  0
5.041321  -60.186882  -59.482555  0
8.056526  -60.609230  -59.449772  0
7.306526  -60.609230  -59.699776  0
7.556526  -60.859230  -59.699776  0
7.556526  -60.609230  -59.449772  0
4.784644  -60.623112  -59.635239  0
4.517429  -60.830452  -59.569447  0
7.806526  -61.109230  -59.699776  0
8.056526  -61.109230  -59.449772  0
7.556526  -61.359230  -59.699776  0
4.288272  -61.104008  -59.670811  0
4.520518  -61.112385  -59.404499  0
8.056526  -61.609230  -59.449772  0
7.306526  -61.609230  -59.699776  0
7.556526  -61.609230  -59.449772  0
4.306526  -61.609230  -59.699776  0
4.556526  -61.609230  -59.449772  0
8.056526  -62.109230  -59.449772  0
7.306526  -62.109230  -59.699776  0
7.556526  -62.109230  -59.449772  0
4.306526  -62.109230  -59.699776  0
4.556526  -62.109230  -59.449772  0
7.306526  -62.609230  -59.699776  0
7.556526  -62.609230  -59.449772  0
4.306526  -62.609230  -59.699776  0
4.556526  -62.609230  -59.449772  0
7.306526  -63.109230  -59.699776  0
4.306526  -63.109230  -59.699776  0
4.556526  -63.109230  -59.449772  0
7.306526  -63.609230  -59.699776  0
7.556526  -63.609230  -59.449772  0
4.306526  -63.609230  -59.699776  0
4.556526  -63.859230  -59.699776  0
4.556526  -63.609230  -59.449772  0
7.306526  -64.109230  -59.699776  0
7.556526  -64.109230  -59.449772  0
7.056526  -64.359230  -59.699776  0
4.806526  -64.109230  -59.699776  0
5.056526  -64.359230  -59.699776  0
5.056526  -64.109230  -59.449772  0
6.806526  -64.609230  -59.699776  0
6.556526  -64.859230  -59.699776  0
6.056526  -64.859230  -59.699776  0
5.306526  -64.609230  -59.699776  0
5.556526  -64.859230  -59.699776  0
5.556526  -64.609230  -59.449772  0
6.556526  -58.859230  -59.199772  0
7.556526  -59.359230  -59.199772  0
6.806526  -59.109230  -59.199772  0
7.056526  -59.359230  -59.199772  0
6.306526  -59.109230  -59.199772  0
6.556526  -59.109230  -58.949772  0
6.056526  -59.359230  -59.199772  0
5.544531  -59.371227  -59.198395  0
7.806526  -59.609230  -59.199772  0
8.056526  -59.609230  -58.949772  0
5.306954  -59.620880  -59.210617  0
5.556526  -59.609230  -58.949772  0
7.806526  -60.109230  -59.199772  0
8.056526  -60.359230  -59.199772  0
8.056526  -60.109230  -58.949772  0
5.307609  -60.138683  -59.227192  0
5.556526  -60.109230  -58.949772  0
5.062694  -60.423561  -59.238674  0
8.306526  -60.609230  -59.199772  0
8.556526  -60.609230  -58.949772  0
5.556526  -60.609230  -58.949772  0
4.796167  -60.659897  -59.208282  0
5.057454  -60.634476  -58.973274  0
8.306526  -61.109230  -59.199772  0
8.556526  -61.109230  -58.949772  0
4.793585  -61.125706  -59.197033  0
5.056900  -61.119427  -58.959267  0
8.306526  -61.609230  -59.199772  0
8.556526  -61.609230  -58.949772  0
4.806526  -61.609230  -59.199772  0
5.056526  -61.609230  -58.949772  0
8.306526  -62.109230  -59.199772  0
8.556526  -62.109230  -58.949772  0
8.056526  -62.359230  -59.199772  0
4.806526  -62.109230  -59.199772  0
5.056526  -62.109230  -58.949772  0
7.806526  -62.609230  -59.199772  0
8.056526  -62.609230  -58.949772  0
7.556526  -62.859230  -59.199772  0
4.806526  -62.609230  -59.199772  0
5.056526  -62.609230  -58.949772  0
7.306526  -63.109230  -59.199772  0
7.556526  -63.359230  -59.199772  0
7.556526  -63.109230  -58.949772  0
4.806526  -63.109230  -59.199772  0
5.056526  -63.109230  -58.949772  0
7.806526  -63.609230  -59.199772  0
8.056526  -63.609230  -58.949772  0
5.556526  -63.609230  -58.949772  0
4.806526  -63.609230  -59.199772  0
5.056526  -63.859230  -59.199772  0
5.056526  -63.609230  -58.949772  0
7.806526  -64.109230  -59.199772  0
7.556526  -64.359230  -59.199772  0
7.056526  -64.359230  -59.199772  0
5.306526  -64.109230  -59.199772  0
5.556526  -64.359230  -59.199772  0
5.556526  -64.109230  -58.949772  0
6.806526  -64.609230  -59.199772  0
6.556526  -64.859230  -59.199772  0
6.556526  -64.609230  -58.949772  0
5.806526  -64.609230  -59.199772  0
6.056526  -64.859230  -59.199772  0
6.056526  -64.609230  -58.949772  0
8.056526  -59.359230  -58.699772  0
7.556526  -59.359230  -58.699772  0
7.056526  -59.359230  -58.699772  0
6.556526  -59.359230  -58.699772  0
6.056526  -59.359230  -58.699772  0
8.306526  -59.609230  -58.699772  0
8.056526  -59.609230  -58.449768  0
7.556526  -59.609230  -58.449768  0
7.056526  -59.609230  -58.449768  0
6.556526  -59.609230  -58.449768  0
5.806526  -59.609230  -58.699772  0
6.056526  -59.609230  -58.449768  0
9.056526  -60.109230  -58.449768  0
8.306526  -60.109230  -58.699772  0
8.556526  -60.359230  -58.699772  0
8.556526  -60.109230  -58.449768  0
5.806526  -60.109230  -58.699772  0
9.556526  -60.609230  -58.449768  0
8.806526  -60.609230  -58.699772  0
9.056526  -60.609230  -58.449768  0
5.806526  -60.609230  -58.699772  0
5.556526  -60.859230  -58.699772  0
9.556526  -61.109230  -58.449768  0
8.806526  -61.109230  -58.699772  0
9.056526  -61.109230  -58.449768  0
6.056526  -61.109230  -58.449768  0
5.306526  -61.109230  -58.699772  0
5.556526  -61.109230  -58.449768  0
8.806526  -61.609230  -58.699772  0
9.056526  -61.609230  -58.449768  0
5.306526  -61.609230  -58.699772  0
5.556526  -61.609230  -58.449768  0
8.806526  -62.109230  -58.699772  0
9.056526  -62.109230  -58.449768  0
8.556526  -62.359230  -58.699772  0
5.306526  -62.109230  -58.699772  0
5.556526  -62.109230  -58.449768  0
8.306526  -62.609230  -58.699772  0
8.556526  -62.609230  -58.449768  0
8.056526  -62.859230  -58.699772  0
5.306526  -62.609230  -58.699772  0
5.556526  -62.609230  -58.449768  0
7.806526  -63.109230  -58.699772  0
8.056526  -63.359230  -58.699772  0
8.056526  -63.109230  -58.449768  0
5.306526  -63.109230  -58.699772  0
5.556526  -63.359230  -58.699772  0
5.556526  -63.109230  -58.449768  0
8.306526  -63.609230  -58.699772  0
8.056526  -63.859230  -58.699772  0
5.806526  -63.609230  -58.699772  0
6.056526  -63.609230  -58.449768  0
7.806526  -64.109230  -58.699772  0
7.556526  -64.359230  -58.699772  0
7.056526  -64.359230  -58.699772  0
6.556526  -64.359230  -58.699772  0
5.806526  -64.109230  -58.699772  0
6.056526  -64.359230  -58.699772  0
6.056526  -64.109230  -58.449768  0
9.056526  -59.859230  -58.199768  0
8.556526  -59.859230  -58.199768  0
8.056526  -59.859230  -58.199768  0
7.556526  -59.859230  -58.199768  0
7.056526  -59.859230  -58.199768  0
6.556526  -59.859230  -58.199768  0
6.056526  -59.859230  -58.199768  0
9.306526  -60.109230  -58.199768  0
9.556526  -60.359230  -58.199768  0
9.556526  -60.109230  -57.949768  0
6.556526  -60.109230  -57.949768  0
5.806526  -60.109230  -58.199768  0
6.056526  -60.109230  -57.949768  0
9.806526  -60.609230  -58.199768  0
6.556526  -60.609230  -57.949768  0
5.806526  -60.609230  -58.199768  0
6.056526  -60.859230  -58.199768  0
6.056526  -60.609230  -57.949768  0
9.806526  -61.109230  -58.199768  0
9.556526  -61.359230  -58.199768  0
9.556526  -61.109230  -57.949768  0
6.306526  -61.109230  -58.199768  0
6.056526  -61.359230  -58.199768  0
9.306526  -61.609230  -58.199768  0
9.556526  -61.609230  -57.949768  0
5.806526  -61.609230  -58.199768  0
9.306526  -62.109230  -58.199768  0
9.056526  -62.359230  -58.199768  0
5.806526  -62.109230  -58.199768  0
6.056526  -62.109230  -57.949768  0
8.806526  -62.609230  -58.199768  0
9.056526  -62.609230  -57.949768  0
8.556526  -62.859230  -58.199768  0
5.806526  -62.609230  -58.199768  0
6.056526  -62.609230  -57.949768  0
8.306526  -63.109230  -58.199768  0
5.806526  -63.109230  -58.199768  0
6.056526  -63.359230  -58.199768  0
6.056526  -63.109230  -57.949768  0
8.306526  -63.609230  -58.199768  0
8.056526  -63.859230  -58.199768  0
8.056526  -63.609230  -57.949768  0
7.056526  -63.609230  -57.949768  0
6.306526  -63.609230  -58.199768  0
6.556526  -63.609230  -57.949768  0
7.806526  -64.109230  -58.199768  0
7.556526  -64.359230  -58.199768  0
7.556526  -64.109230  -57.949768  0
7.056526  -64.359230  -58.199768  0
7.056526  -64.109230  -57.949768  0
6.306526  -64.109230  -58.199768  0
6.556526  -64.359230  -58.199768  0
6.556526  -64.109230  -57.949768  0
9.556526  -59.859230  -57.699768  0
9.056526  -59.859230  -57.699768  0
8.556526  -59.859230  -57.699768  0
8.056526  -59.859230  -57.699768  0
7.556526  -59.859230  -57.699768  0
7.056526  -59.859230  -57.699768  0
9.806526  -60.109230  -57.699768  0
9.556526  -60.109230  -57.449768  0
9.056526  -60.109230  -57.449768  0
8.556526  -60.109230  -57.449768  0
8.056526  -60.109230  -57.449768  0
7.556526  -60.109230  -57.449768  0
6.806526  -60.109230  -57.699768  0
7.056526  -60.109230  -57.449768  0
9.806526  -60.609230  -57.699768  0
9.556526  -60.859230  -57.699768  0
9.556526  -60.609230  -57.449768  0
6.806526  -60.609230  -57.699768  0
7.056526  -60.609230  -57.449768  0
6.556526  -60.859230  -57.699768  0
9.306526  -61.109230  -57.699768  0
9.556526  -61.359230  -57.699768  0
6.306526  -61.109230  -57.699768  0
6.556526  -61.109230  -57.449768  0
6.056526  -61.359230  -57.699768  0
9.806526  -61.609230  -57.699768  0
9.556526  -61.859230  -57.699768  0
6.556526  -61.609230  -57.449768  0
5.806526  -61.609230  -57.699768  0
6.056526  -61.859230  -57.699768  0
6.056526  -61.609230  -57.449768  0
9.306526  -62.109230  -57.699768  0
6.306526  -62.109230  -57.699768  0
6.556526  -62.109230  -57.449768  0
9.306526  -62.609230  -57.699768  0
9.056526  -62.859230  -57.699768  0
8.556526  -62.859230  -57.699768  0
6.306526  -62.609230  -57.699768  0
6.556526  -62.609230  -57.449768  0
8.306526  -63.109230  -57.699768  0
8.056526  -63.359230  -57.699768  0
7.056526  -63.359230  -57.699768  0
6.306526  -63.109230  -57.699768  0
6.556526  -63.359230  -57.699768  0
6.556526  -63.109230  -57.449768  0
7.806526  -63.609230  -57.699768  0
7.306526  -63.609230  -57.699768  0
7.556526  -63.859230  -57.699768  0
7.556526  -63.609230  -57.449768  0
9.056526  -60.359230  -57.199768  0
8.556526  -60.359230  -57.199768  0
8.056526  -60.359230  -57.199768  0
7.556526  -60.359230  -57.199768  0
9.306526  -60.609230  -57.199768  0
9.056526  -60.609230  -56.949764  0
8.556526  -60.609230  -56.949764  0
8.056526  -60.609230  -56.949764  0
7.306526  -60.609230  -57.199768  0
7.556526  -60.609230  -56.949764  0
7.056526  -60.859230  -57.199768  0
9.306526  -61.109230  -57.199768  0
9.556526  -61.359230  -57.199768  0
9.056526  -61.109230  -56.949764  0
8.556526  -61.109230  -56.949764  0
8.056526  -61.109230  -56.949764  0
7.556526  -61.109230  -56.949764  0
6.806526  -61.109230  -57.199768  0
7.056526  -61.109230  -56.949764  0
9.806526  -61.609230  -57.199768  0
9.556526  -61.859230  -57.199768  0
9.556526  -61.609230  -56.949764  0
9.056526  -61.609230  -56.949764  0
8.556526  -61.609230  -56.949764  0
8.056526  -61.609230  -56.949764  0
7.556526  -61.609230  -56.949764  0
6.806526  -61.609230  -57.199768  0
7.056526  -61.609230  -56.949764  0
9.306526  -62.109230  -57.199768  0
9.056526  -62.109230  -56.949764  0
7.556526  -62.109230  -56.949764  0
6.806526  -62.109230  -57.199768  0
7.056526  -62.109230  -56.949764  0
9.306526  -62.609230  -57.199768  0
9.056526  -62.859230  -57.199768  0
9.056526  -62.609230  -56.949764  0
8.556526  -62.859230  -57.199768  0
6.806526  -62.609230  -57.199768  0
7.056526  -62.609230  -56.949764  0
8.306526  -63.109230  -57.199768  0
8.056526  -63.359230  -57.199768  0
8.056526  -63.109230  -56.949764  0
7.556526  -63.359230  -57.199768  0
7.556526  -63.109230  -56.949764  0
6.806526  -63.109230  -57.199768  0
7.056526  -63.359230  -57.199768  0
7.056526  -63.109230  -56.949764  0
8.556526  -61.859230  -56.699764  0
8.056526  -61.859230  -56.699764  0
8.806526  -62.109230  -56.699764  0
8.556526  -62.109230  -56.449764  0
7.806526  -62.109230  -56.699764  0
8.056526  -62.109230  -56.449764  0
7.556526  -62.359230  -56.699764  0
8.806526  -62.609230  -56.699764  0
8.556526  -62.859230  -56.699764  0
8.556526  -62.609230  -56.449764  0
8.056526  -62.859230  -56.699764  0
8.056526  -62.609230  -56.449764  0
7.306526  -62.609230  -56.699764  0
7.556526  -62.859230  -56.699764  0
7.556526  -62.609230  -56.449764  0
6 10 0 0
0 12 6 0
0 10 1 0
1 10 16 0
12 0 18 0
18 0 1 0
16 19 1 0
1 19 18 0
37 39 2 0
2 42 37 0
40 44 3 0
40 3 39 0
3 2 39 0
3 4 2 0
42 2 43 0
2 5 43 0
2 4 5 0
5 47 43 0
45 49 7 0
45 7 44 0
7 3 44 0
7 8 3 0
3 9 4 0
3 8 9 0
4 11 5 0
4 9 11 0
6 48 10 0
48 5 10 0
5 11 10 0
5 48 47 0
6 12 48 0
48 12 51 0
7 49 13 0
13 49 52 0
7 14 8 0
7 13 14 0
8 15 9 0
8 14 15 0
9 17 11 0
9 15 17 0
17 16 10 0
17 10 11 0
18 51 12 0
18 54 51 0
13 52 20 0
20 52 55 0
13 21 14 0
13 20 21 0
14 22 15 0
14 21 22 0
15 23 17 0
15 22 23 0
24 19 16 0
17 24 16 0
23 24 17 0
24 56 19 0
56 18 19 0
56 54 18 0
20 55 25 0
25 55 59 0
20 26 21 0
20 25 26 0
21 27 22 0
21 26 27 0
22 28 23 0
22 27 28 0
57 24 61 0
24 28 61 0
24 23 28 0
24 57 56 0
25 59 29 0
29 59 62 0
25 30 26 0
25 29 30 0
26 31 27 0
26 30 31 0
27 32 28 0
27 31 32 0
61 28 65 0
65 28 32 0
62 64 29 0
67 33 64 0
33 29 64 0
33 30 29 0
30 34 31 0
30 33 34 0
66 32 70 0
32 34 70 0
32 31 34 0
32 66 65 0
67 69 33 0
33 69 34 0
34 69 71 0
34 71 70 0
74 79 35 0
36 76 35 0
35 76 74 0
36 81 76 0
35 79 38 0
38 79 84 0
35 41 36 0
35 38 41 0
37 82 39 0
82 36 39 0
36 41 39 0
36 82 81 0
37 42 82 0
82 42 86 0
38 84 46 0
46 84 89 0
46 44 40 0
41 46 40 0
38 46 41 0
41 40 39 0
87 86 42 0
87 42 43 0
43 47 87 0
87 47 92 0
90 94 50 0
90 50 89 0
89 50 46 0
50 49 46 0
49 45 46 0
46 45 44 0
93 92 47 0
93 47 48 0
48 51 93 0
93 51 96 0
50 94 53 0
53 94 98 0
53 52 49 0
53 49 50 0
54 96 51 0
54 101 96 0
98 100 53 0
52 53 100 0
105 52 100 0
55 52 105 0
108 102 58 0
102 101 58 0
101 56 58 0
101 54 56 0
106 109 60 0
105 106 60 0
59 105 60 0
55 105 59 0
108 58 57 0
61 108 57 0
111 108 61 0
57 58 56 0
60 109 63 0
63 109 112 0
63 62 59 0
63 59 60 0
65 111 61 0
65 115 111 0
112 114 63 0
114 118 68 0
114 68 64 0
63 114 64 0
62 63 64 0
68 67 64 0
122 116 66 0
122 66 70 0
65 66 115 0
115 66 116 0
118 120 68 0
68 120 67 0
120 69 67 0
120 121 69 0
69 123 71 0
121 123 69 0
70 71 122 0
122 71 123 0
125 127 72 0
73 126 72 0
72 126 125 0
73 130 126 0
127 129 72 0
135 75 129 0
75 72 129 0
75 73 72 0
130 73 131 0
73 77 131 0
73 75 77 0
78 133 77 0
77 133 131 0
78 138 133 0
136 142 80 0
136 80 135 0
135 80 75 0
80 79 75 0
79 74 75 0
75 74 76 0
75 76 77 0
78 77 139 0
77 81 139 0
81 145 139 0
81 77 76 0
78 139 138 0
143 148 83 0
143 83 142 0
83 80 142 0
83 85 80 0
85 84 79 0
85 79 80 0
146 145 81 0
146 81 82 0
82 86 146 0
146 86 150 0
83 148 88 0
88 148 152 0
83 91 85 0
83 88 91 0
91 89 84 0
91 84 85 0
151 150 86 0
151 86 87 0
87 92 151 0
151 92 154 0
88 152 95 0
95 152 156 0
95 94 90 0
91 95 90 0
88 95 91 0
91 90 89 0
92 93 97 0
158 92 97 0
154 92 158 0
96 97 93 0
95 156 99 0
99 156 160 0
99 98 94 0
99 94 95 0
158 97 103 0
158 103 162 0
101 103 96 0
96 103 97 0
99 160 104 0
104 160 164 0
107 100 98 0
99 107 98 0
104 107 99 0
107 105 100 0
162 103 102 0
108 162 102 0
166 162 108 0
102 103 101 0
104 164 110 0
110 164 168 0
110 109 106 0
107 110 106 0
104 110 107 0
107 106 105 0
111 166 108 0
111 170 166 0
110 168 113 0
113 168 172 0
113 112 109 0
113 109 110 0
115 170 111 0
115 175 170 0
113 172 117 0
117 172 178 0
119 114 112 0
113 119 112 0
117 119 113 0
119 118 114 0
184 176 116 0
184 116 122 0
115 116 175 0
175 116 176 0
178 179 117 0
117 179 119 0
119 179 180 0
119 180 118 0
180 120 118 0
180 181 120 0
120 182 121 0
181 182 120 0
121 185 123 0
182 185 121 0
122 123 184 0
184 123 185 0
187 188 124 0
124 189 187 0
124 188 128 0
128 188 194 0
125 190 127 0
190 124 127 0
124 128 127 0
124 190 189 0
191 125 126 0
191 190 125 0
132 192 130 0
192 126 130 0
192 191 126 0
132 196 192 0
128 194 134 0
134 194 199 0
137 129 127 0
128 137 127 0
134 137 128 0
137 135 129 0
131 132 130 0
131 133 132 0
133 202 132 0
202 196 132 0
133 140 202 0
138 140 133 0
200 205 141 0
200 141 199 0
141 134 199 0
141 144 134 0
144 142 136 0
137 144 136 0
134 144 137 0
137 136 135 0
202 140 139 0
145 202 139 0
208 202 145 0
139 140 138 0
206 210 147 0
206 147 205 0
147 141 205 0
147 149 141 0
149 148 143 0
144 149 143 0
141 149 144 0
144 143 142 0
209 208 145 0
209 145 146 0
146 150 209 0
209 150 213 0
210 212 147 0
216 153 212 0
153 147 212 0
153 149 147 0
153 152 148 0
153 148 149 0
150 151 155 0
218 150 155 0
213 150 218 0
154 155 151 0
153 216 157 0
157 216 221 0
157 156 152 0
157 152 153 0
218 155 159 0
218 159 223 0
158 159 154 0
154 159 155 0
157 221 161 0
161 221 225 0
161 160 156 0
161 156 157 0
223 159 163 0
223 163 227 0
162 163 158 0
158 163 159 0
161 225 165 0
165 225 229 0
165 164 160 0
165 160 161 0
227 163 167 0
227 167 230 0
166 167 162 0
162 167 163 0
165 229 169 0
169 229 232 0
169 168 164 0
169 164 165 0
230 167 171 0
230 171 234 0
170 171 166 0
166 171 167 0
169 232 173 0
173 232 237 0
173 172 168 0
173 168 169 0
240 235 174 0
174 235 234 0
171 174 234 0
177 174 171 0
175 177 170 0
170 177 171 0
237 239 173 0
172 173 239 0
243 172 239 0
178 172 243 0
246 241 183 0
183 241 240 0
174 183 240 0
186 183 174 0
184 186 176 0
186 177 176 0
186 174 177 0
176 177 175 0
243 244 178 0
178 244 179 0
179 245 180 0
244 245 179 0
180 247 181 0
245 247 180 0
183 182 246 0
182 247 246 0
182 181 247 0
182 183 185 0
185 183 186 0
185 186 184 0
249 251 187 0
187 251 188 0
187 189 249 0
249 189 253 0
250 257 193 0
195 252 193 0
193 252 250 0
251 252 195 0
194 251 195 0
188 251 194 0
255 253 189 0
255 189 190 0
256 190 191 0
256 255 190 0
259 256 197 0
256 192 197 0
256 191 192 0
196 197 192 0
193 257 198 0
198 257 261 0
193 201 195 0
193 198 201 0
201 199 194 0
201 194 195 0
259 197 203 0
259 203 264 0
202 203 196 0
196 203 197 0
262 267 204 0
262 204 261 0
204 198 261 0
204 207 198 0
207 205 200 0
201 207 200 0
198 207 201 0
201 200 199 0
266 264 203 0
203 202 266 0
202 270 266 0
202 208 270 0
204 267 211 0
211 267 272 0
211 210 206 0
207 211 206 0
204 211 207 0
207 206 205 0
208 209 214 0
274 208 214 0
270 208 274 0
213 214 209 0
211 272 215 0
215 272 276 0
217 212 210 0
211 217 210 0
215 217 211 0
217 216 212 0
274 214 219 0
274 219 278 0
218 219 213 0
213 219 214 0
215 276 220 0
220 276 280 0
215 222 217 0
215 220 222 0
222 221 216 0
222 216 217 0
278 219 224 0
278 224 283 0
223 224 218 0
218 224 219 0
280 282 220 0
285 226 282 0
226 220 282 0
226 222 220 0
226 225 221 0
226 221 222 0
283 224 228 0
283 228 288 0
227 228 223 0
223 228 224 0
285 287 226 0
225 226 287 0
290 225 287 0
229 225 290 0
288 228 231 0
288 231 293 0
230 231 227 0
227 231 228 0
291 295 233 0
290 291 233 0
232 290 233 0
229 290 232 0
293 231 236 0
293 236 298 0
234 236 230 0
230 236 231 0
233 295 238 0
238 295 301 0
238 237 232 0
238 232 233 0
304 299 242 0
242 299 298 0
242 298 236 0
240 242 236 0
235 240 236 0
235 236 234 0
301 302 238 0
238 302 237 0
302 239 237 0
302 303 239 0
243 239 303 0
243 303 307 0
310 305 248 0
248 305 304 0
248 304 242 0
246 248 242 0
241 246 242 0
241 242 240 0
307 308 243 0
243 308 244 0
244 311 245 0
308 311 244 0
248 247 310 0
247 311 310 0
247 245 311 0
247 248 246 0
254 251 249 0
253 254 249 0
313 318 258 0
257 250 258 0
250 313 258 0
250 314 313 0
315 250 252 0
315 314 250 0
252 251 254 0
316 252 254 0
315 252 316 0
316 254 253 0
255 316 253 0
317 316 255 0
323 317 260 0
317 256 260 0
317 255 256 0
259 260 256 0
258 318 263 0
263 318 326 0
263 261 257 0
263 257 258 0
323 260 265 0
323 265 329 0
264 265 259 0
259 265 260 0
327 331 268 0
327 268 326 0
326 268 263 0
268 267 263 0
267 262 263 0
263 262 261 0
329 265 269 0
329 269 333 0
266 271 264 0
271 265 264 0
271 269 265 0
270 271 266 0
268 331 273 0
273 331 336 0
273 272 267 0
273 267 268 0
334 333 269 0
275 339 334 0
269 275 334 0
271 275 269 0
274 275 270 0
270 275 271 0
273 336 277 0
277 336 341 0
277 276 272 0
277 272 273 0
339 275 279 0
339 279 343 0
278 279 274 0
274 279 275 0
277 341 281 0
281 341 345 0
281 280 276 0
281 276 277 0
343 279 284 0
343 284 348 0
283 284 278 0
278 284 279 0
345 347 281 0
347 350 286 0
347 286 282 0
281 347 282 0
280 281 282 0
286 285 282 0
348 284 289 0
348 289 353 0
288 289 283 0
283 289 284 0
350 352 286 0
352 355 292 0
352 292 287 0
286 352 287 0
285 286 287 0
292 290 287 0
353 289 294 0
353 294 358 0
293 294 288 0
288 294 289 0
356 361 296 0
356 296 355 0
355 296 292 0
296 295 292 0
295 291 292 0
292 291 290 0
363 359 297 0
297 359 358 0
294 297 358 0
300 297 294 0
298 300 293 0
293 300 294 0
361 362 296 0
295 296 362 0
365 295 362 0
301 295 365 0
363 297 306 0
363 306 369 0
304 306 299 0
306 300 299 0
306 297 300 0
299 300 298 0
365 366 301 0
301 366 302 0
302 367 303 0
366 367 302 0
368 309 307 0
303 368 307 0
367 368 303 0
370 312 309 0
370 309 368 0
312 370 369 0
312 369 306 0
310 312 306 0
305 310 306 0
305 306 304 0
309 308 307 0
308 309 311 0
311 309 312 0
311 312 310 0
319 318 313 0
314 320 313 0
313 320 319 0
315 321 314 0
314 321 320 0
316 322 315 0
315 322 321 0
317 324 316 0
316 324 322 0
323 324 317 0
372 379 325 0
328 373 325 0
325 373 372 0
374 373 319 0
373 326 319 0
326 318 319 0
373 328 326 0
374 319 320 0
374 320 375 0
375 320 321 0
375 321 376 0
376 321 322 0
376 322 377 0
377 322 324 0
377 324 378 0
324 323 378 0
323 383 378 0
323 329 383 0
380 385 330 0
380 330 379 0
330 325 379 0
330 332 325 0
332 331 327 0
328 332 327 0
325 332 328 0
328 327 326 0
333 383 329 0
333 387 383 0
330 385 335 0
335 385 390 0
330 337 332 0
330 335 337 0
337 336 331 0
337 331 332 0
393 388 338 0
340 338 334 0
338 387 334 0
387 333 334 0
387 338 388 0
339 340 334 0
390 391 335 0
395 342 391 0
342 335 391 0
342 337 335 0
342 341 336 0
342 336 337 0
394 393 338 0
344 397 394 0
338 344 394 0
340 344 338 0
343 344 339 0
339 344 340 0
342 395 346 0
346 395 398 0
346 345 341 0
346 341 342 0
397 344 349 0
397 349 400 0
348 349 343 0
343 349 344 0
398 399 346 0
399 402 351 0
399 351 347 0
346 399 347 0
345 346 347 0
351 350 347 0
400 349 354 0
400 354 405 0
353 354 348 0
348 354 349 0
402 404 351 0
404 407 357 0
404 357 352 0
351 404 352 0
350 351 352 0
357 355 352 0
405 354 360 0
405 360 408 0
358 360 353 0
353 360 354 0
357 407 356 0
407 361 356 0
407 411 361 0
357 356 355 0
415 409 364 0
364 409 408 0
364 408 360 0
363 364 360 0
359 363 360 0
359 360 358 0
411 412 361 0
361 412 362 0
365 362 412 0
365 412 417 0
415 364 371 0
415 371 422 0
369 371 363 0
363 371 364 0
417 418 365 0
365 418 366 0
366 420 367 0
418 420 366 0
367 423 368 0
420 423 367 0
371 370 422 0
370 423 422 0
370 368 423 0
370 371 369 0
425 431 381 0
379 372 381 0
372 425 381 0
372 426 425 0
427 372 373 0
427 426 372 0
428 373 374 0
428 427 373 0
429 374 375 0
429 428 374 0
430 375 376 0
430 429 375 0
437 430 382 0
430 377 382 0
430 376 377 0
378 384 377 0
377 384 382 0
383 384 378 0
381 431 380 0
431 385 380 0
431 439 385 0
381 380 379 0
437 382 386 0
437 386 442 0
389 382 384 0
386 382 389 0
387 389 383 0
383 389 384 0
392 390 440 0
390 439 440 0
390 385 439 0
445 392 440 0
444 442 386 0
393 447 388 0
447 386 388 0
386 389 388 0
447 444 386 0
388 389 387 0
450 391 396 0
450 390 391 0
450 390 392 0
446 450 392 0
395 446 396 0
395 445 446 0
395 391 392 0
445 395 392 0
449 447 393 0
449 393 394 0
394 397 449 0
449 397 453 0
450 451 396 0
395 396 451 0
456 395 451 0
398 395 456 0
457 454 401 0
454 453 401 0
453 400 401 0
453 397 400 0
399 398 403 0
398 459 403 0
398 456 459 0
403 402 399 0
457 401 406 0
457 406 462 0
405 406 400 0
400 406 401 0
459 460 403 0
403 460 402 0
460 404 402 0
460 461 404 0
407 404 461 0
407 461 464 0
462 406 410 0
462 410 467 0
408 410 405 0
405 410 406 0
413 411 465 0
411 464 465 0
411 407 464 0
470 413 465 0
471 466 414 0
468 416 414 0
468 414 466 0
416 468 467 0
416 467 410 0
415 416 410 0
409 415 410 0
409 410 408 0
413 412 411 0
472 419 417 0
472 417 412 0
470 472 412 0
413 470 412 0
419 472 471 0
414 419 471 0
421 419 414 0
424 414 416 0
421 414 424 0
422 424 415 0
415 424 416 0
419 418 417 0
418 419 420 0
420 419 421 0
420 421 423 0
423 421 424 0
423 424 422 0
432 431 425 0
426 433 425 0
425 433 432 0
427 434 426 0
426 434 433 0
428 435 427 0
427 435 434 0
429 436 428 0
428 436 435 0
430 438 429 0
429 438 436 0
437 438 430 0
441 439 432 0
432 439 431 0
433 474 478 0
441 433 478 0
432 433 441 0
474 433 434 0
474 434 475 0
475 434 435 0
475 435 476 0
476 435 436 0
476 436 477 0
443 482 477 0
436 443 477 0
438 443 436 0
442 443 437 0
437 443 438 0
441 440 439 0
445 440 441 0
478 445 441 0
485 445 478 0
484 482 443 0
491 484 448 0
448 484 444 0
484 443 444 0
443 442 444 0
447 448 444 0
486 493 446 0
446 493 450 0
446 445 485 0
446 485 486 0
491 448 452 0
491 452 500 0
449 455 447 0
455 448 447 0
455 452 448 0
453 455 449 0
493 494 450 0
450 494 451 0
456 451 494 0
456 494 502 0
500 452 458 0
500 458 505 0
457 458 454 0
458 455 454 0
458 452 455 0
454 455 453 0
502 459 456 0
507 459 502 0
505 458 463 0
505 463 511 0
462 463 457 0
457 463 458 0
507 508 459 0
459 508 460 0
460 510 461 0
508 510 460 0
464 461 510 0
464 510 513 0
511 463 469 0
511 469 518 0
467 469 462 0
462 469 463 0
513 514 464 0
464 514 465 0
516 473 470 0
465 516 470 0
514 516 465 0
466 471 473 0
516 466 473 0
519 466 516 0
469 468 518 0
468 519 518 0
468 466 519 0
468 469 467 0
473 472 470 0
472 473 471 0
479 478 474 0
475 480 474 0
474 480 479 0
476 481 475 0
475 481 480 0
477 483 476 0
476 483 481 0
482 483 477 0
487 485 479 0
479 485 478 0
488 479 480 0
487 479 488 0
489 480 481 0
488 480 489 0
490 481 483 0
489 481 490 0
484 492 482 0
492 483 482 0
492 490 483 0
491 492 484 0
495 493 486 0
485 487 486 0
487 495 486 0
487 496 495 0
497 487 488 0
496 487 497 0
498 488 489 0
497 488 498 0
499 489 490 0
498 489 499 0
501 490 492 0
499 490 501 0
500 501 491 0
491 501 492 0
495 494 493 0
494 495 502 0
495 503 502 0
495 496 503 0
497 521 523 0
503 497 523 0
496 497 503 0
521 497 498 0
521 498 522 0
504 525 522 0
498 504 522 0
499 504 498 0
506 499 501 0
504 499 506 0
505 506 500 0
500 506 501 0
509 507 503 0
503 507 502 0
503 523 528 0
503 528 509 0
527 525 504 0
512 533 527 0
504 512 527 0
506 512 504 0
511 512 505 0
505 512 506 0
509 508 507 0
528 529 509 0
529 508 509 0
529 510 508 0
531 515 513 0
510 531 513 0
529 531 510 0
534 517 515 0
534 515 531 0
517 534 533 0
512 517 533 0
520 517 512 0
518 520 511 0
511 520 512 0
515 514 513 0
514 515 516 0
516 515 517 0
516 517 519 0
519 517 520 0
519 520 518 0
524 523 521 0
522 526 521 0
521 526 524 0
525 526 522 0
530 528 524 0
524 528 523 0
532 524 526 0
530 524 532 0
527 535 525 0
535 526 525 0
535 532 526 0
533 535 527 0
530 529 528 0
529 530 531 0
531 530 532 0
531 532 534 0
534 532 535 0
534 535 533 0
