#!ascii version of /Users/gilles/git/nukkies/notebooks/data/KP6T_STh_L_dil.asc
740 1478
3.425324  -62.265324  -62.269913  0
3.509556  -62.505318  -62.293083  0
4.442859  -61.274303  -61.830616  0
4.933366  -61.655899  -61.914074  0
4.418292  -61.645130  -62.008968  0
4.052189  -61.478771  -61.937916  0
3.496783  -61.932568  -62.107121  0
3.718425  -61.626122  -61.964283  0
5.349404  -62.081158  -61.877693  0
4.936215  -62.176670  -62.001598  0
4.529330  -62.059158  -62.070133  0
3.711018  -62.274536  -62.268417  0
4.010395  -61.904293  -62.118050  0
3.226822  -62.170425  -62.137096  0
3.004296  -62.291946  -61.933765  0
5.459483  -62.631954  -61.891621  0
5.038013  -62.602016  -62.000294  0
4.594357  -62.569386  -62.074017  0
3.708649  -62.646797  -62.244732  0
4.084613  -62.508087  -62.161541  0
3.213994  -62.566864  -62.102791  0
3.479114  -62.806198  -62.154488  0
2.975682  -62.550110  -61.901497  0
5.478446  -63.173347  -61.922947  0
5.056167  -63.123089  -62.018749  0
4.604515  -63.090244  -62.048729  0
4.221095  -62.988464  -62.076607  0
3.735302  -63.124813  -62.024387  0
5.468359  -63.676712  -61.928677  0
5.057638  -63.630821  -62.036823  0
4.603861  -63.627773  -62.038101  0
4.093682  -63.573730  -61.961220  0
5.483895  -64.090103  -61.871983  0
5.075811  -64.092911  -61.995689  0
4.696235  -64.040375  -62.027897  0
4.239960  -64.197906  -61.884560  0
5.183197  -64.458672  -61.864525  0
4.673582  -64.514587  -61.884987  0
5.329061  -60.631214  -61.378052  0
5.019182  -60.549484  -61.421360  0
4.549639  -60.900269  -61.570988  0
4.750150  -60.629768  -61.435555  0
5.525828  -60.986015  -61.413567  0
4.867214  -61.199238  -61.767078  0
5.212672  -61.370052  -61.749920  0
5.109936  -60.948730  -61.573223  0
4.206534  -61.038071  -61.619926  0
3.990171  -61.223999  -61.702419  0
3.940468  -61.061714  -61.453941  0
3.731965  -61.405132  -61.766617  0
5.384795  -61.665821  -61.790207  0
5.573953  -61.834282  -61.744473  0
5.623004  -61.516659  -61.562714  0
3.382195  -61.612263  -61.684036  0
3.123720  -61.953815  -61.865906  0
5.744602  -62.163586  -61.681278  0
6.005786  -61.978607  -61.404430  0
2.901604  -62.124382  -61.630409  0
5.826859  -62.763248  -61.718754  0
6.083215  -62.465000  -61.461498  0
2.854863  -62.487064  -61.574696  0
2.994606  -62.809139  -61.735550  0
5.833284  -63.293552  -61.742008  0
6.124439  -62.977272  -61.488628  0
3.252354  -63.112141  -61.760319  0
3.455013  -63.496204  -61.703522  0
3.010606  -63.049965  -61.526680  0
5.795812  -63.772167  -61.742001  0
6.103196  -63.493473  -61.499928  0
3.673985  -63.668842  -61.798374  0
3.469162  -63.848648  -61.503807  0
5.737588  -64.071358  -61.734638  0
5.980850  -64.012993  -61.516983  0
5.600478  -64.362526  -61.700626  0
3.745665  -64.131081  -61.609863  0
3.947100  -64.512978  -61.644161  0
3.494757  -64.091454  -61.354187  0
5.329086  -64.625244  -61.738853  0
5.539020  -64.680969  -61.550587  0
5.051146  -64.854706  -61.653019  0
4.201837  -64.741814  -61.645168  0
4.551434  -64.927826  -61.661064  0
3.949876  -64.724014  -61.497013  0
5.088256  -65.160255  -61.356239  0
4.711388  -65.169861  -61.428818  0
5.817907  -59.637287  -60.805401  0
5.376820  -59.665733  -60.848335  0
5.463367  -60.419800  -61.235497  0
5.637435  -60.126759  -61.012711  0
5.198389  -60.318394  -61.254898  0
5.007101  -59.990368  -61.006073  0
4.796471  -60.339619  -61.249226  0
4.563601  -60.158348  -60.969521  0
5.699580  -60.694336  -61.194530  0
6.054986  -60.579632  -60.913422  0
4.371119  -60.532143  -61.124325  0
4.136456  -60.868729  -61.321793  0
6.363925  -61.073208  -60.846508  0
5.852683  -61.213058  -61.270008  0
6.036901  -61.005371  -61.057083  0
3.811893  -61.034134  -61.081070  0
3.629199  -61.278996  -61.387367  0
6.530729  -61.523441  -60.843456  0
5.987466  -61.615219  -61.299770  0
6.202476  -61.865356  -61.183971  0
6.212858  -61.473804  -61.063961  0
3.241866  -61.563442  -61.108414  0
3.013041  -61.847366  -61.406364  0
6.290560  -62.248856  -61.198162  0
6.490619  -61.954063  -60.948284  0
2.830101  -62.179504  -61.228741  0
6.350374  -62.723358  -61.217941  0
6.558111  -62.484081  -60.955528  0
2.795760  -62.519089  -61.123516  0
6.369217  -63.226711  -61.227230  0
6.591405  -62.982010  -60.962399  0
2.884279  -62.865524  -61.276009  0
3.046628  -63.182884  -61.243008  0
2.945288  -63.003338  -60.904495  0
6.325200  -63.745907  -61.233017  0
6.595779  -63.505440  -60.968742  0
3.253823  -63.534920  -61.259705  0
6.208922  -64.180107  -61.240669  0
6.534034  -64.082161  -60.973354  0
5.901227  -64.434685  -61.413811  0
3.361968  -63.948284  -61.103798  0
3.530850  -64.296310  -61.075230  0
6.606071  -64.476334  -60.841938  0
5.803539  -64.686333  -61.345459  0
6.172171  -64.598488  -61.089256  0
5.572064  -64.959709  -61.276222  0
3.783842  -64.575401  -61.338425  0
4.000103  -64.893219  -61.194218  0
5.315544  -65.250031  -61.102039  0
5.638666  -65.208618  -60.954590  0
4.926723  -65.345947  -61.044113  0
4.338891  -65.093246  -61.372936  0
4.535341  -65.291603  -61.134766  0
6.313676  -59.040443  -60.312603  0
6.010471  -59.397839  -60.646980  0
5.961569  -59.104404  -60.435520  0
5.549926  -59.291798  -60.580154  0
5.622334  -59.045959  -60.391811  0
6.137723  -59.650631  -60.710861  0
6.396278  -59.484848  -60.490692  0
6.006824  -59.888683  -60.818874  0
5.146357  -59.453953  -60.648479  0
4.976084  -59.665947  -60.776180  0
4.788021  -59.519302  -60.531631  0
4.546080  -59.832008  -60.632221  0
4.541744  -59.606449  -60.405643  0
6.698513  -60.066372  -60.443829  0
6.052485  -60.172859  -60.828140  0
6.264214  -60.378426  -60.733719  0
6.310659  -60.002270  -60.660908  0
4.226416  -60.210934  -60.625446  0
4.040952  -60.145256  -60.313236  0
7.025719  -60.568275  -60.357140  0
6.365899  -60.688614  -60.737431  0
6.595632  -60.915760  -60.661449  0
6.590559  -60.513214  -60.577389  0
4.102565  -60.535522  -60.641788  0
4.007456  -60.785530  -60.864517  0
7.332209  -61.060654  -60.301376  0
6.735559  -61.299599  -60.666000  0
6.911916  -60.982822  -60.500957  0
3.749622  -61.061836  -60.570389  0
3.504661  -61.302658  -60.818508  0
6.807522  -61.763302  -60.681942  0
7.130305  -61.486481  -60.450775  0
3.235572  -61.690620  -60.538055  0
2.972554  -61.907444  -60.901642  0
6.802587  -62.247219  -60.702873  0
7.098937  -62.012913  -60.466080  0
2.853816  -62.297718  -60.805782  0
3.014571  -62.073917  -60.534843  0
6.809746  -62.741062  -60.708344  0
7.059147  -62.500423  -60.464134  0
2.863927  -62.690678  -60.825920  0
2.993824  -62.849777  -60.593510  0
2.992373  -62.466034  -60.484299  0
6.827262  -63.248726  -60.717236  0
7.048189  -62.997753  -60.468807  0
3.116251  -63.217648  -60.719387  0
6.837624  -63.776196  -60.727047  0
7.069050  -63.513721  -60.480900  0
3.258984  -63.668930  -60.696377  0
6.831607  -64.254105  -60.715023  0
7.087118  -64.033951  -60.478836  0
3.362360  -64.062744  -60.651203  0
3.498512  -64.376289  -60.543476  0
6.782404  -64.541290  -60.697773  0
6.998102  -64.528648  -60.470089  0
6.578422  -64.823578  -60.663975  0
6.026051  -65.031860  -60.888859  0
3.717110  -64.652931  -60.837807  0
3.962853  -64.933060  -60.620140  0
6.627782  -65.119499  -60.337223  0
5.866977  -65.274551  -60.683830  0
6.264666  -65.193054  -60.519321  0
5.431251  -65.385666  -60.657803  0
4.973836  -65.416374  -60.594406  0
4.258033  -65.173279  -60.909782  0
4.597077  -65.340958  -60.732388  0
6.356795  -58.837975  -60.076691  0
6.576458  -58.712234  -59.825127  0
6.019519  -58.850258  -60.129543  0
5.633739  -58.915504  -60.165939  0
6.677031  -59.140263  -60.179520  0
7.022402  -59.011196  -59.878876  0
5.315068  -59.047672  -60.222633  0
4.991567  -59.277348  -60.301731  0
4.979536  -59.087036  -59.965534  0
4.633714  -59.461273  -60.243813  0
7.393239  -59.496952  -59.903778  0
6.857944  -59.702549  -60.285248  0
7.054578  -59.448105  -60.100060  0
4.360812  -59.733837  -60.131302  0
4.153384  -59.973316  -60.361092  0
7.656594  -60.050323  -59.907436  0
7.013860  -60.152485  -60.281101  0
7.251513  -60.405968  -60.205994  0
7.261855  -59.975838  -60.116394  0
4.011176  -60.046684  -60.239986  0
4.031511  -60.140560  -60.119736  0
4.093753  -59.992310  -60.124725  0
7.921390  -60.480629  -59.849777  0
7.372155  -60.717625  -60.216194  0
7.596136  -60.932240  -60.146278  0
7.582268  -60.533157  -60.063576  0
4.060378  -60.435188  -60.160278  0
3.937865  -60.801537  -60.353985  0
7.640634  -61.213932  -60.160919  0
7.902954  -61.053761  -59.959244  0
7.477359  -61.427223  -60.260292  0
3.781890  -61.204220  -60.048382  0
3.525783  -61.390297  -60.322876  0
7.999842  -61.630283  -59.905987  0
7.424693  -61.788376  -60.264400  0
7.716179  -61.526051  -60.107426  0
3.405547  -61.709885  -60.153938  0
3.597051  -61.549583  -59.994698  0
7.994438  -62.058842  -59.831264  0
7.363877  -62.251797  -60.236298  0
7.697120  -61.964832  -60.055973  0
3.243174  -62.132702  -60.206310  0
3.536897  -61.922958  -59.901642  0
7.304280  -62.744766  -60.219357  0
7.672151  -62.461937  -59.943485  0
3.208260  -62.771481  -60.253139  0
3.484756  -62.436920  -59.893440  0
7.285316  -63.251068  -60.229279  0
7.530145  -62.999573  -59.965874  0
3.296200  -63.330254  -60.260052  0
3.482084  -62.988705  -59.901463  0
7.323796  -63.762016  -60.224499  0
7.523839  -63.479809  -59.981018  0
3.366787  -63.816284  -60.270531  0
3.515859  -63.535679  -59.917213  0
7.366199  -64.293266  -60.134090  0
7.593862  -63.934093  -59.938873  0
3.418212  -64.156837  -60.303490  0
3.511253  -64.334717  -60.242477  0
3.610318  -64.142410  -59.996353  0
7.211059  -64.693413  -60.114548  0
6.924822  -64.912315  -60.254772  0
3.718621  -64.598747  -60.305676  0
3.967640  -64.869751  -60.260262  0
4.024416  -64.669647  -59.940956  0
6.779977  -65.180862  -59.971504  0
6.417301  -65.315598  -60.124908  0
5.939126  -65.384209  -60.275211  0
5.587467  -65.430122  -60.227436  0
5.228102  -65.377876  -60.165283  0
4.891998  -65.182976  -59.890457  0
4.271313  -65.102219  -60.357510  0
4.736023  -65.305618  -60.274727  0
4.483794  -65.026718  -59.943520  0
6.615861  -58.513931  -59.557487  0
6.834727  -58.652798  -59.660816  0
7.161087  -58.812054  -59.498882  0
6.379035  -58.540401  -59.474052  0
6.091911  -58.699524  -59.713154  0
5.688614  -58.800690  -59.841019  0
5.253798  -58.928234  -59.811752  0
7.361539  -59.122761  -59.732502  0
7.548341  -59.330235  -59.732109  0
7.615897  -59.161495  -59.503372  0
4.923040  -59.057899  -59.736618  0
5.046805  -59.049572  -59.476326  0
4.713357  -59.331917  -59.785118  0
7.770815  -59.653751  -59.690067  0
7.980600  -59.458855  -59.411182  0
4.431028  -59.716980  -59.694679  0
4.629517  -59.573055  -59.434914  0
7.938052  -60.124252  -59.744526  0
8.086791  -60.348804  -59.702278  0
8.176388  -60.064228  -59.516594  0
4.246732  -60.151306  -59.738541  0
4.510360  -59.877956  -59.395645  0
8.232100  -60.696579  -59.661449  0
8.509829  -60.525242  -59.391235  0
4.158034  -60.713165  -59.618240  0
3.981865  -60.897087  -59.879322  0
8.287263  -61.305244  -59.705547  0
8.572042  -61.039974  -59.459026  0
3.935832  -61.239838  -59.693043  0
4.078022  -61.079445  -59.545200  0
8.273782  -61.786938  -59.696117  0
8.573403  -61.549007  -59.483341  0
3.807576  -61.630581  -59.706753  0
4.065133  -61.452179  -59.437599  0
8.214148  -62.068783  -59.672195  0
8.467221  -62.005604  -59.466881  0
8.109766  -62.347042  -59.605339  0
3.762990  -62.176384  -59.640411  0
4.029749  -61.940849  -59.408302  0
7.868767  -62.820286  -59.624474  0
8.166009  -62.592735  -59.376568  0
3.742211  -62.702522  -59.629616  0
4.009532  -62.455246  -59.398266  0
7.705247  -63.241234  -59.753849  0
3.750964  -63.240589  -59.629715  0
4.012899  -62.975952  -59.396072  0
7.788302  -63.656860  -59.696533  0
8.010117  -63.623547  -59.417538  0
3.792457  -63.784222  -59.658222  0
4.089362  -63.560528  -59.399963  0
7.785808  -63.996639  -59.733074  0
7.974105  -64.001198  -59.466465  0
7.724041  -64.297958  -59.715630  0
4.448783  -64.056183  -59.322727  0
3.895909  -64.225761  -59.702663  0
4.133358  -64.450569  -59.633102  0
4.104639  -64.088837  -59.508514  0
7.464952  -64.646606  -59.765961  0
7.718247  -64.606651  -59.436306  0
7.130324  -64.966553  -59.749363  0
4.945793  -65.017754  -59.655392  0
4.922504  -64.671104  -59.402191  0
4.337786  -64.731552  -59.703140  0
4.676188  -64.889397  -59.664349  0
4.428982  -64.493599  -59.513718  0
6.824655  -65.212265  -59.521049  0
6.525535  -65.333588  -59.699017  0
6.182543  -65.392616  -59.850353  0
5.209624  -65.152351  -59.706890  0
5.710518  -65.329865  -59.774979  0
5.422866  -65.015938  -59.394722  0
6.542622  -58.470345  -59.347546  0
7.525473  -58.914600  -59.074001  0
6.777098  -58.544533  -59.394810  0
6.933780  -58.681469  -59.110153  0
6.405239  -58.541084  -59.186535  0
6.611972  -58.540764  -59.159813  0
6.111492  -58.668083  -59.216076  0
5.555584  -58.851696  -59.353149  0
7.870070  -59.150799  -59.259296  0
8.072456  -59.308018  -59.233810  0
8.082211  -59.188580  -59.031635  0
5.215926  -59.035892  -59.194275  0
5.449884  -59.056374  -58.945263  0
5.004311  -59.312855  -59.166885  0
8.301695  -59.639347  -59.210732  0
8.558758  -59.534683  -58.891903  0
4.762673  -59.703903  -59.157818  0
5.072140  -59.604843  -58.874516  0
9.010335  -60.011936  -58.889435  0
8.482018  -60.123146  -59.279621  0
8.700417  -60.394398  -59.207264  0
8.680628  -60.020100  -59.090725  0
4.662807  -59.940125  -59.163277  0
4.893986  -59.972649  -58.897301  0
4.581017  -60.218021  -59.173904  0
9.364516  -60.540047  -58.884510  0
8.813933  -60.798489  -59.238377  0
8.969957  -60.469849  -59.065140  0
4.400460  -60.627666  -59.265465  0
4.641024  -60.593922  -58.969585  0
9.542138  -61.058693  -58.868423  0
8.883739  -61.291981  -59.255325  0
9.157407  -60.971443  -59.063160  0
4.293451  -61.141582  -59.250202  0
4.580297  -60.970695  -58.950653  0
8.827898  -61.759033  -59.252155  0
9.245728  -61.500957  -58.999538  0
4.285400  -61.701607  -59.173058  0
4.543747  -61.458454  -58.929501  0
8.709772  -62.050022  -59.241913  0
9.010181  -62.006603  -59.001339  0
8.527018  -62.333015  -59.205952  0
4.269972  -62.216137  -59.165859  0
4.527896  -61.970634  -58.923756  0
8.322882  -62.596947  -59.191929  0
8.559636  -62.605778  -58.966049  0
8.214701  -62.852875  -59.207508  0
4.264245  -62.721928  -59.170338  0
4.517724  -62.476093  -58.931076  0
7.966238  -63.264160  -59.446922  0
8.108076  -63.460384  -59.274242  0
8.284850  -63.256950  -59.066349  0
4.300804  -63.236942  -59.182007  0
4.535795  -62.994732  -58.946678  0
8.230228  -63.729786  -59.088020  0
8.459812  -63.464314  -58.819477  0
4.382317  -63.645599  -59.205982  0
4.542170  -63.844505  -59.163635  0
4.647412  -63.605484  -59.000839  0
8.149212  -64.152969  -59.095291  0
7.954429  -64.394112  -59.291954  0
4.768359  -64.122795  -59.154503  0
5.015647  -64.414505  -59.151764  0
5.079950  -64.171982  -58.930069  0
7.806480  -64.666588  -59.013786  0
7.434370  -64.853226  -59.236588  0
7.019511  -65.073128  -59.195442  0
5.266632  -64.665443  -59.148746  0
5.519759  -64.903305  -59.160770  0
5.546644  -64.675133  -58.913952  0
6.732289  -65.201889  -59.154770  0
6.565298  -65.292305  -59.337646  0
6.425641  -65.172173  -59.004864  0
5.753294  -65.091423  -59.242928  0
6.189325  -65.292122  -59.387856  0
6.004822  -65.006866  -58.934803  0
7.877522  -58.996742  -58.754219  0
7.494888  -58.918171  -58.674187  0
7.067273  -58.847466  -58.737347  0
6.467443  -58.749931  -58.866020  0
5.880085  -58.887634  -58.882580  0
8.256288  -59.171421  -58.748398  0
8.576757  -59.333782  -58.478374  0
8.097063  -59.093952  -58.526184  0
7.699464  -59.029877  -58.436543  0
7.235631  -59.009418  -58.402481  0
6.717185  -59.017288  -58.426151  0
5.715823  -59.072403  -58.697781  0
6.087598  -59.091797  -58.512562  0
5.502763  -59.336216  -58.640877  0
8.905325  -59.649891  -58.723614  0
9.127598  -59.840145  -58.740143  0
9.181610  -59.696903  -58.528687  0
5.308739  -59.784935  -58.521397  0
5.618960  -59.546955  -58.335449  0
9.344226  -60.085213  -58.736866  0
9.567609  -60.359589  -58.732109  0
9.658769  -60.083508  -58.505299  0
5.116679  -60.241123  -58.541328  0
4.844443  -60.391300  -58.805176  0
9.755905  -60.668076  -58.683002  0
10.011893  -60.421326  -58.373493  0
4.822832  -60.786919  -58.721256  0
5.018880  -60.597389  -58.546124  0
9.805495  -61.058613  -58.711681  0
10.020334  -60.961929  -58.438110  0
9.730806  -61.389137  -58.668823  0
4.799391  -61.229206  -58.679829  0
5.036345  -60.986561  -58.444351  0
9.444376  -61.811646  -58.745430  0
9.781550  -61.688725  -58.440220  0
4.780407  -61.717892  -58.674007  0
5.018792  -61.466873  -58.416752  0
9.264540  -62.075073  -58.747433  0
9.545376  -62.052090  -58.447372  0
9.023707  -62.352581  -58.740910  0
4.771514  -62.219002  -58.681171  0
5.009941  -61.947857  -58.422703  0
8.809255  -62.617527  -58.728325  0
9.060796  -62.637657  -58.507721  0
8.644593  -62.890717  -58.756718  0
4.781004  -62.735321  -58.691498  0
5.031240  -62.461315  -58.428799  0
8.535991  -63.201725  -58.778843  0
8.638134  -63.317116  -58.627510  0
8.746098  -63.114143  -58.566925  0
4.826519  -63.259499  -58.725006  0
5.097767  -63.043716  -58.445816  0
8.623049  -63.526550  -58.503799  0
8.443501  -63.733662  -58.683971  0
5.370173  -63.484661  -58.328293  0
4.941833  -63.695560  -58.764091  0
5.181718  -63.952118  -58.673454  0
5.128892  -63.577015  -58.555759  0
8.281996  -64.070084  -58.633419  0
8.065414  -64.422409  -58.817444  0
5.362398  -64.270088  -58.717747  0
5.549430  -64.435333  -58.668766  0
5.524874  -64.094818  -58.463947  0
7.839369  -64.657021  -58.521076  0
7.537480  -64.831421  -58.670250  0
7.127625  -64.953438  -58.731327  0
6.723131  -65.059792  -58.802837  0
5.799678  -64.631760  -58.633308  0
6.263767  -64.875053  -58.576622  0
5.941074  -64.501442  -58.355022  0
9.058073  -59.434109  -58.071259  0
8.467719  -59.291702  -58.052933  0
7.993599  -59.200542  -58.166588  0
7.413941  -59.181152  -58.113262  0
6.969265  -59.176247  -58.147625  0
6.474292  -59.304867  -58.102135  0
5.917099  -59.387993  -58.262711  0
9.476748  -59.696819  -58.294956  0
9.712583  -59.823833  -58.271191  0
9.654948  -59.666035  -58.008266  0
6.568547  -59.523640  -57.797108  0
5.804875  -59.557121  -58.160976  0
6.110251  -59.596817  -57.958019  0
5.667994  -59.788940  -58.131527  0
9.919839  -59.995018  -58.206585  0
10.142593  -60.209824  -58.098862  0
10.016684  -59.918045  -57.888550  0
5.405324  -60.153805  -58.222042  0
5.652464  -60.109989  -57.958744  0
10.205073  -60.572807  -58.121964  0
5.265106  -60.643620  -58.236931  0
5.547325  -60.457489  -57.943756  0
10.201220  -61.039547  -58.024509  0
10.060384  -61.407490  -58.170765  0
10.156366  -61.292889  -57.864876  0
5.289762  -61.234818  -58.099625  0
5.515565  -60.882835  -57.875320  0
10.001984  -61.665199  -57.961788  0
10.123991  -61.562191  -57.868629  0
5.197619  -61.694332  -58.189934  0
9.737495  -62.231750  -58.013874  0
9.398683  -62.427074  -58.338528  0
5.272266  -62.138966  -58.127476  0
5.477062  -62.054764  -57.852436  0
9.305684  -62.645973  -58.282806  0
9.501131  -62.608765  -58.042198  0
9.099137  -62.911629  -58.274891  0
5.307837  -62.714405  -58.191025  0
5.516188  -62.466660  -57.915806  0
8.839192  -63.273247  -58.359661  0
9.061514  -63.234589  -57.917255  0
5.369168  -63.134010  -58.225597  0
5.503675  -63.355877  -58.170151  0
5.617580  -63.095428  -57.991734  0
8.767509  -63.506630  -58.142124  0
8.484255  -63.798813  -58.199001  0
8.647213  -63.638268  -57.950623  0
5.688643  -63.710949  -58.135239  0
5.918420  -63.542164  -57.853275  0
8.252808  -64.102844  -58.149189  0
8.018833  -64.372658  -58.212654  0
8.110779  -64.186348  -57.940788  0
5.845421  -64.196632  -58.205910  0
6.023917  -64.396584  -58.163578  0
6.099601  -64.139114  -57.963810  0
7.734438  -64.628860  -58.142380  0
7.583627  -64.772301  -58.293896  0
7.407609  -64.678360  -57.983376  0
7.237575  -64.835419  -58.285625  0
6.966815  -64.658524  -57.928539  0
6.251143  -64.588837  -58.191433  0
6.723592  -64.831589  -58.314064  0
6.520494  -64.508247  -57.928204  0
9.390610  -59.476021  -57.703709  0
9.013979  -59.400764  -57.674751  0
8.607265  -59.372234  -57.739647  0
8.098210  -59.355503  -57.766792  0
7.558710  -59.368961  -57.789722  0
6.987705  -59.387913  -57.842373  0
9.755656  -59.703835  -57.594280  0
10.054383  -59.975777  -57.620987  0
9.494454  -59.549229  -57.477257  0
9.210607  -59.515663  -57.434322  0
8.764309  -59.506149  -57.420586  0
8.265141  -59.523888  -57.431675  0
7.732532  -59.562172  -57.452000  0
6.795698  -59.574406  -57.652031  0
7.131579  -59.625980  -57.514286  0
6.507828  -59.798870  -57.593987  0
5.962042  -59.934517  -57.808167  0
10.200648  -60.226234  -57.843700  0
10.128311  -60.285801  -57.557484  0
6.489468  -60.178650  -57.374775  0
5.836741  -60.289074  -57.730106  0
6.160296  -60.122112  -57.580688  0
10.240773  -60.591938  -57.822376  0
10.210870  -60.914845  -57.789513  0
10.159863  -60.646637  -57.592220  0
6.452262  -60.525509  -57.250614  0
5.766642  -60.673618  -57.674725  0
6.105305  -60.455132  -57.491367  0
10.093017  -61.068996  -57.589527  0
10.107422  -61.413006  -57.582340  0
5.714380  -60.955219  -57.651215  0
6.032115  -60.918629  -57.402531  0
5.638752  -61.264900  -57.676830  0
10.156464  -61.495251  -57.754185  0
10.098057  -61.734642  -57.721703  0
5.431123  -61.704605  -57.881836  0
5.555371  -61.891560  -57.719872  0
5.706962  -61.717907  -57.541656  0
9.958973  -62.047096  -57.637703  0
5.689472  -62.170139  -57.634430  0
5.913556  -62.009708  -57.344978  0
9.727890  -62.496780  -57.572033  0
9.412426  -62.882221  -57.749821  0
5.794137  -62.732063  -57.695129  0
5.980556  -62.488209  -57.409607  0
9.254088  -63.134010  -57.452530  0
8.992280  -63.346199  -57.530800  0
8.787997  -63.496674  -57.755402  0
5.891179  -63.165497  -57.739246  0
6.031218  -63.386963  -57.675240  0
6.122763  -63.126793  -57.484417  0
8.452343  -63.700031  -57.624489  0
8.159333  -63.976349  -57.734535  0
6.218899  -63.729210  -57.639759  0
6.481936  -63.603546  -57.347027  0
7.865248  -64.208061  -57.716053  0
7.629284  -64.455215  -57.828716  0
7.415866  -64.184204  -57.463341  0
7.179868  -64.438568  -57.664234  0
6.891794  -64.040428  -57.384613  0
6.410915  -64.187111  -57.716637  0
6.741543  -64.353432  -57.654266  0
6.537013  -64.014603  -57.523792  0
9.490890  -59.777584  -57.257996  0
8.999151  -59.743469  -57.150444  0
8.484175  -59.740219  -57.129932  0
7.951415  -59.779720  -57.140591  0
7.424876  -59.837166  -57.198151  0
6.927081  -59.952530  -57.289040  0
9.876397  -60.016861  -57.360657  0
9.650853  -60.165337  -57.094543  0
9.242602  -60.136017  -56.909313  0
8.715631  -60.027691  -56.868488  0
8.189653  -60.029095  -56.864525  0
7.613389  -60.117699  -56.901901  0
6.816017  -60.276249  -57.144436  0
7.180177  -60.108120  -57.061962  0
9.936524  -60.519104  -57.271870  0
9.577666  -60.582256  -56.878506  0
6.731138  -60.512375  -57.078587  0
7.075858  -60.462555  -56.898594  0
6.557511  -60.814186  -57.053196  0
9.871463  -61.091980  -57.071510  0
10.042224  -61.464523  -57.172344  0
9.609689  -60.931992  -56.771942  0
6.232965  -61.177326  -57.140976  0
6.521041  -61.209766  -56.904808  0
5.937392  -61.385956  -57.337280  0
10.124940  -61.575893  -57.363544  0
10.028603  -61.798542  -57.302704  0
10.057872  -61.617325  -57.139313  0
6.515763  -61.544815  -56.823509  0
5.949990  -61.692059  -57.269787  0
6.106071  -61.873726  -57.131443  0
6.212834  -61.542259  -57.059204  0
9.859626  -62.222507  -57.217911  0
9.679751  -62.346237  -56.890228  0
6.170871  -62.253696  -57.140282  0
6.397766  -61.955471  -56.900040  0
9.724953  -62.519146  -57.149921  0
9.488047  -62.790989  -57.161152  0
9.618391  -62.573284  -56.959305  0
6.273603  -62.778034  -57.185112  0
6.467246  -62.526978  -56.914722  0
9.225311  -63.088139  -57.061028  0
9.013359  -63.286865  -57.171406  0
9.007224  -63.171677  -56.845535  0
8.645648  -63.475990  -57.257980  0
6.389924  -63.207985  -57.221130  0
6.542666  -63.399025  -57.154964  0
6.607647  -63.133884  -56.974442  0
8.248783  -63.627502  -57.162075  0
8.088733  -63.793251  -57.325706  0
7.866943  -63.659168  -56.966984  0
7.711336  -63.924576  -57.282444  0
7.403252  -63.639065  -56.884392  0
6.762914  -63.607410  -57.126659  0
7.181797  -63.844387  -57.137825  0
6.975783  -63.485081  -56.887901  0
8.871896  -60.378387  -56.656757  0
8.392828  -60.322464  -56.643005  0
7.900636  -60.342976  -56.657261  0
7.497530  -60.428787  -56.697456  0
9.230168  -60.519676  -56.684132  0
8.975949  -60.776134  -56.515217  0
8.513872  -60.689346  -56.484226  0
8.025047  -60.659592  -56.494961  0
7.254812  -60.671326  -56.660690  0
7.585649  -60.665863  -56.548649  0
6.897820  -60.898567  -56.769119  0
9.365315  -60.863754  -56.625061  0
9.563135  -61.226578  -56.684357  0
9.131950  -61.261597  -56.445057  0
8.606956  -61.139347  -56.364941  0
8.077749  -61.075226  -56.378307  0
7.597503  -61.035027  -56.446594  0
6.819287  -61.295712  -56.680607  0
7.206487  -60.986645  -56.567963  0
9.854778  -61.560890  -56.918167  0
9.758505  -61.973896  -56.873188  0
9.451460  -61.694431  -56.560631  0
9.122800  -61.653435  -56.366032  0
8.742875  -61.652027  -56.259209  0
8.115469  -61.591358  -56.243179  0
7.582839  -61.500336  -56.362160  0
6.758501  -61.733837  -56.654018  0
7.154004  -61.411716  -56.504887  0
9.503924  -62.131561  -56.631435  0
9.124550  -62.085789  -56.371468  0
7.554210  -62.018024  -56.244003  0
6.739399  -62.253365  -56.654655  0
7.118664  -61.917377  -56.454502  0
9.409464  -62.496380  -56.697876  0
9.099928  -62.853527  -56.637333  0
9.135906  -62.502636  -56.443310  0
6.771513  -62.791569  -56.684223  0
7.145642  -62.531063  -56.388973  0
8.796081  -63.114464  -56.574310  0
8.699238  -63.306419  -56.822906  0
8.407880  -63.160763  -56.441673  0
8.194657  -63.424610  -56.765873  0
7.906718  -63.150146  -56.354538  0
7.630406  -63.403030  -56.618805  0
7.399043  -63.019756  -56.364555  0
6.875399  -63.178032  -56.723000  0
7.181110  -63.325054  -56.636745  0
7.028407  -63.002998  -56.535103  0
8.325608  -61.949738  -56.102753  0
7.936097  -61.982750  -56.116539  0
8.696271  -62.081287  -56.152851  0
8.402463  -62.316059  -56.038628  0
7.714666  -62.218239  -56.089798  0
8.020738  -62.238541  -56.022350  0
7.474524  -62.396160  -56.162098  0
8.809551  -62.489880  -56.231518  0
8.638436  -62.885578  -56.292511  0
8.431254  -62.639008  -56.071594  0
8.194381  -62.891636  -56.145889  0
8.076479  -62.567909  -56.008438  0
7.451705  -62.673069  -56.178024  0
7.757801  -62.819408  -56.124386  0
7.717563  -62.490093  -56.050148  0
6 11 0 0
0 13 6 0
0 11 1 0
1 11 18 0
13 0 20 0
20 0 1 0
18 21 1 0
1 21 20 0
40 43 2 0
2 46 40 0
44 50 3 0
44 3 43 0
3 2 43 0
3 4 2 0
46 2 47 0
2 5 47 0
2 4 5 0
7 49 5 0
5 49 47 0
7 53 49 0
51 55 8 0
51 8 50 0
8 3 50 0
8 9 3 0
3 10 4 0
3 9 10 0
4 12 5 0
4 10 12 0
12 11 6 0
7 12 6 0
5 12 7 0
14 54 13 0
13 54 6 0
54 53 6 0
53 7 6 0
14 57 54 0
8 55 15 0
15 55 58 0
8 16 9 0
8 15 16 0
9 17 10 0
9 16 17 0
10 19 12 0
10 17 19 0
19 18 11 0
19 11 12 0
20 22 14 0
20 14 13 0
57 14 60 0
60 14 22 0
15 58 23 0
23 58 62 0
15 24 16 0
15 23 24 0
16 25 17 0
16 24 25 0
17 26 19 0
17 25 26 0
27 21 18 0
19 27 18 0
26 27 19 0
27 64 21 0
21 64 20 0
64 61 20 0
61 22 20 0
22 61 60 0
23 62 28 0
28 62 67 0
23 29 24 0
23 28 29 0
24 30 25 0
24 29 30 0
25 31 26 0
25 30 31 0
65 27 69 0
27 31 69 0
27 26 31 0
27 65 64 0
28 67 32 0
32 67 71 0
28 33 29 0
28 32 33 0
29 34 30 0
29 33 34 0
30 35 31 0
30 34 35 0
69 31 74 0
74 31 35 0
71 73 32 0
77 36 73 0
36 32 73 0
36 33 32 0
33 37 34 0
33 36 37 0
75 35 80 0
35 37 80 0
35 34 37 0
35 75 74 0
77 79 36 0
36 79 37 0
37 79 81 0
37 81 80 0
87 93 38 0
39 89 38 0
38 89 87 0
41 91 39 0
39 91 89 0
41 95 91 0
38 93 42 0
42 93 98 0
38 45 39 0
38 42 45 0
45 43 40 0
41 45 40 0
39 45 41 0
48 96 46 0
46 96 40 0
96 95 40 0
95 41 40 0
48 100 96 0
42 98 52 0
52 98 103 0
52 50 44 0
45 52 44 0
42 52 45 0
45 44 43 0
47 48 46 0
101 100 48 0
47 101 48 0
49 101 47 0
49 53 101 0
101 53 106 0
104 108 56 0
104 56 103 0
103 56 52 0
56 55 52 0
55 51 52 0
52 51 50 0
107 106 53 0
107 53 54 0
54 57 107 0
107 57 110 0
56 108 59 0
59 108 111 0
59 58 55 0
59 55 56 0
60 110 57 0
60 113 110 0
59 111 63 0
63 111 114 0
63 62 58 0
63 58 59 0
64 66 61 0
66 116 61 0
116 60 61 0
116 113 60 0
63 114 68 0
68 114 119 0
68 67 62 0
68 62 63 0
69 70 65 0
70 121 65 0
65 121 64 0
121 117 64 0
117 66 64 0
66 117 116 0
68 119 72 0
72 119 122 0
72 71 67 0
72 67 68 0
74 76 70 0
74 70 69 0
121 70 125 0
125 70 76 0
122 124 72 0
124 128 78 0
124 78 73 0
72 124 73 0
71 72 73 0
78 77 73 0
80 82 75 0
82 131 75 0
75 131 74 0
131 126 74 0
126 76 74 0
76 126 125 0
128 130 78 0
130 133 83 0
130 83 79 0
78 130 79 0
77 78 79 0
84 81 79 0
84 79 83 0
84 136 81 0
81 136 80 0
136 132 80 0
132 82 80 0
82 132 131 0
133 135 83 0
83 135 84 0
84 135 137 0
84 137 136 0
139 143 85 0
86 141 85 0
85 141 139 0
86 146 141 0
143 145 85 0
152 88 145 0
88 85 145 0
88 86 85 0
146 86 147 0
86 90 147 0
86 88 90 0
92 149 90 0
90 149 147 0
92 155 149 0
153 158 94 0
153 94 152 0
152 94 88 0
94 93 88 0
93 87 88 0
88 87 89 0
88 89 90 0
90 89 91 0
90 91 92 0
91 95 92 0
95 155 92 0
95 161 155 0
159 164 97 0
159 97 158 0
97 94 158 0
97 99 94 0
99 98 93 0
99 93 94 0
162 161 95 0
162 95 96 0
96 100 162 0
162 100 166 0
97 164 102 0
102 164 168 0
97 105 99 0
97 102 105 0
105 103 98 0
105 98 99 0
167 166 100 0
167 100 101 0
101 106 167 0
167 106 170 0
102 168 109 0
109 168 172 0
109 108 104 0
105 109 104 0
102 109 105 0
105 104 103 0
171 170 106 0
171 106 107 0
107 110 171 0
171 110 174 0
109 172 112 0
112 172 176 0
112 111 108 0
112 108 109 0
113 174 110 0
113 178 174 0
112 176 115 0
115 176 181 0
115 114 111 0
115 111 112 0
183 179 118 0
179 178 118 0
178 116 118 0
178 113 116 0
115 181 120 0
120 181 184 0
120 119 114 0
120 114 115 0
183 118 117 0
121 183 117 0
186 183 121 0
117 118 116 0
120 184 123 0
123 184 187 0
123 122 119 0
123 119 120 0
125 186 121 0
125 189 186 0
123 187 127 0
127 187 191 0
129 124 122 0
123 129 122 0
127 129 123 0
129 128 124 0
195 190 126 0
195 126 131 0
125 126 189 0
189 126 190 0
191 193 127 0
127 193 129 0
129 193 194 0
194 198 134 0
194 134 130 0
129 194 130 0
128 129 130 0
134 133 130 0
202 196 132 0
202 132 136 0
131 132 195 0
195 132 196 0
198 200 134 0
134 200 133 0
200 135 133 0
200 201 135 0
135 203 137 0
201 203 135 0
136 137 202 0
202 137 203 0
204 208 138 0
140 206 138 0
138 206 204 0
142 207 140 0
140 207 206 0
142 210 207 0
138 208 144 0
144 208 215 0
144 143 139 0
140 144 139 0
138 144 140 0
140 139 141 0
140 141 142 0
148 211 146 0
146 211 141 0
211 210 141 0
210 142 141 0
150 213 148 0
148 213 211 0
150 217 213 0
144 215 151 0
151 215 220 0
154 145 143 0
144 154 143 0
151 154 144 0
154 152 145 0
147 148 146 0
148 147 149 0
148 149 150 0
156 218 155 0
155 218 149 0
218 217 149 0
217 150 149 0
156 223 218 0
221 227 157 0
221 157 220 0
157 151 220 0
157 160 151 0
160 158 153 0
154 160 153 0
151 160 154 0
154 153 152 0
230 224 156 0
155 230 156 0
161 230 155 0
156 224 223 0
228 232 163 0
228 163 227 0
163 157 227 0
163 165 157 0
165 164 159 0
160 165 159 0
157 165 160 0
160 159 158 0
231 230 161 0
231 161 162 0
162 166 231 0
231 166 235 0
232 234 163 0
238 169 234 0
169 163 234 0
169 165 163 0
169 168 164 0
169 164 165 0
236 235 166 0
236 166 167 0
167 170 236 0
236 170 240 0
169 238 173 0
173 238 243 0
173 172 168 0
173 168 169 0
170 171 175 0
245 170 175 0
240 170 245 0
174 175 171 0
173 243 177 0
177 243 247 0
177 176 172 0
177 172 173 0
245 175 180 0
245 180 249 0
178 180 174 0
174 180 175 0
177 247 182 0
182 247 251 0
182 181 176 0
182 176 177 0
249 180 179 0
183 249 179 0
253 249 183 0
179 180 178 0
182 251 185 0
185 251 255 0
185 184 181 0
185 181 182 0
186 253 183 0
186 257 253 0
185 255 188 0
188 255 259 0
188 187 184 0
188 184 185 0
189 257 186 0
189 261 257 0
188 259 192 0
192 259 264 0
192 191 187 0
192 187 188 0
266 262 190 0
266 190 195 0
189 190 261 0
261 190 262 0
264 265 192 0
265 269 197 0
265 197 193 0
192 265 193 0
191 192 193 0
199 194 193 0
199 193 197 0
199 198 194 0
275 267 196 0
275 196 202 0
195 196 266 0
266 196 267 0
269 270 197 0
197 270 199 0
199 270 271 0
199 271 198 0
271 200 198 0
271 272 200 0
200 273 201 0
272 273 200 0
201 276 203 0
273 276 201 0
202 203 275 0
275 203 276 0
278 279 205 0
205 281 278 0
280 285 209 0
280 209 279 0
279 209 205 0
209 208 205 0
208 204 205 0
282 281 205 0
204 282 205 0
206 282 204 0
283 206 207 0
283 282 206 0
212 284 210 0
284 207 210 0
284 283 207 0
212 288 284 0
286 291 214 0
286 214 285 0
214 209 285 0
214 216 209 0
216 215 208 0
216 208 209 0
211 212 210 0
290 288 212 0
211 290 212 0
213 290 211 0
213 217 290 0
290 217 293 0
214 291 219 0
219 291 295 0
214 222 216 0
214 219 222 0
222 220 215 0
222 215 216 0
217 218 225 0
298 217 225 0
293 217 298 0
223 225 218 0
296 300 226 0
296 226 295 0
226 219 295 0
226 229 219 0
229 227 221 0
222 229 221 0
219 229 222 0
222 221 220 0
298 225 224 0
230 298 224 0
302 298 230 0
224 225 223 0
226 300 233 0
233 300 304 0
233 232 228 0
229 233 228 0
226 233 229 0
229 228 227 0
303 302 230 0
303 230 231 0
231 235 303 0
303 235 306 0
233 304 237 0
237 304 308 0
239 234 232 0
233 239 232 0
237 239 233 0
239 238 234 0
235 236 241 0
310 235 241 0
306 235 310 0
240 241 236 0
237 308 242 0
242 308 312 0
237 244 239 0
237 242 244 0
244 243 238 0
244 238 239 0
310 241 246 0
310 246 315 0
245 246 240 0
240 246 241 0
312 314 242 0
317 248 314 0
248 242 314 0
248 244 242 0
248 247 243 0
248 243 244 0
315 246 250 0
315 250 319 0
249 250 245 0
245 250 246 0
248 317 252 0
252 317 321 0
252 251 247 0
252 247 248 0
319 250 254 0
319 254 322 0
253 254 249 0
249 254 250 0
252 321 256 0
256 321 324 0
256 255 251 0
256 251 252 0
322 254 258 0
322 258 326 0
257 258 253 0
253 258 254 0
256 324 260 0
260 324 328 0
260 259 255 0
260 255 256 0
326 258 263 0
326 263 332 0
261 263 257 0
257 263 258 0
328 330 260 0
259 260 330 0
335 259 330 0
264 259 335 0
340 333 268 0
268 333 332 0
268 332 263 0
266 268 263 0
262 266 263 0
262 263 261 0
335 337 264 0
264 337 265 0
269 265 337 0
269 337 343 0
346 338 274 0
341 277 274 0
341 274 338 0
277 341 340 0
277 340 268 0
275 277 268 0
267 275 268 0
267 268 266 0
343 344 269 0
269 344 270 0
270 345 271 0
344 345 270 0
271 347 272 0
345 347 271 0
274 273 346 0
273 347 346 0
273 272 347 0
273 274 276 0
276 274 277 0
276 277 275 0
349 351 278 0
278 351 279 0
278 281 349 0
349 281 353 0
350 357 287 0
285 280 287 0
280 350 287 0
280 352 350 0
280 279 351 0
280 351 352 0
355 353 281 0
355 281 282 0
356 282 283 0
356 355 282 0
360 356 289 0
356 284 289 0
356 283 284 0
288 289 284 0
358 363 292 0
358 292 357 0
357 292 287 0
292 291 287 0
291 286 287 0
287 286 285 0
362 360 289 0
365 362 294 0
294 362 290 0
362 289 290 0
289 288 290 0
293 294 290 0
292 363 297 0
297 363 368 0
297 295 291 0
297 291 292 0
365 294 299 0
365 299 371 0
298 299 293 0
293 299 294 0
369 375 301 0
369 301 368 0
368 301 297 0
301 300 297 0
300 296 297 0
297 296 295 0
373 371 299 0
299 298 373 0
298 377 373 0
298 302 377 0
301 375 305 0
305 375 380 0
305 304 300 0
305 300 301 0
302 303 307 0
382 302 307 0
377 302 382 0
306 307 303 0
305 380 309 0
309 380 384 0
309 308 304 0
309 304 305 0
382 307 311 0
382 311 386 0
310 311 306 0
306 311 307 0
309 384 313 0
313 384 388 0
313 312 308 0
313 308 309 0
386 311 316 0
386 316 391 0
315 316 310 0
310 316 311 0
388 390 313 0
390 393 318 0
390 318 314 0
313 390 314 0
312 313 314 0
318 317 314 0
391 316 320 0
391 320 396 0
319 320 315 0
315 320 316 0
393 395 318 0
317 318 395 0
398 317 395 0
321 317 398 0
396 320 323 0
396 323 401 0
322 323 319 0
319 323 320 0
399 403 325 0
398 399 325 0
324 398 325 0
321 398 324 0
401 323 327 0
401 327 405 0
326 327 322 0
322 327 323 0
325 403 329 0
329 403 408 0
329 328 324 0
329 324 325 0
410 406 331 0
331 406 405 0
327 331 405 0
334 331 327 0
332 334 326 0
326 334 327 0
408 409 329 0
409 413 336 0
409 336 330 0
329 409 330 0
328 329 330 0
336 335 330 0
416 411 339 0
339 411 410 0
331 339 410 0
342 339 331 0
340 342 333 0
342 334 333 0
342 331 334 0
333 334 332 0
413 414 336 0
336 414 335 0
414 337 335 0
414 415 337 0
343 337 415 0
343 415 419 0
422 417 348 0
348 417 416 0
348 416 339 0
346 348 339 0
338 346 339 0
338 339 341 0
341 339 342 0
341 342 340 0
419 420 343 0
343 420 344 0
344 423 345 0
420 423 344 0
348 347 422 0
347 423 422 0
347 345 423 0
347 348 346 0
354 351 349 0
353 354 349 0
425 430 359 0
357 350 359 0
350 425 359 0
350 426 425 0
427 350 352 0
427 426 350 0
352 351 354 0
428 352 354 0
427 352 428 0
428 354 353 0
355 428 353 0
429 428 355 0
436 429 361 0
429 356 361 0
429 355 356 0
360 361 356 0
431 439 364 0
431 364 430 0
430 364 359 0
364 363 359 0
363 358 359 0
359 358 357 0
438 436 361 0
442 438 366 0
366 438 362 0
438 361 362 0
361 360 362 0
365 366 362 0
440 444 367 0
440 367 439 0
367 364 439 0
367 370 364 0
370 368 363 0
370 363 364 0
442 366 372 0
442 372 447 0
371 372 365 0
365 372 366 0
445 449 374 0
445 374 444 0
374 367 444 0
374 376 367 0
376 375 369 0
370 376 369 0
367 376 370 0
370 369 368 0
448 447 372 0
451 448 378 0
378 448 373 0
448 372 373 0
372 371 373 0
377 378 373 0
374 449 379 0
379 449 453 0
374 381 376 0
374 379 381 0
381 380 375 0
381 375 376 0
451 378 383 0
451 383 456 0
382 383 377 0
377 383 378 0
453 455 379 0
458 385 455 0
385 379 455 0
385 381 379 0
385 384 380 0
385 380 381 0
456 383 387 0
456 387 460 0
386 387 382 0
382 387 383 0
385 458 389 0
389 458 462 0
389 388 384 0
389 384 385 0
460 387 392 0
460 392 465 0
391 392 386 0
386 392 387 0
462 464 389 0
464 467 394 0
464 394 390 0
389 464 390 0
388 389 390 0
394 393 390 0
465 392 397 0
465 397 470 0
396 397 391 0
391 397 392 0
467 469 394 0
469 472 400 0
469 400 395 0
394 469 395 0
393 394 395 0
400 398 395 0
470 397 402 0
470 402 475 0
401 402 396 0
396 402 397 0
473 477 404 0
473 404 472 0
472 404 400 0
404 403 400 0
403 399 400 0
400 399 398 0
475 402 407 0
475 407 480 0
405 407 401 0
401 407 402 0
477 478 404 0
403 404 478 0
483 403 478 0
408 403 483 0
485 481 412 0
412 481 480 0
412 480 407 0
410 412 407 0
406 410 407 0
406 407 405 0
483 484 408 0
408 484 409 0
413 409 484 0
413 484 488 0
492 486 418 0
418 486 485 0
418 485 412 0
416 418 412 0
411 416 412 0
411 412 410 0
488 489 413 0
413 489 414 0
414 490 415 0
489 490 414 0
491 421 419 0
415 491 419 0
490 491 415 0
493 424 421 0
493 421 491 0
424 493 492 0
424 492 418 0
422 424 418 0
417 422 418 0
417 418 416 0
421 420 419 0
420 421 423 0
423 421 424 0
423 424 422 0
432 430 425 0
426 433 425 0
425 433 432 0
427 434 426 0
426 434 433 0
428 435 427 0
427 435 434 0
429 437 428 0
428 437 435 0
436 437 429 0
495 502 441 0
439 431 441 0
431 495 441 0
431 496 495 0
431 430 432 0
497 431 432 0
496 431 497 0
497 432 433 0
497 433 498 0
498 433 434 0
498 434 499 0
499 434 435 0
499 435 500 0
500 435 437 0
500 437 501 0
506 501 443 0
443 501 438 0
501 437 438 0
437 436 438 0
442 443 438 0
503 509 446 0
503 446 502 0
502 446 441 0
446 444 441 0
444 440 441 0
441 440 439 0
508 506 443 0
443 442 508 0
442 512 508 0
442 447 512 0
510 514 450 0
510 450 509 0
509 450 446 0
450 449 446 0
449 445 446 0
446 445 444 0
447 448 452 0
515 447 452 0
512 447 515 0
451 452 448 0
450 514 454 0
454 514 517 0
454 453 449 0
454 449 450 0
515 452 457 0
515 457 520 0
456 457 451 0
451 457 452 0
517 518 454 0
518 522 459 0
518 459 455 0
454 518 455 0
453 454 455 0
459 458 455 0
520 457 461 0
520 461 524 0
460 461 456 0
456 461 457 0
459 522 463 0
463 522 525 0
463 462 458 0
463 458 459 0
524 461 466 0
524 466 527 0
465 466 460 0
460 466 461 0
525 526 463 0
526 529 468 0
526 468 464 0
463 526 464 0
462 463 464 0
468 467 464 0
527 466 471 0
527 471 532 0
470 471 465 0
465 471 466 0
529 531 468 0
531 534 474 0
531 474 469 0
468 531 469 0
467 468 469 0
474 472 469 0
532 471 476 0
532 476 536 0
475 476 470 0
470 476 471 0
474 534 473 0
534 477 473 0
534 539 477 0
474 473 472 0
542 537 479 0
479 537 536 0
476 479 536 0
482 479 476 0
480 482 475 0
475 482 476 0
539 540 477 0
477 540 478 0
483 478 540 0
483 540 544 0
542 479 487 0
542 487 547 0
485 487 481 0
487 482 481 0
487 479 482 0
481 482 480 0
544 545 483 0
483 545 484 0
488 484 545 0
488 545 550 0
555 548 494 0
494 548 547 0
494 547 487 0
492 494 487 0
486 492 487 0
486 487 485 0
550 551 488 0
488 551 489 0
489 553 490 0
551 553 489 0
490 556 491 0
553 556 490 0
494 493 555 0
493 556 555 0
493 491 556 0
493 494 492 0
558 564 504 0
502 495 504 0
495 558 504 0
495 559 558 0
560 495 496 0
560 559 495 0
561 496 497 0
561 560 496 0
562 497 498 0
562 561 497 0
563 498 499 0
563 562 498 0
571 563 505 0
563 500 505 0
563 499 500 0
501 507 500 0
500 507 505 0
506 507 501 0
565 575 511 0
565 511 564 0
564 511 504 0
511 509 504 0
509 503 504 0
504 503 502 0
573 571 505 0
573 505 507 0
573 507 574 0
578 574 513 0
513 574 508 0
574 507 508 0
507 506 508 0
512 513 508 0
511 575 510 0
575 514 510 0
575 580 514 0
511 510 509 0
578 513 516 0
578 516 584 0
515 516 512 0
512 516 513 0
519 517 581 0
517 580 581 0
517 514 580 0
586 519 581 0
584 516 521 0
584 521 588 0
520 521 515 0
515 521 516 0
591 518 523 0
591 517 518 0
591 517 519 0
587 591 519 0
522 587 523 0
522 586 587 0
522 518 519 0
586 522 519 0
590 588 521 0
521 520 590 0
520 593 590 0
520 524 593 0
591 592 523 0
522 523 592 0
596 522 592 0
525 522 596 0
597 594 528 0
594 593 528 0
593 527 528 0
593 524 527 0
526 525 530 0
525 599 530 0
525 596 599 0
530 529 526 0
597 528 533 0
597 533 601 0
532 533 527 0
527 533 528 0
599 600 530 0
600 603 535 0
600 535 531 0
530 600 531 0
529 530 531 0
535 534 531 0
601 533 538 0
601 538 606 0
536 538 532 0
532 538 533 0
603 604 535 0
539 534 535 0
605 539 535 0
604 605 535 0
539 605 541 0
609 541 605 0
611 607 543 0
543 607 606 0
543 606 538 0
542 543 538 0
537 542 538 0
537 538 536 0
541 540 539 0
610 546 544 0
610 544 540 0
609 610 540 0
541 609 540 0
613 546 610 0
611 543 549 0
611 549 618 0
547 549 542 0
542 549 543 0
546 545 544 0
614 552 550 0
614 550 545 0
613 614 545 0
546 613 545 0
616 554 552 0
616 552 614 0
619 557 554 0
619 554 616 0
557 619 618 0
557 618 549 0
555 557 549 0
548 555 549 0
548 549 547 0
552 551 550 0
551 552 553 0
553 552 554 0
553 554 556 0
556 554 557 0
556 557 555 0
566 564 558 0
559 567 558 0
558 567 566 0
560 568 559 0
559 568 567 0
561 569 560 0
560 569 568 0
562 570 561 0
561 570 569 0
563 572 562 0
562 572 570 0
571 572 563 0
576 575 565 0
627 576 565 0
627 565 564 0
621 627 564 0
566 621 564 0
621 566 567 0
621 567 622 0
622 567 568 0
622 568 623 0
623 568 569 0
623 569 624 0
624 569 570 0
624 570 625 0
625 570 572 0
625 572 626 0
633 626 577 0
577 626 573 0
626 572 573 0
572 571 573 0
574 579 573 0
573 579 577 0
578 579 574 0
582 580 576 0
576 580 575 0
576 627 635 0
576 635 582 0
633 577 583 0
633 583 637 0
585 577 579 0
583 577 585 0
584 585 578 0
578 585 579 0
582 581 580 0
586 581 582 0
635 586 582 0
640 586 635 0
639 637 583 0
589 643 639 0
583 589 639 0
585 589 583 0
588 589 584 0
584 589 585 0
641 646 587 0
587 646 591 0
587 586 640 0
587 640 641 0
645 643 589 0
650 645 595 0
595 645 590 0
645 589 590 0
589 588 590 0
593 595 590 0
646 647 591 0
591 647 592 0
596 592 647 0
596 647 653 0
655 651 598 0
598 651 650 0
598 650 595 0
597 598 595 0
594 597 595 0
594 595 593 0
653 599 596 0
657 599 653 0
655 598 602 0
655 602 660 0
601 602 597 0
597 602 598 0
657 658 599 0
599 658 600 0
603 600 658 0
603 658 662 0
660 602 608 0
660 608 666 0
606 608 601 0
601 608 602 0
662 663 603 0
603 663 604 0
604 665 605 0
663 665 604 0
609 605 665 0
609 665 669 0
674 667 612 0
612 667 666 0
612 666 608 0
611 612 608 0
607 611 608 0
607 608 606 0
669 670 609 0
609 670 610 0
672 615 613 0
610 672 613 0
670 672 610 0
675 617 615 0
675 615 672 0
617 675 674 0
612 617 674 0
620 617 612 0
618 620 611 0
611 620 612 0
615 614 613 0
614 615 616 0
616 615 617 0
616 617 619 0
619 617 620 0
619 620 618 0
628 627 621 0
622 629 621 0
621 629 628 0
623 630 622 0
622 630 629 0
624 631 623 0
623 631 630 0
625 632 624 0
624 632 631 0
626 634 625 0
625 634 632 0
633 634 626 0
636 635 628 0
628 635 627 0
629 677 681 0
636 629 681 0
628 629 636 0
677 629 630 0
677 630 678 0
678 630 631 0
678 631 679 0
679 631 632 0
679 632 680 0
638 685 680 0
632 638 680 0
634 638 632 0
637 638 633 0
633 638 634 0
642 640 636 0
636 640 635 0
636 681 688 0
636 688 642 0
687 685 638 0
694 687 644 0
644 687 639 0
687 638 639 0
638 637 639 0
643 644 639 0
648 646 641 0
696 648 641 0
696 641 640 0
689 696 640 0
642 689 640 0
689 642 688 0
694 644 649 0
694 649 703 0
645 652 643 0
652 644 643 0
652 649 644 0
650 652 645 0
648 647 646 0
697 654 653 0
697 653 647 0
696 697 647 0
648 696 647 0
705 654 697 0
703 649 656 0
703 656 708 0
655 656 651 0
656 652 651 0
656 649 652 0
651 652 650 0
659 657 654 0
654 657 653 0
654 705 710 0
654 710 659 0
708 656 661 0
708 661 713 0
660 661 655 0
655 661 656 0
659 658 657 0
711 664 662 0
711 662 658 0
710 711 658 0
659 710 658 0
715 664 711 0
713 661 668 0
713 668 722 0
666 668 660 0
660 668 661 0
664 663 662 0
715 716 664 0
716 663 664 0
716 665 663 0
718 671 669 0
665 718 669 0
716 718 665 0
720 673 671 0
720 671 718 0
723 676 673 0
723 673 720 0
676 723 722 0
676 722 668 0
674 676 668 0
667 674 668 0
667 668 666 0
671 670 669 0
670 671 672 0
672 671 673 0
672 673 675 0
675 673 676 0
675 676 674 0
682 681 677 0
678 683 677 0
677 683 682 0
679 684 678 0
678 684 683 0
680 686 679 0
679 686 684 0
685 686 680 0
690 688 682 0
682 688 681 0
691 682 683 0
690 682 691 0
692 683 684 0
691 683 692 0
693 684 686 0
692 684 693 0
687 695 685 0
695 686 685 0
695 693 686 0
694 695 687 0
698 696 689 0
688 690 689 0
690 698 689 0
690 699 698 0
700 690 691 0
699 690 700 0
701 691 692 0
700 691 701 0
702 692 693 0
701 692 702 0
704 693 695 0
702 693 704 0
703 704 694 0
694 704 695 0
698 697 696 0
697 698 705 0
698 706 705 0
698 699 706 0
700 725 727 0
706 700 727 0
699 700 706 0
725 700 701 0
725 701 726 0
707 729 726 0
701 707 726 0
702 707 701 0
709 702 704 0
707 702 709 0
708 709 703 0
703 709 704 0
712 710 706 0
706 710 705 0
706 727 732 0
706 732 712 0
731 729 707 0
714 737 731 0
707 714 731 0
709 714 707 0
713 714 708 0
708 714 709 0
712 711 710 0
733 717 715 0
733 715 711 0
732 733 711 0
712 732 711 0
735 719 717 0
735 717 733 0
738 721 719 0
738 719 735 0
721 738 737 0
714 721 737 0
724 721 714 0
722 724 713 0
713 724 714 0
717 716 715 0
716 717 718 0
718 717 719 0
718 719 720 0
720 719 721 0
720 721 723 0
723 721 724 0
723 724 722 0
728 727 725 0
726 730 725 0
725 730 728 0
729 730 726 0
734 732 728 0
728 732 727 0
736 728 730 0
734 728 736 0
731 739 729 0
739 730 729 0
739 736 730 0
737 739 731 0
734 733 732 0
733 734 735 0
735 734 736 0
735 736 738 0
738 736 739 0
738 739 737 0
