#!ascii version of /Users/gilles/git/nukkies/notebooks/data/LV2T_STh_L.asc
350 698
10.406387  -48.411575  -28.883747  0
9.906387  -48.411575  -28.883747  0
9.406387  -48.411575  -28.883747  0
9.906387  -48.911575  -28.883747  0
9.406387  -48.911575  -28.883747  0
10.906387  -47.411575  -28.383743  0
10.406387  -47.411575  -28.383743  0
9.906387  -47.411575  -28.383743  0
10.906387  -47.911575  -28.383743  0
10.406387  -48.161575  -28.633745  0
10.406387  -47.911575  -28.383743  0
9.906387  -48.161575  -28.633745  0
9.906387  -47.911575  -28.383743  0
9.406387  -48.161575  -28.633745  0
10.656387  -48.411575  -28.633745  0
10.906387  -48.411575  -28.383743  0
10.406387  -48.661575  -28.633745  0
9.156387  -48.411575  -28.633745  0
10.156387  -48.911575  -28.633745  0
10.406387  -48.911575  -28.383743  0
9.906387  -49.161575  -28.633745  0
9.156387  -48.911575  -28.633745  0
9.406387  -49.161575  -28.633745  0
9.406387  -48.911575  -28.383743  0
11.906387  -46.411575  -27.883739  0
11.906387  -46.911575  -27.883739  0
11.406387  -46.911575  -27.883739  0
10.906387  -47.161575  -28.133741  0
10.906387  -46.911575  -27.883739  0
10.406387  -47.161575  -28.133741  0
9.906387  -47.161575  -28.133741  0
11.906387  -47.411575  -27.883739  0
11.156387  -47.411575  -28.133741  0
11.406387  -47.411575  -27.883739  0
9.656387  -47.411575  -28.133741  0
9.906387  -47.411575  -27.883739  0
11.906387  -47.911575  -27.883739  0
11.156387  -47.911575  -28.133741  0
11.406387  -47.911575  -27.883739  0
9.656387  -47.911575  -28.133741  0
9.906387  -47.911575  -27.883739  0
9.406387  -48.161575  -28.133741  0
11.906387  -48.411575  -27.883739  0
11.156387  -48.411575  -28.133741  0
11.406387  -48.411575  -27.883739  0
10.906387  -48.661575  -28.133741  0
9.156387  -48.411575  -28.133741  0
9.406387  -48.661575  -28.133741  0
9.406387  -48.411575  -27.883739  0
11.406387  -48.911575  -27.883739  0
10.656387  -48.911575  -28.133741  0
10.906387  -48.911575  -27.883739  0
10.406387  -49.161575  -28.133741  0
9.656387  -48.911575  -28.133741  0
9.906387  -49.161575  -28.133741  0
9.406387  -48.911575  -27.883739  0
12.406387  -45.911575  -27.383736  0
11.906387  -46.161575  -27.633738  0
12.156387  -46.411575  -27.633738  0
12.406387  -46.411575  -27.383736  0
11.656387  -46.411575  -27.633738  0
11.406387  -46.661575  -27.633738  0
10.906387  -46.661575  -27.633738  0
12.156387  -46.911575  -27.633738  0
12.406387  -46.911575  -27.383736  0
10.656387  -46.911575  -27.633738  0
10.906387  -46.911575  -27.383736  0
10.406387  -47.161575  -27.633738  0
12.156387  -47.411575  -27.633738  0
12.406387  -47.411575  -27.383736  0
10.156387  -47.411575  -27.633738  0
12.156387  -47.911575  -27.633738  0
12.406387  -47.911575  -27.383736  0
10.156387  -47.911575  -27.633738  0
9.906387  -48.161575  -27.633738  0
12.156387  -48.411575  -27.633738  0
12.406387  -48.411575  -27.383736  0
11.906387  -48.661575  -27.633738  0
9.656387  -48.411575  -27.633738  0
9.406387  -48.661575  -27.633738  0
11.656387  -48.911575  -27.633738  0
11.906387  -48.911575  -27.383736  0
11.406387  -49.161575  -27.633738  0
10.906387  -49.161575  -27.633738  0
10.406387  -49.161575  -27.633738  0
9.906387  -49.161575  -27.633738  0
9.156387  -48.911575  -27.633738  0
9.406387  -49.161575  -27.633738  0
9.406387  -48.911575  -27.383736  0
12.406387  -45.661575  -27.133734  0
12.656387  -45.911575  -27.133734  0
12.906387  -45.911575  -26.883732  0
12.156387  -45.911575  -27.133734  0
11.906387  -46.161575  -27.133734  0
12.656387  -46.411575  -27.133734  0
12.906387  -46.411575  -26.883732  0
11.656387  -46.411575  -27.133734  0
11.406387  -46.661575  -27.133734  0
12.656387  -46.911575  -27.133734  0
12.906387  -46.911575  -26.883732  0
11.156387  -46.911575  -27.133734  0
10.906387  -47.161575  -27.133734  0
10.406387  -47.161575  -27.133734  0
12.656387  -47.411575  -27.133734  0
12.906387  -47.411575  -26.883732  0
10.156387  -47.411575  -27.133734  0
10.406387  -47.411575  -26.883732  0
13.406387  -47.911575  -26.883732  0
12.656387  -47.911575  -27.133734  0
12.906387  -47.911575  -26.883732  0
10.156387  -47.911575  -27.133734  0
10.406387  -47.911575  -26.883732  0
9.906387  -48.161575  -27.133734  0
12.656387  -48.411575  -27.133734  0
12.906387  -48.411575  -26.883732  0
12.406387  -48.661575  -27.133734  0
9.656387  -48.411575  -27.133734  0
9.906387  -48.411575  -26.883732  0
12.156387  -48.911575  -27.133734  0
12.406387  -48.911575  -26.883732  0
11.906387  -49.161575  -27.133734  0
11.406387  -49.161575  -27.133734  0
10.906387  -49.161575  -27.133734  0
10.406387  -49.161575  -27.133734  0
9.656387  -48.911575  -27.133734  0
9.906387  -49.161575  -27.133734  0
12.906387  -45.661575  -26.633732  0
12.406387  -45.661575  -26.633732  0
13.156387  -45.911575  -26.633732  0
13.406387  -45.911575  -26.383730  0
12.156387  -45.911575  -26.633732  0
12.406387  -45.911575  -26.383730  0
11.906387  -46.161575  -26.633732  0
13.156387  -46.411575  -26.633732  0
13.406387  -46.411575  -26.383730  0
11.656387  -46.411575  -26.633732  0
11.906387  -46.411575  -26.383730  0
11.406387  -46.661575  -26.633732  0
13.156387  -46.911575  -26.633732  0
13.406387  -46.911575  -26.383730  0
11.156387  -46.911575  -26.633732  0
11.406387  -46.911575  -26.383730  0
10.906387  -47.161575  -26.633732  0
13.156387  -47.411575  -26.633732  0
13.406387  -47.661575  -26.633732  0
13.406387  -47.411575  -26.383730  0
10.656387  -47.411575  -26.633732  0
10.906387  -47.411575  -26.383730  0
13.656387  -47.911575  -26.633732  0
13.406387  -48.161575  -26.633732  0
10.656387  -47.911575  -26.633732  0
10.906387  -47.911575  -26.383730  0
10.406387  -48.161575  -26.633732  0
13.906387  -48.411575  -26.383730  0
13.156387  -48.411575  -26.633732  0
13.406387  -48.411575  -26.383730  0
12.906387  -48.661575  -26.633732  0
10.156387  -48.411575  -26.633732  0
9.906387  -48.661575  -26.633732  0
13.406387  -48.911575  -26.383730  0
12.656387  -48.911575  -26.633732  0
12.906387  -48.911575  -26.383730  0
12.406387  -49.161575  -26.633732  0
11.906387  -49.161575  -26.633732  0
11.406387  -49.161575  -26.633732  0
10.906387  -49.161575  -26.633732  0
10.406387  -49.161575  -26.633732  0
9.656387  -48.911575  -26.633732  0
9.906387  -49.161575  -26.633732  0
9.906387  -48.911575  -26.383730  0
11.906387  -49.411575  -26.383730  0
11.406387  -49.411575  -26.383730  0
10.906387  -49.411575  -26.383730  0
10.406387  -49.411575  -26.383730  0
13.406387  -45.661575  -26.133728  0
12.906387  -45.661575  -26.133728  0
13.656387  -45.911575  -26.133728  0
13.406387  -45.911575  -25.883726  0
12.656387  -45.911575  -26.133728  0
12.906387  -45.911575  -25.883726  0
12.406387  -46.161575  -26.133728  0
13.656387  -46.411575  -26.133728  0
13.906387  -46.411575  -25.883726  0
12.156387  -46.411575  -26.133728  0
12.406387  -46.411575  -25.883726  0
11.906387  -46.661575  -26.133728  0
13.656387  -46.911575  -26.133728  0
13.906387  -46.911575  -25.883726  0
11.656387  -46.911575  -26.133728  0
11.906387  -46.911575  -25.883726  0
11.406387  -47.161575  -26.133728  0
13.656387  -47.411575  -26.133728  0
13.906387  -47.411575  -25.883726  0
11.156387  -47.411575  -26.133728  0
11.406387  -47.411575  -25.883726  0
13.656387  -47.911575  -26.133728  0
13.906387  -48.161575  -26.133728  0
13.906387  -47.911575  -25.883726  0
11.156387  -47.911575  -26.133728  0
11.406387  -47.911575  -25.883726  0
10.906387  -48.161575  -26.133728  0
10.406387  -48.161575  -26.133728  0
14.156387  -48.411575  -26.133728  0
13.906387  -48.661575  -26.133728  0
10.906387  -48.411575  -25.883726  0
10.156387  -48.411575  -26.133728  0
10.406387  -48.411575  -25.883726  0
13.656387  -48.911575  -26.133728  0
13.906387  -48.911575  -25.883726  0
13.406387  -49.161575  -26.133728  0
12.906387  -49.161575  -26.133728  0
12.406387  -49.161575  -26.133728  0
10.156387  -48.911575  -26.133728  0
10.406387  -48.911575  -25.883726  0
13.406387  -49.411575  -25.883726  0
12.906387  -49.411575  -25.883726  0
12.156387  -49.411575  -26.133728  0
12.406387  -49.411575  -25.883726  0
11.906387  -49.661575  -26.133728  0
11.406387  -49.661575  -26.133728  0
10.906387  -49.661575  -26.133728  0
10.906387  -49.411575  -25.883726  0
10.156387  -49.411575  -26.133728  0
10.406387  -49.661575  -26.133728  0
10.406387  -49.411575  -25.883726  0
13.906387  -46.161575  -25.633724  0
13.406387  -46.161575  -25.633724  0
12.906387  -46.161575  -25.633724  0
14.156387  -46.411575  -25.633724  0
13.406387  -46.411575  -25.383724  0
12.656387  -46.411575  -25.633724  0
12.906387  -46.411575  -25.383724  0
12.406387  -46.661575  -25.633724  0
14.156387  -46.911575  -25.633724  0
14.406387  -46.911575  -25.383724  0
12.156387  -46.911575  -25.633724  0
12.406387  -46.911575  -25.383724  0
11.906387  -47.161575  -25.633724  0
14.156387  -47.411575  -25.633724  0
14.406387  -47.411575  -25.383724  0
11.656387  -47.411575  -25.633724  0
11.906387  -47.411575  -25.383724  0
14.156387  -47.911575  -25.633724  0
14.406387  -47.911575  -25.383724  0
11.656387  -47.911575  -25.633724  0
11.406387  -48.161575  -25.633724  0
14.156387  -48.411575  -25.633724  0
14.406387  -48.411575  -25.383724  0
11.156387  -48.411575  -25.633724  0
10.906387  -48.661575  -25.633724  0
14.156387  -48.911575  -25.633724  0
13.906387  -49.161575  -25.633724  0
10.656387  -48.911575  -25.633724  0
10.906387  -49.161575  -25.633724  0
10.906387  -48.911575  -25.383724  0
13.656387  -49.411575  -25.633724  0
13.406387  -49.661575  -25.633724  0
13.406387  -49.411575  -25.383724  0
12.906387  -49.661575  -25.633724  0
12.406387  -49.661575  -25.633724  0
11.906387  -49.661575  -25.633724  0
11.156387  -49.411575  -25.633724  0
11.406387  -49.661575  -25.633724  0
11.406387  -49.411575  -25.383724  0
13.906387  -46.161575  -25.133720  0
14.156387  -46.411575  -25.133720  0
14.406387  -46.661575  -25.133720  0
13.656387  -46.411575  -25.133720  0
13.906387  -46.411575  -24.883720  0
13.406387  -46.661575  -25.133720  0
12.906387  -46.661575  -25.133720  0
14.656387  -46.911575  -25.133720  0
14.406387  -46.911575  -24.883720  0
13.906387  -46.911575  -24.883720  0
13.406387  -46.911575  -24.883720  0
12.656387  -46.911575  -25.133720  0
12.906387  -46.911575  -24.883720  0
12.406387  -47.161575  -25.133720  0
14.656387  -47.411575  -25.133720  0
12.906387  -47.411575  -24.883720  0
12.156387  -47.411575  -25.133720  0
12.406387  -47.411575  -24.883720  0
11.906387  -47.661575  -25.133720  0
14.656387  -47.911575  -25.133720  0
12.406387  -47.911575  -24.883720  0
11.656387  -47.911575  -25.133720  0
11.906387  -47.911575  -24.883720  0
11.406387  -48.161575  -25.133720  0
14.656387  -48.411575  -25.133720  0
14.406387  -48.661575  -25.133720  0
12.406387  -48.411575  -24.883720  0
11.906387  -48.411575  -24.883720  0
11.156387  -48.411575  -25.133720  0
11.406387  -48.411575  -24.883720  0
14.156387  -48.911575  -25.133720  0
13.906387  -49.161575  -25.133720  0
13.406387  -49.161575  -25.133720  0
11.906387  -48.911575  -24.883720  0
11.156387  -48.911575  -25.133720  0
11.406387  -49.161575  -25.133720  0
11.406387  -48.911575  -24.883720  0
13.156387  -49.411575  -25.133720  0
12.906387  -49.661575  -25.133720  0
12.906387  -49.411575  -24.883720  0
12.406387  -49.661575  -25.133720  0
12.406387  -49.411575  -24.883720  0
11.656387  -49.411575  -25.133720  0
11.906387  -49.661575  -25.133720  0
11.906387  -49.411575  -24.883720  0
14.406387  -47.161575  -24.633717  0
13.906387  -47.161575  -24.633717  0
13.406387  -47.161575  -24.633717  0
14.656387  -47.411575  -24.633717  0
14.406387  -47.411575  -24.383717  0
13.906387  -47.411575  -24.383717  0
13.156387  -47.411575  -24.633717  0
13.406387  -47.411575  -24.383717  0
12.906387  -47.661575  -24.633717  0
14.656387  -47.911575  -24.633717  0
14.406387  -47.911575  -24.383717  0
13.906387  -47.911575  -24.383717  0
13.406387  -47.911575  -24.383717  0
12.656387  -47.911575  -24.633717  0
12.906387  -47.911575  -24.383717  0
14.656387  -48.411575  -24.633717  0
14.406387  -48.661575  -24.633717  0
14.406387  -48.411575  -24.383717  0
12.656387  -48.411575  -24.633717  0
12.906387  -48.411575  -24.383717  0
12.406387  -48.661575  -24.633717  0
14.156387  -48.911575  -24.633717  0
13.906387  -49.161575  -24.633717  0
13.406387  -49.161575  -24.633717  0
12.906387  -49.161575  -24.633717  0
12.906387  -48.911575  -24.383717  0
12.156387  -48.911575  -24.633717  0
12.406387  -49.161575  -24.633717  0
12.406387  -48.911575  -24.383717  0
13.906387  -48.161575  -24.133713  0
13.406387  -48.161575  -24.133713  0
14.156387  -48.411575  -24.133713  0
13.906387  -48.411575  -23.883713  0
13.156387  -48.411575  -24.133713  0
13.406387  -48.411575  -23.883713  0
14.156387  -48.911575  -24.133713  0
13.906387  -49.161575  -24.133713  0
13.906387  -48.911575  -23.883713  0
13.156387  -48.911575  -24.133713  0
13.406387  -49.161575  -24.133713  0
13.406387  -48.911575  -23.883713  0
9 14 0 0
1 11 0 0
0 11 9 0
2 13 1 0
1 13 11 0
2 17 13 0
14 16 0 0
18 3 16 0
3 0 16 0
3 1 0 0
1 4 2 0
1 3 4 0
17 2 21 0
21 2 4 0
18 20 3 0
3 20 4 0
4 20 22 0
4 22 21 0
27 32 5 0
6 29 5 0
5 29 27 0
7 30 6 0
6 30 29 0
7 34 30 0
5 32 8 0
8 32 37 0
5 10 6 0
5 8 10 0
6 12 7 0
6 10 12 0
34 7 39 0
39 7 12 0
8 37 15 0
15 37 43 0
15 14 9 0
10 15 9 0
8 15 10 0
10 9 11 0
10 11 12 0
41 39 12 0
11 41 12 0
13 41 11 0
13 17 41 0
41 17 46 0
43 45 15 0
45 50 19 0
45 19 16 0
15 45 16 0
14 15 16 0
19 18 16 0
53 47 23 0
47 46 23 0
46 21 23 0
46 17 21 0
50 52 19 0
19 52 18 0
52 20 18 0
52 54 20 0
23 22 53 0
22 54 53 0
22 20 54 0
22 23 21 0
57 58 24 0
24 60 57 0
24 58 25 0
25 58 63 0
60 24 61 0
24 26 61 0
24 25 26 0
28 62 26 0
26 62 61 0
28 65 62 0
25 63 31 0
31 63 68 0
25 33 26 0
25 31 33 0
33 32 27 0
28 33 27 0
26 33 28 0
67 65 28 0
27 67 28 0
29 67 27 0
70 67 35 0
67 30 35 0
67 29 30 0
34 35 30 0
31 68 36 0
36 68 71 0
31 38 33 0
31 36 38 0
38 37 32 0
38 32 33 0
70 35 40 0
70 40 73 0
39 40 34 0
34 40 35 0
36 71 42 0
42 71 75 0
36 44 38 0
36 42 44 0
44 43 37 0
44 37 38 0
74 73 40 0
78 74 48 0
48 74 41 0
74 40 41 0
40 39 41 0
46 48 41 0
75 77 42 0
80 49 77 0
49 42 77 0
49 44 42 0
51 45 43 0
44 51 43 0
49 51 44 0
51 50 45 0
78 55 79 0
78 53 55 0
78 48 47 0
53 78 47 0
86 48 79 0
86 46 48 0
86 55 47 0
46 86 47 0
80 82 49 0
49 82 51 0
51 82 83 0
51 83 50 0
83 52 50 0
83 84 52 0
52 85 54 0
84 85 52 0
53 54 55 0
54 87 55 0
54 85 87 0
55 87 86 0
89 90 56 0
56 92 89 0
56 90 59 0
59 90 94 0
57 93 58 0
93 56 58 0
56 59 58 0
56 93 92 0
57 60 93 0
93 60 96 0
59 94 64 0
64 94 98 0
64 63 58 0
64 58 59 0
97 96 60 0
97 60 61 0
100 97 66 0
97 62 66 0
97 61 62 0
65 66 62 0
64 98 69 0
69 98 103 0
69 68 63 0
69 63 64 0
101 100 66 0
101 66 65 0
67 101 65 0
102 101 67 0
67 70 102 0
102 70 105 0
69 103 72 0
72 103 108 0
72 71 68 0
72 68 69 0
73 105 70 0
73 110 105 0
72 108 76 0
76 108 113 0
76 75 71 0
76 71 72 0
112 110 73 0
112 73 74 0
74 78 112 0
112 78 116 0
113 115 76 0
115 118 81 0
115 81 77 0
76 115 77 0
75 76 77 0
81 80 77 0
78 79 88 0
124 78 88 0
116 78 124 0
86 88 79 0
118 120 81 0
81 120 80 0
120 82 80 0
120 121 82 0
82 122 83 0
121 122 82 0
83 123 84 0
122 123 83 0
84 125 85 0
123 125 84 0
88 87 124 0
87 125 124 0
87 85 125 0
87 88 86 0
126 128 91 0
90 89 91 0
89 126 91 0
89 127 126 0
89 92 127 0
127 92 130 0
91 128 95 0
95 128 133 0
95 94 90 0
95 90 91 0
132 130 92 0
132 92 93 0
93 96 132 0
132 96 135 0
95 133 99 0
99 133 138 0
99 98 94 0
99 94 95 0
137 135 96 0
137 96 97 0
97 100 137 0
137 100 140 0
99 138 104 0
104 138 143 0
104 103 98 0
104 98 99 0
142 140 100 0
142 100 101 0
146 142 106 0
142 102 106 0
142 101 102 0
105 106 102 0
144 148 107 0
144 107 143 0
107 104 143 0
107 109 104 0
109 108 103 0
109 103 104 0
146 106 111 0
146 111 150 0
110 111 105 0
105 111 106 0
148 149 107 0
154 114 149 0
114 107 149 0
114 109 107 0
114 113 108 0
114 108 109 0
152 150 111 0
157 152 117 0
117 152 112 0
152 111 112 0
111 110 112 0
116 117 112 0
154 156 114 0
156 160 119 0
156 119 115 0
114 156 115 0
113 114 115 0
119 118 115 0
158 157 117 0
117 116 158 0
116 167 158 0
116 124 167 0
160 162 119 0
119 162 118 0
162 120 118 0
162 163 120 0
120 164 121 0
163 164 120 0
121 165 122 0
164 165 121 0
122 166 123 0
165 166 122 0
123 168 125 0
166 168 123 0
124 125 167 0
167 125 168 0
174 176 129 0
128 126 129 0
126 174 129 0
126 175 174 0
178 175 131 0
175 127 131 0
175 126 127 0
130 131 127 0
129 176 134 0
134 176 181 0
134 133 128 0
134 128 129 0
180 178 131 0
183 180 136 0
136 180 132 0
180 131 132 0
131 130 132 0
135 136 132 0
134 181 139 0
139 181 186 0
139 138 133 0
139 133 134 0
185 183 136 0
188 185 141 0
141 185 137 0
185 136 137 0
136 135 137 0
140 141 137 0
139 186 145 0
145 186 191 0
145 143 138 0
145 138 139 0
190 188 141 0
193 190 147 0
147 190 142 0
190 141 142 0
141 140 142 0
146 147 142 0
145 191 144 0
191 148 144 0
191 195 148 0
145 144 143 0
193 147 151 0
193 151 198 0
150 151 146 0
146 151 147 0
196 202 153 0
153 155 149 0
195 153 149 0
148 195 149 0
153 195 196 0
155 154 149 0
200 198 151 0
200 151 150 0
152 200 150 0
201 200 152 0
152 157 201 0
201 157 205 0
202 203 153 0
207 159 203 0
159 153 203 0
159 155 153 0
161 156 154 0
155 161 154 0
159 161 155 0
161 160 156 0
157 158 169 0
212 157 169 0
205 157 212 0
167 169 158 0
207 209 159 0
159 209 161 0
161 209 210 0
161 210 160 0
210 162 160 0
210 211 162 0
211 216 170 0
163 211 170 0
162 211 163 0
171 164 163 0
171 163 170 0
172 165 164 0
172 164 171 0
173 166 165 0
173 165 172 0
222 212 169 0
166 222 169 0
168 166 169 0
222 166 173 0
168 169 167 0
216 218 170 0
170 218 171 0
171 218 219 0
171 219 172 0
172 219 220 0
172 220 173 0
173 220 223 0
173 223 222 0
177 176 174 0
175 179 174 0
174 179 177 0
178 179 175 0
225 228 182 0
226 225 177 0
225 181 177 0
181 176 177 0
225 182 181 0
226 177 179 0
226 179 227 0
230 227 184 0
184 227 180 0
227 179 180 0
179 178 180 0
183 184 180 0
182 228 187 0
187 228 233 0
187 186 181 0
187 181 182 0
232 230 184 0
235 232 189 0
189 232 185 0
232 184 185 0
184 183 185 0
188 189 185 0
187 233 192 0
192 233 238 0
192 191 186 0
192 186 187 0
237 235 189 0
240 237 194 0
194 237 190 0
237 189 190 0
189 188 190 0
193 194 190 0
192 238 197 0
197 238 242 0
197 195 191 0
197 191 192 0
240 194 199 0
240 199 244 0
198 199 193 0
193 199 194 0
197 242 196 0
242 202 196 0
242 246 202 0
197 196 195 0
245 244 199 0
248 245 204 0
204 245 200 0
245 199 200 0
199 198 200 0
201 206 200 0
200 206 204 0
205 206 201 0
203 202 208 0
202 250 208 0
202 246 250 0
208 207 203 0
249 248 204 0
213 252 249 0
204 213 249 0
206 213 204 0
212 213 205 0
205 213 206 0
250 251 208 0
251 255 214 0
251 214 209 0
208 251 209 0
207 208 209 0
215 210 209 0
215 209 214 0
217 211 210 0
217 210 215 0
217 216 211 0
261 253 221 0
221 253 252 0
213 221 252 0
224 221 213 0
222 224 212 0
212 224 213 0
255 256 214 0
214 256 215 0
215 256 258 0
215 258 217 0
217 258 259 0
217 259 216 0
259 218 216 0
259 260 218 0
218 262 219 0
260 262 218 0
221 220 261 0
220 262 261 0
220 219 262 0
220 221 223 0
223 221 224 0
223 224 222 0
264 265 225 0
225 265 228 0
267 264 229 0
264 226 229 0
264 225 226 0
227 231 226 0
226 231 229 0
230 231 227 0
266 271 234 0
265 266 234 0
233 265 234 0
228 265 233 0
269 267 229 0
269 229 231 0
269 231 270 0
275 270 236 0
236 270 232 0
270 231 232 0
231 230 232 0
235 236 232 0
234 271 239 0
239 271 278 0
239 238 233 0
239 233 234 0
277 275 236 0
280 277 241 0
241 277 237 0
277 236 237 0
236 235 237 0
240 241 237 0
239 278 243 0
243 278 283 0
243 242 238 0
243 238 239 0
282 280 241 0
241 240 282 0
240 285 282 0
240 244 285 0
243 283 247 0
247 283 288 0
247 246 242 0
247 242 243 0
287 285 244 0
287 244 245 0
245 248 287 0
287 248 292 0
288 289 247 0
246 247 289 0
294 246 289 0
250 246 294 0
248 249 254 0
298 248 254 0
292 248 298 0
252 254 249 0
294 295 250 0
250 295 251 0
296 257 255 0
251 296 255 0
295 296 251 0
301 257 296 0
306 299 263 0
263 299 298 0
263 298 254 0
261 263 254 0
253 261 254 0
253 254 252 0
257 256 255 0
301 302 257 0
302 256 257 0
302 258 256 0
258 304 259 0
302 304 258 0
259 307 260 0
304 307 259 0
263 262 306 0
262 307 306 0
262 260 307 0
262 263 261 0
268 265 264 0
267 268 264 0
272 271 266 0
265 268 266 0
268 272 266 0
268 273 272 0
269 274 267 0
274 268 267 0
274 273 268 0
270 276 269 0
269 276 274 0
275 276 270 0
309 312 272 0
312 271 272 0
312 278 271 0
309 272 273 0
309 273 310 0
310 273 274 0
310 274 311 0
279 315 311 0
274 279 311 0
276 279 274 0
277 281 275 0
281 276 275 0
281 279 276 0
280 281 277 0
312 283 278 0
318 283 312 0
317 315 279 0
284 322 317 0
279 284 317 0
281 284 279 0
282 286 280 0
286 281 280 0
286 284 281 0
285 286 282 0
318 288 283 0
324 288 318 0
322 284 290 0
322 290 327 0
291 284 286 0
290 284 291 0
287 293 285 0
293 286 285 0
293 291 286 0
292 293 287 0
324 325 288 0
288 325 289 0
294 289 325 0
294 325 330 0
329 327 290 0
297 335 329 0
290 297 329 0
291 297 290 0
300 291 293 0
297 291 300 0
298 300 292 0
292 300 293 0
330 331 294 0
294 331 295 0
295 332 296 0
331 332 295 0
333 303 301 0
296 333 301 0
332 333 296 0
336 305 303 0
336 303 333 0
305 336 335 0
297 305 335 0
308 305 297 0
306 308 299 0
308 300 299 0
308 297 300 0
299 300 298 0
303 302 301 0
302 303 304 0
304 303 305 0
304 305 307 0
307 305 308 0
307 308 306 0
313 312 309 0
310 314 309 0
309 314 313 0
311 316 310 0
310 316 314 0
315 316 311 0
319 318 313 0
313 318 312 0
320 313 314 0
319 313 320 0
321 314 316 0
320 314 321 0
317 323 315 0
323 316 315 0
323 321 316 0
322 323 317 0
326 324 319 0
319 324 318 0
320 338 340 0
326 320 340 0
319 320 326 0
338 320 321 0
338 321 339 0
328 342 339 0
321 328 339 0
323 328 321 0
327 328 322 0
322 328 323 0
326 325 324 0
330 325 326 0
340 330 326 0
344 330 340 0
342 328 334 0
342 334 347 0
329 337 327 0
337 328 327 0
337 334 328 0
335 337 329 0
344 345 330 0
330 345 331 0
331 348 332 0
345 348 331 0
334 333 347 0
333 348 347 0
333 332 348 0
333 334 336 0
336 334 337 0
336 337 335 0
341 340 338 0
339 343 338 0
338 343 341 0
342 343 339 0
346 344 341 0
341 344 340 0
349 341 343 0
346 341 349 0
347 349 342 0
342 349 343 0
346 345 344 0
345 346 348 0
348 346 349 0
348 349 347 0
