#!ascii version of /Users/gilles/git/nukkies/notebooks/data/MRCT_STh_L_dil.asc
746 1490
10.590347  -54.771492  -30.670467  0
10.268141  -55.087208  -30.734293  0
10.715759  -55.206249  -30.799942  0
11.077850  -55.130379  -30.710863  0
10.148027  -55.621792  -30.768042  0
10.617675  -55.598995  -30.857630  0
11.078230  -55.604717  -30.823835  0
11.462380  -55.587017  -30.697004  0
10.066273  -56.072056  -30.726444  0
10.516946  -56.066292  -30.839260  0
11.015088  -56.070965  -30.848019  0
11.465190  -56.061359  -30.725473  0
10.366545  -56.431084  -30.713415  0
10.863858  -56.489517  -30.758467  0
11.365880  -56.510567  -30.692335  0
11.185771  -53.723770  -30.171404  0
11.567739  -53.703194  -30.069347  0
10.128983  -54.049438  -30.200180  0
10.384582  -54.453278  -30.528250  0
10.623838  -54.093945  -30.332634  0
11.211754  -54.182144  -30.324503  0
11.637255  -54.116264  -30.166964  0
10.204701  -54.679939  -30.611370  0
10.021683  -54.823792  -30.603527  0
9.972998  -54.517258  -30.384085  0
10.709502  -54.467964  -30.536510  0
10.942264  -54.728981  -30.606415  0
11.123435  -54.546761  -30.468489  0
11.591325  -54.582588  -30.330677  0
12.057474  -54.630623  -30.134851  0
9.840144  -55.158756  -30.554560  0
9.551243  -54.927341  -30.235609  0
11.248259  -54.923195  -30.584103  0
11.445521  -55.239590  -30.618645  0
11.601869  -55.053669  -30.466936  0
11.936425  -55.006111  -30.297390  0
12.322168  -55.138264  -30.142677  0
9.775014  -55.739231  -30.590845  0
9.510505  -55.428013  -30.296721  0
11.704680  -55.492954  -30.552097  0
12.051446  -55.565048  -30.333763  0
9.800318  -56.060856  -30.594002  0
9.590611  -55.949081  -30.330421  0
9.944670  -56.335785  -30.541603  0
11.800975  -55.933434  -30.538746  0
12.098690  -56.209248  -30.290281  0
10.226738  -56.594418  -30.577398  0
10.053995  -56.642578  -30.358503  0
10.550182  -56.808849  -30.519512  0
11.158114  -56.860260  -30.563866  0
11.825040  -56.539452  -30.418303  0
11.568419  -56.865482  -30.457216  0
12.104316  -56.557274  -30.204214  0
10.502574  -57.102348  -30.278625  0
10.908883  -57.140018  -30.330624  0
11.404693  -57.153748  -30.288891  0
11.126448  -53.385181  -30.024178  0
11.091339  -53.134041  -29.773544  0
11.480080  -53.331547  -29.897743  0
11.456203  -53.020687  -29.680872  0
10.057616  -53.872944  -30.052876  0
10.060196  -53.618580  -29.802631  0
10.806659  -53.533783  -30.071238  0
10.351309  -53.734047  -30.074846  0
10.575781  -53.366524  -29.832672  0
11.761719  -53.582157  -29.910786  0
12.017813  -53.695976  -29.775166  0
13.248470  -53.765499  -29.561182  0
9.803145  -54.119350  -30.037359  0
9.610885  -53.886677  -29.706282  0
11.847919  -53.874134  -29.973072  0
12.100258  -54.181976  -29.930197  0
12.060761  -53.927433  -29.837700  0
13.072334  -54.212425  -29.675900  0
13.443942  -54.089909  -29.622906  0
9.589847  -54.540817  -30.113272  0
9.385184  -54.722717  -29.955853  0
9.453027  -54.335335  -29.829193  0
12.362356  -54.501316  -29.936590  0
12.431783  -54.787724  -30.015812  0
12.730051  -54.581211  -29.827133  0
13.048144  -54.621025  -29.759695  0
13.343316  -54.592648  -29.667303  0
9.322149  -55.079193  -29.930809  0
12.635999  -54.997772  -29.973507  0
12.632186  -55.311920  -30.012880  0
13.015506  -55.103294  -29.803602  0
9.344104  -55.541573  -29.921738  0
12.428697  -55.554676  -30.124750  0
12.736694  -55.706764  -29.949177  0
13.162720  -55.686108  -29.724857  0
9.440221  -55.961384  -29.912336  0
9.692122  -56.328327  -30.181675  0
9.551591  -56.249725  -29.846321  0
12.383461  -55.979858  -30.114483  0
12.649188  -56.210674  -29.917500  0
12.946511  -56.040443  -29.810589  0
13.326125  -56.145020  -29.595009  0
9.809495  -56.647877  -29.891151  0
10.205800  -56.936264  -30.217459  0
12.368009  -56.541626  -29.963293  0
12.108662  -56.849323  -30.026644  0
12.637240  -56.506359  -29.821018  0
12.930522  -56.444424  -29.694431  0
10.319380  -57.146259  -30.139942  0
10.115952  -57.099442  -29.927027  0
10.552019  -57.337975  -30.017958  0
11.140474  -57.398312  -30.063566  0
11.835066  -57.118340  -30.063089  0
11.546983  -57.377655  -30.001429  0
12.110439  -57.124710  -29.820076  0
10.491784  -57.581116  -29.695007  0
10.902007  -57.612206  -29.777002  0
11.386194  -57.600300  -29.756746  0
11.049476  -52.885468  -29.465672  0
11.461612  -52.747105  -29.375002  0
11.509783  -52.502598  -29.113337  0
10.082246  -53.302811  -29.463234  0
9.965267  -53.182018  -29.180058  0
10.780430  -53.081017  -29.590281  0
10.417850  -53.212177  -29.534746  0
11.768053  -53.023907  -29.551422  0
11.920421  -53.362595  -29.685524  0
12.236133  -53.115150  -29.366241  0
12.611014  -53.044472  -29.188587  0
13.107439  -53.395824  -29.364655  0
12.875651  -53.127716  -29.203938  0
9.768454  -53.499367  -29.499073  0
9.491796  -53.697609  -29.421965  0
9.624468  -53.419571  -29.194021  0
12.222960  -53.502098  -29.562084  0
12.898155  -53.794636  -29.532684  0
12.610860  -53.458832  -29.407681  0
13.430314  -53.532738  -29.452757  0
13.524533  -53.765709  -29.552338  0
13.758572  -53.635292  -29.362020  0
14.091020  -53.688423  -29.162388  0
9.349272  -54.061966  -29.477453  0
12.297422  -53.859291  -29.670815  0
12.754746  -54.140244  -29.659590  0
12.473577  -54.213120  -29.751656  0
12.604284  -53.898891  -29.576334  0
13.699097  -53.969563  -29.522152  0
13.986039  -54.091751  -29.314734  0
9.258822  -54.587334  -29.563553  0
13.692479  -54.364574  -29.523140  0
13.624957  -54.762005  -29.520243  0
13.931085  -54.697609  -29.308184  0
9.233152  -55.078907  -29.481571  0
13.418323  -54.996246  -29.609241  0
13.670946  -55.084526  -29.434364  0
13.934358  -55.171070  -29.225704  0
9.322603  -55.561691  -29.433174  0
9.433261  -55.981007  -29.599768  0
13.418824  -55.350430  -29.576546  0
13.599062  -55.735611  -29.456045  0
13.698549  -55.392456  -29.379906  0
9.566916  -56.229740  -29.507704  0
13.768498  -56.153339  -29.320868  0
13.578520  -56.399105  -29.398809  0
14.010162  -56.101208  -29.158831  0
9.686936  -56.518852  -29.388874  0
12.683086  -56.802143  -29.606289  0
13.338557  -56.605927  -29.409739  0
13.024858  -56.805111  -29.428814  0
13.595488  -56.590382  -29.293770  0
9.864989  -56.972061  -29.446238  0
10.176273  -57.370510  -29.645622  0
12.377430  -57.106613  -29.572674  0
12.087356  -57.368484  -29.596334  0
12.653076  -57.094299  -29.384459  0
12.894544  -57.088913  -29.252357  0
10.321918  -57.626186  -29.369234  0
10.709145  -57.757912  -29.464958  0
11.171269  -57.796085  -29.464073  0
11.775989  -57.498543  -29.703278  0
11.633599  -57.756920  -29.402931  0
11.978022  -57.646229  -29.358566  0
11.491788  -52.406982  -28.825783  0
10.102949  -53.023838  -28.902391  0
11.322000  -52.548447  -29.120602  0
11.126662  -52.703079  -29.244476  0
11.032434  -52.613701  -28.904343  0
11.775156  -52.494373  -29.016737  0
11.992768  -52.747540  -29.211094  0
12.217010  -52.500309  -28.881069  0
12.437517  -52.774925  -29.065342  0
12.670028  -52.531525  -28.804216  0
12.835448  -52.834324  -29.020382  0
13.199220  -52.630684  -28.794081  0
13.717002  -52.660275  -28.664255  0
9.870757  -53.203205  -28.892698  0
9.567331  -53.449986  -28.884220  0
10.209503  -53.002834  -28.894056  0
10.164364  -53.026424  -28.759211  0
10.743743  -52.898560  -29.258625  0
10.285421  -53.069088  -29.138403  0
10.495009  -52.899231  -28.814251  0
13.184462  -53.015240  -29.108032  0
13.510945  -53.278275  -29.235569  0
13.587640  -52.955986  -28.957880  0
14.017103  -53.282398  -28.974745  0
13.951206  -52.923717  -28.756672  0
9.377594  -53.745331  -29.088701  0
9.458130  -53.658539  -28.706018  0
14.328451  -53.569336  -28.925184  0
14.593240  -53.723732  -28.740690  0
9.245688  -54.181496  -29.173536  0
14.320565  -53.929932  -29.031567  0
14.576217  -54.166634  -28.806942  0
9.221878  -54.570671  -29.061852  0
14.279212  -54.410904  -29.061863  0
14.541933  -54.674004  -28.809160  0
9.271805  -55.028259  -28.977535  0
14.229697  -54.920391  -29.035603  0
14.164288  -55.307327  -29.041136  0
14.485896  -55.231743  -28.808002  0
9.383677  -55.400272  -28.903280  0
9.451092  -55.823013  -29.208622  0
9.505705  -55.635475  -28.807043  0
13.927200  -55.529427  -29.214291  0
13.964333  -55.872704  -29.201838  0
14.260898  -55.662865  -28.956808  0
14.574401  -55.667099  -28.703402  0
9.602691  -56.067810  -28.984505  0
14.240432  -56.111210  -28.905645  0
14.052153  -56.339943  -29.011789  0
14.491571  -55.954895  -28.723007  0
9.721682  -56.561722  -28.972820  0
13.836201  -56.591160  -29.052330  0
13.593878  -56.836571  -29.067873  0
14.087263  -56.583431  -28.823637  0
9.849093  -56.989941  -28.863110  0
10.033191  -57.358612  -29.168549  0
12.699533  -57.370159  -29.102568  0
13.303125  -57.094540  -29.013132  0
13.030904  -57.364235  -28.913013  0
13.592240  -57.094666  -28.821663  0
10.278686  -57.613396  -28.910337  0
10.604574  -57.807011  -29.083738  0
10.966267  -57.891212  -29.190336  0
11.431435  -57.963638  -29.052269  0
12.346921  -57.631641  -29.089867  0
11.929567  -57.883327  -29.049221  0
12.670596  -57.642735  -28.860096  0
12.914565  -57.637634  -28.716558  0
11.464595  -58.117771  -28.676594  0
11.835731  -58.119846  -28.718224  0
11.268907  -52.455753  -28.420259  0
11.657704  -52.302132  -28.394110  0
11.996810  -52.302563  -28.577265  0
12.442021  -52.319431  -28.586487  0
12.910585  -52.249763  -28.451397  0
13.251034  -52.009388  -28.171688  0
13.543752  -52.266212  -28.379786  0
13.521966  -51.999229  -28.166426  0
10.852953  -52.714497  -28.449341  0
10.417458  -52.944309  -28.590490  0
11.090668  -52.583714  -28.231668  0
13.929466  -52.477165  -28.397997  0
14.153236  -52.701904  -28.428516  0
14.146749  -52.493645  -28.263500  0
10.354780  -53.096615  -28.444567  0
10.146565  -53.160522  -28.645634  0
10.509264  -53.069916  -28.257093  0
14.327174  -53.000134  -28.543835  0
14.598074  -53.295269  -28.535316  0
14.616018  -53.018726  -28.322348  0
9.760397  -53.507397  -28.480709  0
9.517434  -53.821053  -28.425425  0
10.034899  -53.452126  -28.268711  0
14.861523  -53.566544  -28.441973  0
15.120047  -53.715927  -28.241390  0
9.326581  -54.061291  -28.729332  0
9.501425  -54.205059  -28.290108  0
14.849755  -53.933983  -28.537512  0
15.104947  -54.162483  -28.313799  0
9.334148  -54.564762  -28.593290  0
9.530498  -54.686722  -28.235998  0
14.830343  -54.411659  -28.569134  0
15.089547  -54.678143  -28.334543  0
9.401185  -55.004601  -28.554918  0
9.486051  -55.330322  -28.571407  0
9.553238  -55.097351  -28.320265  0
14.809399  -54.941303  -28.568747  0
15.085213  -55.218510  -28.329708  0
9.635848  -55.541203  -28.445171  0
14.812907  -55.471153  -28.532700  0
15.089407  -55.736889  -28.275921  0
9.726546  -56.088127  -28.510387  0
14.820958  -56.027882  -28.405924  0
14.554403  -56.320148  -28.508921  0
15.092323  -56.060589  -28.198696  0
9.792399  -56.569366  -28.495363  0
14.325746  -56.596684  -28.538965  0
14.097878  -56.848030  -28.561054  0
14.582439  -56.604687  -28.294491  0
9.910689  -56.925560  -28.373552  0
10.098459  -57.298096  -28.530760  0
10.033085  -57.084526  -28.231665  0
13.844887  -57.090816  -28.578939  0
13.588346  -57.342930  -28.556427  0
14.097070  -57.111042  -28.292540  0
10.376369  -57.572834  -28.483538  0
10.611080  -57.769588  -28.619017  0
10.627295  -57.651768  -28.242598  0
11.034678  -57.960197  -28.749352  0
12.676295  -57.895905  -28.610384  0
13.308033  -57.607414  -28.475431  0
13.019763  -57.878471  -28.411001  0
13.602699  -57.586735  -28.262465  0
11.356471  -58.121674  -28.348366  0
11.750755  -58.248829  -28.383121  0
12.261935  -58.024693  -28.697468  0
12.182816  -58.253159  -28.371140  0
12.533320  -58.165558  -28.375120  0
12.869207  -58.121613  -28.219244  0
13.210860  -51.880718  -27.800625  0
13.537063  -51.878345  -27.909765  0
11.648057  -52.390675  -27.939322  0
12.046400  -52.237343  -28.026407  0
12.914210  -52.016201  -28.081535  0
12.500622  -52.147705  -28.152012  0
13.783422  -52.005486  -28.019018  0
14.087757  -52.252651  -28.023932  0
14.031176  -52.003056  -27.799099  0
11.318882  -52.597210  -27.927546  0
11.039743  -52.791862  -27.990158  0
11.547966  -52.536137  -27.722906  0
14.373267  -52.520763  -28.049770  0
14.614104  -52.777851  -28.048599  0
14.598747  -52.548721  -27.789162  0
10.768020  -53.058552  -27.993883  0
10.536798  -53.291359  -27.965223  0
11.027204  -53.015274  -27.737858  0
14.868224  -53.030491  -28.077267  0
15.112083  -53.303196  -28.036880  0
15.106314  -53.038025  -27.808613  0
10.295004  -53.500317  -27.998655  0
10.005533  -53.739700  -28.009491  0
10.537633  -53.541489  -27.700771  0
15.357760  -53.576981  -27.960060  0
15.573739  -53.713791  -27.733803  0
9.736948  -53.939949  -28.112045  0
10.007004  -54.179333  -27.766850  0
15.366667  -53.933651  -28.038576  0
15.590805  -54.149918  -27.778305  0
9.749798  -54.416595  -27.967243  0
10.021235  -54.674316  -27.687052  0
15.353567  -54.418755  -28.077169  0
15.578407  -54.675060  -27.805422  0
9.763004  -55.009228  -28.020697  0
10.039049  -55.210457  -27.705458  0
15.342897  -54.958675  -28.090208  0
15.565076  -55.219837  -27.811529  0
9.839197  -55.608147  -28.066376  0
10.047845  -55.748280  -27.743011  0
15.341607  -55.503689  -28.064552  0
15.557469  -55.720226  -27.764624  0
9.869637  -56.136242  -28.101751  0
10.044508  -56.235054  -27.783379  0
15.336332  -56.054836  -27.918072  0
15.084042  -56.335945  -28.031860  0
15.559037  -56.028923  -27.663239  0
9.917098  -56.557049  -28.082415  0
10.074505  -56.826466  -27.962244  0
10.042547  -56.536369  -27.833214  0
14.830515  -56.594391  -28.037315  0
14.584041  -56.851154  -28.042900  0
15.081037  -56.600536  -27.810671  0
10.225071  -57.132084  -28.025219  0
10.495742  -57.379017  -27.999952  0
10.437983  -57.131550  -27.762671  0
14.334448  -57.095821  -28.019651  0
14.063181  -57.338436  -28.059229  0
14.582549  -57.084885  -27.758938  0
10.782484  -57.600971  -27.939917  0
11.013324  -57.847351  -28.088160  0
10.957147  -57.641510  -27.755690  0
13.801820  -57.488789  -28.175745  0
13.646152  -57.800449  -27.876831  0
13.971904  -57.602814  -27.804220  0
11.377628  -58.106743  -27.981878  0
11.670850  -58.264503  -28.025043  0
11.607628  -58.193363  -27.716753  0
12.111649  -58.351612  -27.991310  0
12.616553  -58.314636  -27.986736  0
13.226717  -57.997906  -28.075794  0
13.032821  -58.225441  -27.882477  0
13.255268  -51.890095  -27.352495  0
13.589097  -51.820175  -27.488035  0
13.883497  -51.881413  -27.650434  0
12.122863  -52.384563  -27.446096  0
12.866076  -51.980289  -27.700903  0
12.542994  -52.165485  -27.514572  0
12.963534  -52.026783  -27.271015  0
14.211267  -52.045414  -27.472647  0
14.465670  -52.347881  -27.625612  0
11.795794  -52.584938  -27.432442  0
11.527135  -52.740955  -27.508768  0
12.062805  -52.565918  -27.201002  0
14.753061  -52.572010  -27.428457  0
14.990157  -52.860149  -27.643021  0
11.286416  -52.990925  -27.510006  0
11.036115  -53.262260  -27.489641  0
11.531555  -52.958702  -27.296253  0
15.283868  -53.069435  -27.462355  0
15.475513  -53.379559  -27.645397  0
10.798563  -53.536514  -27.474709  0
10.540527  -53.809521  -27.496330  0
11.056837  -53.506550  -27.248268  0
15.681405  -53.530830  -27.415962  0
10.274411  -53.982349  -27.628717  0
10.542617  -54.234581  -27.280657  0
15.763112  -53.864235  -27.418974  0
10.278830  -54.440964  -27.461527  0
10.541203  -54.691883  -27.194668  0
15.787945  -54.361641  -27.447075  0
10.284822  -54.924690  -27.425116  0
10.535494  -55.181282  -27.188591  0
15.762220  -54.916519  -27.491283  0
10.284306  -55.436066  -27.443260  0
10.530095  -55.695160  -27.207363  0
15.732879  -55.435429  -27.484537  0
10.274921  -55.957878  -27.483349  0
10.527181  -56.214394  -27.255749  0
15.693991  -55.894791  -27.414484  0
15.552734  -56.294315  -27.392395  0
10.252958  -56.477936  -27.595385  0
10.361829  -56.892426  -27.665993  0
10.528085  -56.641212  -27.364784  0
15.277035  -56.509415  -27.634937  0
15.082214  -56.829044  -27.475498  0
10.693487  -57.038311  -27.401264  0
10.868944  -57.437469  -27.576872  0
14.775377  -56.994381  -27.635632  0
14.570047  -57.279690  -27.420040  0
11.180441  -57.655972  -27.410494  0
11.397146  -57.978523  -27.595594  0
13.729174  -57.983963  -27.292091  0
14.236049  -57.471577  -27.611803  0
14.016684  -57.740604  -27.418438  0
11.742790  -58.134956  -27.326019  0
12.010351  -58.318329  -27.543541  0
12.544477  -58.381737  -27.511000  0
13.361098  -58.128872  -27.623175  0
13.013543  -58.314590  -27.518831  0
13.657494  -51.891335  -27.056171  0
13.968279  -51.884392  -27.228531  0
12.557503  -52.385597  -27.040243  0
13.344546  -52.058945  -26.904196  0
12.907521  -52.226460  -26.977787  0
13.699990  -52.014999  -26.787933  0
14.219847  -52.003212  -27.096640  0
14.025823  -52.041576  -26.853794  0
14.450864  -52.256065  -27.040745  0
12.340106  -52.618954  -26.936207  0
12.027699  -52.801620  -27.010748  0
12.612464  -52.556290  -26.780479  0
12.844857  -52.487995  -26.701859  0
14.728754  -52.536789  -26.904289  0
14.521856  -52.447800  -26.664097  0
15.022407  -52.794426  -27.044983  0
11.730033  -52.911831  -27.166908  0
11.548842  -53.200966  -27.091043  0
11.906443  -53.248394  -26.784945  0
15.347720  -53.038307  -26.878326  0
15.576967  -53.277714  -27.170536  0
11.263640  -53.407570  -27.162466  0
11.100414  -53.721066  -27.070881  0
11.484852  -53.652096  -26.840363  0
11.848086  -53.721069  -26.558205  0
15.787890  -53.557850  -27.013428  0
10.821415  -53.990955  -27.149694  0
11.142969  -54.097168  -26.864433  0
11.498331  -54.113602  -26.622011  0
15.955488  -53.990353  -26.969427  0
16.139490  -54.242020  -26.684629  0
10.823648  -54.434536  -26.998209  0
11.139641  -54.592957  -26.734417  0
15.970924  -54.617615  -27.059673  0
16.138786  -54.638786  -26.684311  0
10.801267  -54.925766  -26.956806  0
11.039997  -55.168716  -26.730745  0
15.879595  -55.141651  -27.195244  0
10.778125  -55.445210  -26.961025  0
11.010741  -55.703911  -26.724455  0
15.859948  -55.585979  -27.072641  0
10.775722  -55.975407  -26.974649  0
11.018482  -56.231426  -26.722088  0
15.776167  -56.102631  -26.935278  0
15.640645  -56.474682  -26.957258  0
10.792964  -56.540409  -27.035915  0
11.063345  -56.698219  -26.730177  0
15.418780  -56.716621  -27.062315  0
15.164637  -56.998241  -27.002289  0
15.607291  -56.626270  -26.805489  0
10.946153  -56.916557  -26.961365  0
11.110097  -57.252384  -27.005512  0
11.097561  -56.976147  -26.783058  0
14.902772  -57.140453  -27.166742  0
14.668253  -57.382137  -26.814106  0
15.011458  -57.168518  -26.776464  0
11.366891  -57.548573  -26.929377  0
11.597066  -57.819767  -27.000866  0
11.526407  -57.591263  -26.750347  0
13.765707  -58.035919  -26.849030  0
14.332976  -57.582737  -27.117584  0
14.050456  -57.828297  -26.961092  0
11.922108  -58.071091  -26.956221  0
12.069453  -58.240505  -27.118595  0
12.266747  -58.139652  -26.760349  0
12.500988  -58.320610  -27.008608  0
12.631916  -58.198166  -26.590305  0
13.418977  -58.199429  -27.153217  0
13.056056  -58.316650  -26.991007  0
13.495842  -58.186668  -26.768608  0
13.717508  -52.272167  -26.575565  0
14.214740  -52.332958  -26.603195  0
12.685301  -52.780460  -26.557915  0
13.219996  -52.375881  -26.614437  0
13.041790  -52.662930  -26.450829  0
13.416244  -52.655380  -26.336752  0
14.366801  -52.518288  -26.474838  0
13.994101  -52.665043  -26.286373  0
14.618155  -52.728088  -26.471380  0
15.068224  -52.904198  -26.605856  0
12.315649  -53.002209  -26.648117  0
12.597046  -53.132599  -26.377987  0
12.996354  -53.043213  -26.229628  0
13.488411  -53.002522  -26.071207  0
14.529896  -52.954453  -26.090679  0
15.264647  -53.060143  -26.451033  0
14.912436  -52.985859  -26.231432  0
15.584282  -53.268425  -26.574453  0
12.294484  -53.490952  -26.380156  0
12.041341  -53.872528  -26.361179  0
12.675845  -53.356628  -26.208784  0
15.911270  -53.586548  -26.455614  0
16.109358  -53.889668  -26.539515  0
11.797296  -54.024246  -26.454662  0
11.648225  -54.274376  -26.455935  0
11.935918  -54.255108  -26.270176  0
16.215168  -54.054176  -26.355616  0
11.431511  -54.484383  -26.540373  0
11.617026  -54.597115  -26.370159  0
11.881807  -54.701214  -26.132898  0
16.244297  -54.457085  -26.322966  0
16.190336  -54.868217  -26.459099  0
11.326381  -54.888187  -26.523077  0
11.582747  -55.086014  -26.264400  0
16.034678  -55.116665  -26.776180  0
16.145987  -55.269150  -26.332317  0
11.265447  -55.410339  -26.495384  0
11.502648  -55.651314  -26.249792  0
15.965032  -55.712975  -26.549404  0
16.082253  -55.626701  -26.145042  0
11.247028  -55.946930  -26.476286  0
11.522611  -56.185997  -26.229650  0
15.853928  -56.105774  -26.530600  0
11.282069  -56.470932  -26.473236  0
11.648808  -56.751060  -26.230038  0
15.716324  -56.428028  -26.591389  0
15.541292  -56.715038  -26.650244  0
15.540516  -56.647770  -26.250116  0
11.319638  -56.975376  -26.572447  0
11.448682  -57.373981  -26.658550  0
11.697509  -57.240490  -26.376024  0
12.045693  -57.171532  -26.117678  0
14.461515  -57.475941  -26.347408  0
15.281079  -56.953468  -26.602053  0
14.895144  -57.215275  -26.389124  0
15.194572  -56.958736  -26.163195  0
11.717969  -57.584976  -26.584026  0
12.007331  -57.866711  -26.634651  0
12.055893  -57.556908  -26.329746  0
12.494713  -57.888126  -26.339653  0
12.343421  -57.510418  -26.132542  0
14.292714  -57.660137  -26.658855  0
14.010307  -57.870831  -26.615156  0
14.043004  -57.754883  -26.301220  0
12.885572  -58.114216  -26.348743  0
12.965639  -58.260445  -26.592640  0
13.240277  -58.082443  -26.260612  0
13.751169  -58.022129  -26.501862  0
13.382405  -58.183323  -26.516930  0
13.636359  -57.959316  -26.223255  0
14.214804  -52.909069  -26.075598  0
13.183867  -53.356186  -25.955929  0
13.872130  -53.087177  -25.877718  0
13.513518  -53.314110  -25.813196  0
14.306713  -53.055878  -25.883720  0
14.105138  -53.062740  -25.857763  0
14.681514  -53.149818  -25.808182  0
15.263320  -53.197968  -26.026108  0
15.669372  -53.357212  -26.095028  0
12.879331  -53.431274  -26.064856  0
12.623777  -53.682896  -26.087883  0
12.949888  -53.725784  -25.890009  0
13.327053  -53.693321  -25.676760  0
15.869973  -53.528973  -25.884892  0
16.101915  -53.783066  -26.132843  0
12.308158  -53.976799  -26.149027  0
12.670676  -54.131668  -25.870600  0
13.064744  -54.090431  -25.652937  0
16.217432  -54.106583  -25.983774  0
12.308053  -54.509995  -25.920963  0
12.088067  -54.871170  -25.915047  0
12.624302  -54.479774  -25.745571  0
12.878612  -54.468628  -25.596840  0
16.247698  -54.547516  -25.825760  0
16.197556  -54.420712  -25.552542  0
11.865576  -55.039066  -26.030096  0
12.099883  -55.260376  -25.799549  0
16.245770  -54.925140  -26.106216  0
11.779610  -55.413677  -26.030973  0
12.003142  -55.665195  -25.825979  0
12.306626  -55.688377  -25.569616  0
16.192772  -55.347031  -25.962521  0
16.087444  -55.659096  -25.866667  0
16.153198  -55.451599  -25.701283  0
11.776015  -55.901932  -26.007326  0
12.187434  -56.155533  -25.713840  0
15.868235  -56.075512  -26.085876  0
15.612353  -56.440002  -25.821634  0
11.855181  -56.410465  -25.997824  0
11.978025  -56.807243  -26.010681  0
12.219687  -56.699490  -25.843664  0
12.620247  -56.667969  -25.603788  0
15.374059  -56.730404  -25.914898  0
15.025623  -56.893669  -25.790329  0
12.236888  -57.022766  -25.943277  0
12.386737  -57.290970  -25.989008  0
12.611831  -57.133247  -25.834761  0
13.128412  -57.082565  -25.653645  0
13.648029  -57.104244  -25.613211  0
14.132037  -57.486713  -26.024359  0
14.167718  -57.183880  -25.752064  0
14.888878  -57.114540  -26.047628  0
14.555585  -57.278790  -26.055943  0
14.654445  -57.093597  -25.835562  0
12.666591  -57.560745  -26.023436  0
12.988345  -57.869991  -26.111214  0
13.084301  -57.509377  -25.884356  0
13.798452  -57.710068  -26.034576  0
13.420515  -57.798492  -26.015028  0
13.634100  -57.432293  -25.827932  0
14.196539  -53.265915  -25.590572  0
14.629904  -53.342655  -25.423523  0
15.082604  -53.338524  -25.525518  0
15.547072  -53.383312  -25.684614  0
13.786035  -53.543762  -25.476173  0
13.536819  -53.878357  -25.408449  0
14.104723  -53.509064  -25.304310  0
14.419146  -53.515968  -25.202774  0
14.906503  -53.529465  -25.167229  0
15.754074  -53.527836  -25.563297  0
15.466880  -53.572487  -25.312147  0
15.953560  -53.805626  -25.585747  0
13.335844  -54.057892  -25.474617  0
13.519077  -54.197578  -25.248232  0
16.179728  -54.197945  -25.623474  0
16.155308  -54.280285  -25.469194  0
15.976127  -54.149849  -25.308393  0
12.680823  -54.798252  -25.565071  0
13.266402  -54.472347  -25.325476  0
13.009859  -54.780666  -25.365290  0
13.514739  -54.444683  -25.136456  0
16.086716  -54.397236  -25.372318  0
15.837843  -54.454830  -25.112377  0
16.083958  -54.714497  -25.417940  0
12.365786  -54.982872  -25.687416  0
12.410591  -55.337658  -25.542467  0
12.662852  -55.212822  -25.400766  0
12.963866  -55.110828  -25.243929  0
16.192535  -55.090343  -25.689642  0
16.113504  -55.381660  -25.543465  0
15.974421  -55.229870  -25.323755  0
12.656783  -55.608086  -25.297302  0
12.518782  -55.867573  -25.361980  0
12.915529  -55.420425  -25.156601  0
15.944651  -55.718277  -25.547514  0
15.718569  -55.584862  -25.137703  0
12.401270  -56.000618  -25.473015  0
12.587111  -56.250320  -25.395638  0
12.544984  -56.035393  -25.342920  0
15.751615  -56.152786  -25.639000  0
15.604415  -56.334476  -25.562693  0
15.562035  -56.107613  -25.303970  0
12.838142  -56.527905  -25.361860  0
13.003798  -56.757706  -25.454012  0
13.191282  -56.585686  -25.250366  0
13.409623  -56.855164  -25.427891  0
13.669242  -56.630215  -25.191881  0
13.939927  -56.896759  -25.444141  0
14.210577  -56.639118  -25.190697  0
14.547526  -56.881866  -25.523376  0
14.729904  -56.579586  -25.202724  0
15.364364  -56.550797  -25.572495  0
14.994237  -56.703388  -25.459675  0
15.166816  -56.428116  -25.233971  0
14.185366  -53.796825  -25.058846  0
14.698777  -53.773159  -24.928383  0
15.191326  -53.783463  -24.958261  0
15.642749  -53.894505  -25.118225  0
13.792298  -53.992996  -25.155222  0
14.129584  -54.266281  -24.863874  0
14.596184  -54.131695  -24.782764  0
14.994715  -54.022137  -24.783340  0
15.696747  -54.163353  -25.010712  0
15.528255  -54.339069  -24.875362  0
15.376769  -54.085026  -24.852982  0
13.745140  -54.392181  -25.004208  0
13.582079  -54.718330  -25.003128  0
14.054713  -54.787933  -24.769566  0
14.558363  -54.594173  -24.692636  0
15.546653  -54.612743  -24.886883  0
15.121042  -54.447346  -24.740782  0
15.783110  -54.867767  -25.071409  0
13.288434  -54.964561  -25.102947  0
13.711698  -55.226372  -24.816330  0
14.204072  -55.266537  -24.669861  0
14.573767  -55.084667  -24.652861  0
14.952387  -54.898911  -24.678484  0
15.706143  -55.216099  -25.016237  0
15.493222  -55.397701  -24.892527  0
15.401847  -54.978016  -24.820072  0
13.245573  -55.382519  -24.983053  0
13.057701  -55.716087  -25.017685  0
13.568874  -55.758038  -24.808872  0
14.111142  -55.654221  -24.695475  0
14.596137  -55.558796  -24.672169  0
15.388857  -55.770737  -24.945456  0
15.080542  -55.382271  -24.737448  0
12.776307  -55.988930  -25.188696  0
12.978104  -56.308231  -25.162733  0
13.224582  -56.056099  -24.951344  0
13.417956  -56.358963  -25.014301  0
13.626360  -56.131824  -24.839701  0
13.899318  -56.374645  -24.949295  0
14.033627  -56.057426  -24.776419  0
14.404924  -56.344612  -24.938501  0
14.528140  -55.986523  -24.762640  0
15.242019  -56.127625  -25.018812  0
14.882030  -56.264172  -24.962982  0
14.989679  -55.880238  -24.809290  0
18 22 0 0
0 25 18 0
23 30 1 0
23 1 22 0
1 0 22 0
1 2 0 0
25 0 26 0
0 3 26 0
0 2 3 0
3 32 26 0
1 30 4 0
4 30 37 0
1 5 2 0
1 4 5 0
2 6 3 0
2 5 6 0
32 3 33 0
3 7 33 0
3 6 7 0
7 39 33 0
4 37 8 0
8 37 41 0
4 9 5 0
4 8 9 0
5 10 6 0
5 9 10 0
6 11 7 0
6 10 11 0
39 7 44 0
44 7 11 0
41 43 8 0
46 12 43 0
12 8 43 0
12 9 8 0
9 13 10 0
9 12 13 0
10 14 11 0
10 13 14 0
44 11 50 0
50 11 14 0
46 48 12 0
12 48 13 0
13 48 49 0
13 49 14 0
14 49 51 0
14 51 50 0
56 62 15 0
16 58 15 0
15 58 56 0
16 65 58 0
60 68 17 0
19 63 17 0
17 63 60 0
63 19 62 0
19 15 62 0
19 20 15 0
15 21 16 0
15 20 21 0
65 16 70 0
70 16 21 0
17 68 24 0
24 68 75 0
24 22 18 0
19 24 18 0
17 24 19 0
19 18 25 0
27 19 25 0
20 19 27 0
20 28 21 0
20 27 28 0
70 21 71 0
21 29 71 0
21 28 29 0
29 78 71 0
76 83 31 0
76 31 75 0
75 31 24 0
31 30 24 0
30 23 24 0
24 23 22 0
26 27 25 0
27 26 32 0
34 27 32 0
28 27 34 0
28 35 29 0
28 34 35 0
78 29 79 0
29 36 79 0
29 35 36 0
36 84 79 0
31 83 38 0
38 83 87 0
38 37 30 0
38 30 31 0
33 34 32 0
34 33 39 0
40 34 39 0
35 34 40 0
85 36 88 0
36 40 88 0
36 35 40 0
36 85 84 0
38 87 42 0
42 87 91 0
42 41 37 0
42 37 38 0
44 45 40 0
44 40 39 0
88 40 94 0
94 40 45 0
91 92 42 0
92 98 47 0
92 47 43 0
42 92 43 0
41 42 43 0
47 46 43 0
50 52 45 0
50 45 44 0
94 45 100 0
100 45 52 0
98 99 47 0
99 104 53 0
99 53 48 0
47 99 48 0
46 47 48 0
54 49 48 0
54 48 53 0
55 51 49 0
55 49 54 0
55 108 51 0
51 108 50 0
108 101 50 0
101 52 50 0
52 101 100 0
104 106 53 0
53 106 54 0
54 106 107 0
54 107 55 0
55 107 109 0
55 109 108 0
114 119 57 0
59 115 57 0
57 115 114 0
59 121 115 0
117 127 61 0
64 120 61 0
61 120 117 0
120 64 119 0
119 64 57 0
64 62 57 0
62 56 57 0
57 56 58 0
57 58 59 0
66 122 65 0
65 122 58 0
122 121 58 0
121 59 58 0
66 130 122 0
125 131 67 0
67 133 125 0
128 137 69 0
128 69 127 0
127 69 61 0
69 68 61 0
68 60 61 0
61 60 63 0
61 63 64 0
64 63 62 0
70 72 66 0
70 66 65 0
130 66 138 0
138 66 72 0
67 131 73 0
73 131 139 0
133 67 134 0
67 74 134 0
67 73 74 0
74 142 134 0
69 137 77 0
77 137 144 0
77 75 68 0
77 68 69 0
71 72 70 0
80 140 78 0
78 140 71 0
140 138 71 0
138 72 71 0
140 80 139 0
80 73 139 0
80 81 73 0
73 82 74 0
73 81 82 0
142 74 145 0
145 74 82 0
77 144 76 0
144 83 76 0
144 148 83 0
77 76 75 0
79 80 78 0
80 79 84 0
86 80 84 0
81 80 86 0
146 82 149 0
82 86 149 0
82 81 86 0
82 146 145 0
148 87 83 0
152 87 148 0
88 89 85 0
86 84 85 0
89 86 85 0
90 86 89 0
149 86 154 0
154 86 90 0
93 91 153 0
91 152 153 0
91 87 152 0
157 93 153 0
94 95 89 0
94 89 88 0
89 96 90 0
89 95 96 0
154 90 155 0
90 97 155 0
90 96 97 0
97 158 155 0
93 92 91 0
98 92 93 0
157 98 93 0
161 98 157 0
100 102 95 0
100 95 94 0
95 103 96 0
95 102 103 0
159 97 163 0
97 103 163 0
97 96 103 0
97 159 158 0
99 98 105 0
98 166 105 0
98 161 166 0
105 104 99 0
108 110 101 0
110 168 101 0
101 168 100 0
168 162 100 0
162 102 100 0
102 162 103 0
103 162 164 0
103 164 163 0
166 167 105 0
167 172 111 0
167 111 106 0
105 167 106 0
104 105 106 0
112 107 106 0
112 106 111 0
113 109 107 0
113 107 112 0
113 175 109 0
109 175 108 0
175 169 108 0
169 110 108 0
110 169 168 0
172 173 111 0
111 173 112 0
112 173 174 0
112 174 113 0
113 174 176 0
113 176 175 0
178 180 116 0
116 183 178 0
179 191 118 0
118 193 179 0
181 195 114 0
114 195 119 0
115 116 180 0
181 115 180 0
114 115 181 0
123 184 121 0
121 184 115 0
184 183 115 0
183 116 115 0
124 186 123 0
123 186 184 0
126 188 124 0
124 188 186 0
126 198 188 0
192 203 129 0
192 129 191 0
191 129 118 0
129 127 118 0
127 117 118 0
196 193 118 0
117 196 118 0
120 196 117 0
120 119 195 0
120 195 196 0
122 123 121 0
123 122 130 0
132 123 130 0
124 123 132 0
132 131 125 0
126 132 125 0
124 132 126 0
135 199 133 0
133 199 125 0
199 198 125 0
198 126 125 0
136 201 135 0
135 201 199 0
136 205 201 0
129 203 128 0
203 137 128 0
203 207 137 0
129 128 127 0
138 141 132 0
138 132 130 0
141 139 131 0
141 131 132 0
134 135 133 0
135 134 142 0
143 135 142 0
136 135 143 0
205 136 208 0
208 136 143 0
207 144 137 0
210 144 207 0
140 141 138 0
141 140 139 0
145 147 143 0
145 143 142 0
208 143 211 0
211 143 147 0
210 148 144 0
213 148 210 0
149 150 146 0
147 145 146 0
150 147 146 0
151 147 150 0
211 147 214 0
214 147 151 0
213 152 148 0
217 152 213 0
154 156 150 0
154 150 149 0
215 151 220 0
151 156 220 0
151 150 156 0
151 215 214 0
217 218 152 0
152 218 153 0
157 153 218 0
157 218 224 0
155 156 154 0
160 221 158 0
158 221 155 0
221 220 155 0
220 156 155 0
160 225 221 0
224 161 157 0
228 161 224 0
163 165 159 0
165 229 159 0
159 229 158 0
229 226 158 0
226 160 158 0
160 226 225 0
228 166 161 0
232 166 228 0
168 170 162 0
171 164 162 0
171 162 170 0
171 235 164 0
164 235 163 0
235 230 163 0
230 165 163 0
165 230 229 0
232 233 166 0
166 233 167 0
172 167 233 0
172 233 238 0
175 177 169 0
177 242 169 0
169 242 168 0
242 234 168 0
234 170 168 0
170 234 171 0
171 234 236 0
171 236 235 0
238 239 172 0
172 239 173 0
173 240 174 0
239 240 173 0
174 241 176 0
240 241 174 0
175 176 177 0
176 243 177 0
176 241 243 0
177 243 242 0
248 256 182 0
180 178 182 0
178 248 182 0
178 249 248 0
185 250 183 0
250 178 183 0
250 249 178 0
187 251 185 0
185 251 250 0
189 252 187 0
187 252 251 0
190 254 189 0
189 254 252 0
190 259 254 0
194 191 179 0
257 194 262 0
257 179 194 0
257 197 193 0
179 257 193 0
257 197 256 0
256 197 182 0
197 195 182 0
195 181 182 0
182 181 180 0
184 185 183 0
185 184 186 0
185 186 187 0
187 186 188 0
187 188 189 0
189 188 198 0
200 189 198 0
190 189 200 0
259 190 260 0
190 202 260 0
190 200 202 0
202 265 260 0
204 203 192 0
268 204 192 0
268 192 191 0
263 268 191 0
194 263 191 0
263 197 262 0
263 196 197 0
263 194 193 0
196 263 193 0
197 196 195 0
199 200 198 0
200 199 201 0
200 201 202 0
206 266 205 0
205 266 201 0
266 265 201 0
265 202 201 0
206 271 266 0
269 273 204 0
273 203 204 0
273 207 203 0
269 204 268 0
208 209 206 0
208 206 205 0
271 206 275 0
275 206 209 0
273 210 207 0
277 210 273 0
211 212 209 0
211 209 208 0
275 209 279 0
279 209 212 0
277 213 210 0
281 213 277 0
214 216 212 0
214 212 211 0
279 212 284 0
284 212 216 0
219 217 282 0
217 281 282 0
217 213 281 0
286 219 282 0
220 222 215 0
216 214 215 0
222 216 215 0
223 216 222 0
284 216 287 0
287 216 223 0
219 218 217 0
224 218 219 0
286 224 219 0
289 224 286 0
221 222 220 0
222 221 225 0
227 222 225 0
223 222 227 0
287 223 290 0
290 223 227 0
289 228 224 0
293 228 289 0
229 231 226 0
231 294 226 0
226 294 225 0
294 291 225 0
291 227 225 0
227 291 290 0
293 232 228 0
297 232 293 0
235 237 230 0
237 300 230 0
230 300 229 0
300 295 229 0
295 231 229 0
231 295 294 0
297 298 232 0
232 298 233 0
238 233 298 0
238 298 303 0
242 244 234 0
245 236 234 0
245 234 244 0
245 308 236 0
236 308 235 0
308 301 235 0
301 237 235 0
237 301 300 0
303 304 238 0
238 304 239 0
239 306 240 0
304 306 239 0
306 311 246 0
241 306 246 0
240 306 241 0
247 243 241 0
247 241 246 0
247 313 243 0
243 313 242 0
313 307 242 0
307 244 242 0
244 307 245 0
245 307 309 0
245 309 308 0
311 312 246 0
246 312 247 0
247 312 314 0
247 314 313 0
317 321 253 0
255 318 253 0
253 318 317 0
255 323 318 0
258 256 248 0
258 248 326 0
248 319 326 0
248 249 319 0
320 249 250 0
320 319 249 0
322 250 251 0
322 320 250 0
252 253 321 0
322 252 321 0
251 252 322 0
253 252 254 0
253 254 255 0
261 324 259 0
259 324 254 0
324 323 254 0
323 255 254 0
261 329 324 0
264 262 257 0
332 264 257 0
332 257 256 0
327 332 256 0
258 327 256 0
327 258 326 0
260 261 259 0
267 330 265 0
265 330 260 0
330 329 260 0
329 261 260 0
267 335 330 0
270 268 263 0
338 270 263 0
338 263 262 0
333 338 262 0
264 333 262 0
333 264 332 0
266 267 265 0
272 336 271 0
271 336 266 0
336 335 266 0
335 267 266 0
272 341 336 0
274 273 269 0
343 274 269 0
343 269 268 0
339 343 268 0
270 339 268 0
339 270 338 0
275 276 272 0
275 272 271 0
341 272 345 0
345 272 276 0
278 277 274 0
274 277 273 0
274 343 347 0
274 347 278 0
279 280 276 0
279 276 275 0
345 276 349 0
349 276 280 0
283 281 278 0
278 281 277 0
278 347 351 0
278 351 283 0
284 285 280 0
284 280 279 0
349 280 353 0
353 280 285 0
283 282 281 0
286 282 283 0
351 286 283 0
355 286 351 0
287 288 285 0
287 285 284 0
353 285 357 0
357 285 288 0
355 289 286 0
359 289 355 0
290 292 288 0
290 288 287 0
357 288 361 0
361 288 292 0
359 293 289 0
364 293 359 0
294 296 291 0
296 367 291 0
291 367 290 0
367 362 290 0
362 292 290 0
292 362 361 0
299 297 365 0
297 364 365 0
297 293 364 0
370 299 365 0
300 302 295 0
302 373 295 0
295 373 294 0
373 368 294 0
368 296 294 0
296 368 367 0
299 298 297 0
371 305 303 0
371 303 298 0
370 371 298 0
299 370 298 0
376 305 371 0
308 310 301 0
310 379 301 0
301 379 300 0
379 374 300 0
374 302 300 0
302 374 373 0
305 304 303 0
376 377 305 0
377 304 305 0
377 306 304 0
311 306 377 0
311 377 382 0
313 315 307 0
316 309 307 0
316 307 315 0
316 387 309 0
309 387 308 0
387 380 308 0
380 310 308 0
310 380 379 0
382 383 311 0
311 383 312 0
312 385 314 0
383 385 312 0
313 314 315 0
314 386 315 0
314 385 386 0
315 386 316 0
316 386 388 0
316 388 387 0
389 393 317 0
317 393 321 0
390 317 318 0
390 389 317 0
325 391 323 0
391 318 323 0
391 390 318 0
325 396 391 0
328 326 319 0
328 319 398 0
319 392 398 0
319 320 392 0
394 320 322 0
394 392 320 0
322 321 393 0
322 393 394 0
324 325 323 0
331 397 329 0
329 397 324 0
397 396 324 0
396 325 324 0
331 401 397 0
334 332 327 0
403 334 327 0
403 327 326 0
399 403 326 0
328 399 326 0
399 328 398 0
330 331 329 0
337 402 335 0
335 402 330 0
402 401 330 0
401 331 330 0
337 406 402 0
340 338 333 0
408 340 333 0
408 333 332 0
404 408 332 0
334 404 332 0
404 334 403 0
336 337 335 0
342 407 341 0
341 407 336 0
407 406 336 0
406 337 336 0
342 411 407 0
344 343 339 0
412 344 339 0
412 339 338 0
409 412 338 0
340 409 338 0
409 340 408 0
345 346 342 0
345 342 341 0
411 342 414 0
414 342 346 0
348 347 344 0
344 347 343 0
344 412 415 0
344 415 348 0
349 350 346 0
349 346 345 0
414 346 417 0
417 346 350 0
352 351 348 0
348 351 347 0
348 415 418 0
348 418 352 0
353 354 350 0
353 350 349 0
417 350 420 0
420 350 354 0
356 355 352 0
352 355 351 0
352 418 421 0
352 421 356 0
357 358 354 0
357 354 353 0
420 354 423 0
423 354 358 0
360 359 356 0
356 359 355 0
356 421 424 0
356 424 360 0
361 363 358 0
361 358 357 0
423 358 426 0
426 358 363 0
366 364 360 0
360 364 359 0
360 424 428 0
360 428 366 0
367 369 362 0
369 431 362 0
362 431 361 0
431 427 361 0
427 363 361 0
363 427 426 0
366 365 364 0
429 372 370 0
429 370 365 0
428 429 365 0
366 428 365 0
433 372 429 0
373 375 368 0
375 435 368 0
368 435 367 0
435 432 367 0
432 369 367 0
369 432 431 0
372 371 370 0
434 378 376 0
434 376 371 0
433 434 371 0
372 433 371 0
437 378 434 0
379 381 374 0
381 440 374 0
374 440 373 0
440 436 373 0
436 375 373 0
375 436 435 0
378 377 376 0
438 384 382 0
438 382 377 0
437 438 377 0
378 437 377 0
442 384 438 0
445 439 380 0
445 380 387 0
379 380 381 0
380 441 381 0
380 439 441 0
381 441 440 0
384 383 382 0
442 443 384 0
443 383 384 0
443 385 383 0
385 444 386 0
443 444 385 0
386 446 388 0
444 446 386 0
387 388 445 0
445 388 446 0
395 393 389 0
395 389 450 0
389 447 450 0
389 390 447 0
448 390 391 0
448 447 390 0
391 396 448 0
448 396 453 0
400 398 392 0
400 392 456 0
392 449 456 0
392 394 449 0
394 393 395 0
451 394 395 0
449 394 451 0
451 395 450 0
455 453 396 0
455 396 397 0
397 401 455 0
455 401 460 0
405 403 399 0
463 405 399 0
463 399 398 0
457 463 398 0
400 457 398 0
457 400 456 0
462 460 401 0
462 401 402 0
402 406 462 0
462 406 466 0
410 408 404 0
468 410 404 0
468 404 403 0
464 468 403 0
405 464 403 0
464 405 463 0
467 466 406 0
467 406 407 0
407 411 467 0
467 411 472 0
413 412 409 0
473 413 409 0
473 409 408 0
469 473 408 0
410 469 408 0
469 410 468 0
414 472 411 0
414 476 472 0
416 415 413 0
413 415 412 0
413 473 478 0
413 478 416 0
417 476 414 0
417 480 476 0
419 418 416 0
416 418 415 0
416 478 482 0
416 482 419 0
420 480 417 0
420 484 480 0
422 421 419 0
419 421 418 0
419 482 485 0
419 485 422 0
423 484 420 0
423 487 484 0
425 424 422 0
422 424 421 0
422 485 488 0
422 488 425 0
426 487 423 0
426 490 487 0
430 428 425 0
425 428 424 0
425 488 492 0
425 492 430 0
494 491 427 0
494 427 431 0
426 427 490 0
490 427 491 0
430 429 428 0
433 429 430 0
492 433 430 0
497 433 492 0
500 495 432 0
500 432 435 0
431 432 494 0
494 432 495 0
497 498 433 0
433 498 434 0
437 434 498 0
437 498 503 0
507 501 436 0
507 436 440 0
435 436 500 0
500 436 501 0
503 504 437 0
437 504 438 0
442 438 504 0
442 504 509 0
514 506 439 0
514 439 445 0
439 508 441 0
506 508 439 0
440 441 507 0
507 441 508 0
509 510 442 0
442 510 443 0
443 512 444 0
510 512 443 0
444 515 446 0
512 515 444 0
445 446 514 0
514 446 515 0
452 450 447 0
448 454 447 0
447 454 452 0
453 454 448 0
458 456 449 0
451 459 449 0
449 459 458 0
520 459 451 0
520 451 450 0
517 520 450 0
452 517 450 0
517 452 454 0
517 454 518 0
523 518 461 0
461 518 455 0
518 454 455 0
454 453 455 0
460 461 455 0
465 463 457 0
527 465 457 0
527 457 456 0
519 527 456 0
458 519 456 0
519 458 459 0
519 459 521 0
521 459 520 0
525 523 461 0
525 461 460 0
462 525 460 0
526 525 462 0
462 466 526 0
526 466 532 0
470 468 464 0
463 465 464 0
465 470 464 0
465 471 470 0
465 527 535 0
465 535 471 0
534 532 466 0
534 466 467 0
467 472 534 0
534 472 538 0
474 473 469 0
468 470 469 0
470 474 469 0
470 475 474 0
471 536 540 0
475 471 540 0
470 471 475 0
536 471 535 0
476 477 539 0
538 476 539 0
472 476 538 0
477 543 539 0
479 478 474 0
474 478 473 0
475 541 544 0
479 475 544 0
474 475 479 0
541 475 540 0
480 481 477 0
480 477 476 0
543 477 547 0
547 477 481 0
483 482 479 0
479 482 478 0
479 544 549 0
479 549 483 0
551 548 481 0
480 551 481 0
484 551 480 0
481 548 547 0
486 485 483 0
483 485 482 0
483 549 553 0
483 553 486 0
487 551 484 0
487 555 551 0
489 488 486 0
486 488 485 0
486 553 557 0
486 557 489 0
490 555 487 0
490 559 555 0
493 492 489 0
489 492 488 0
489 557 560 0
489 560 493 0
494 496 491 0
496 562 491 0
562 490 491 0
562 559 490 0
499 497 493 0
493 497 492 0
493 560 565 0
493 565 499 0
500 502 495 0
502 570 495 0
495 570 494 0
570 563 494 0
563 496 494 0
496 563 562 0
499 498 497 0
566 505 503 0
566 503 498 0
565 566 498 0
499 565 498 0
573 505 566 0
578 569 501 0
578 501 507 0
500 501 502 0
501 571 502 0
501 569 571 0
502 571 570 0
505 504 503 0
574 511 509 0
574 509 504 0
573 574 504 0
505 573 504 0
576 513 511 0
576 511 574 0
581 513 576 0
514 516 506 0
506 516 584 0
579 506 584 0
508 506 579 0
507 508 578 0
578 508 579 0
511 510 509 0
510 511 512 0
512 511 513 0
581 582 513 0
582 512 513 0
582 515 512 0
514 515 516 0
515 585 516 0
515 582 585 0
516 585 584 0
522 520 517 0
518 524 517 0
517 524 522 0
523 524 518 0
528 527 519 0
521 529 519 0
519 529 528 0
520 522 521 0
522 529 521 0
522 530 529 0
524 587 589 0
530 524 589 0
522 524 530 0
591 587 531 0
531 587 525 0
587 524 525 0
524 523 525 0
526 533 525 0
525 533 531 0
532 533 526 0
537 535 528 0
528 535 527 0
529 588 596 0
537 529 596 0
528 529 537 0
588 529 530 0
588 530 590 0
590 530 589 0
593 591 531 0
593 531 533 0
593 533 594 0
594 533 532 0
534 594 532 0
595 594 534 0
534 538 595 0
595 538 600 0
542 540 536 0
602 542 536 0
602 536 535 0
597 602 535 0
537 597 535 0
597 537 596 0
601 600 538 0
601 538 539 0
539 543 601 0
601 543 605 0
545 544 541 0
540 542 541 0
542 545 541 0
542 546 545 0
542 602 606 0
542 606 546 0
547 605 543 0
547 610 605 0
550 549 545 0
545 549 544 0
546 607 612 0
550 546 612 0
545 546 550 0
607 546 606 0
551 552 548 0
552 614 548 0
614 547 548 0
614 610 547 0
554 553 550 0
550 553 549 0
550 612 615 0
550 615 554 0
555 556 552 0
555 552 551 0
614 552 618 0
618 552 556 0
558 557 554 0
554 557 553 0
554 615 621 0
554 621 558 0
623 619 556 0
555 623 556 0
559 623 555 0
556 619 618 0
561 560 558 0
558 560 557 0
558 621 625 0
558 625 561 0
629 624 564 0
624 623 564 0
623 562 564 0
623 559 562 0
567 565 561 0
561 565 560 0
561 625 626 0
568 561 626 0
567 561 568 0
631 568 626 0
638 630 572 0
572 630 629 0
572 629 564 0
570 572 564 0
563 570 564 0
563 564 562 0
567 566 565 0
566 567 573 0
567 575 573 0
567 568 575 0
568 631 632 0
577 568 632 0
575 568 577 0
641 577 632 0
644 636 580 0
569 578 580 0
636 569 580 0
639 569 636 0
572 571 638 0
571 639 638 0
571 569 639 0
571 572 570 0
575 574 573 0
574 575 576 0
576 575 577 0
642 583 581 0
642 581 576 0
641 642 576 0
577 641 576 0
645 586 583 0
645 583 642 0
586 645 644 0
586 644 580 0
584 586 580 0
579 584 580 0
579 580 578 0
583 582 581 0
582 583 585 0
585 583 586 0
585 586 584 0
592 589 587 0
591 592 587 0
598 596 588 0
590 599 588 0
588 599 598 0
651 599 590 0
651 590 589 0
647 651 589 0
592 647 589 0
647 592 591 0
593 647 591 0
648 647 593 0
649 593 594 0
649 648 593 0
650 594 595 0
650 649 594 0
595 600 650 0
650 600 656 0
603 602 597 0
596 598 597 0
598 603 597 0
598 604 603 0
599 652 659 0
604 599 659 0
598 599 604 0
652 599 651 0
658 656 600 0
658 600 601 0
601 605 658 0
658 605 661 0
608 606 603 0
603 606 602 0
609 603 604 0
608 603 609 0
604 659 665 0
604 665 609 0
668 662 611 0
662 661 611 0
661 610 611 0
661 605 610 0
613 612 607 0
671 613 607 0
671 607 606 0
664 671 606 0
608 664 606 0
664 608 609 0
664 609 666 0
666 609 665 0
670 668 611 0
611 610 670 0
610 675 670 0
610 614 675 0
616 615 613 0
613 615 612 0
613 671 672 0
617 613 672 0
616 613 617 0
678 617 672 0
681 676 620 0
676 675 620 0
675 618 620 0
675 614 618 0
622 621 616 0
616 621 615 0
617 679 683 0
622 617 683 0
616 617 622 0
679 617 678 0
681 620 619 0
623 681 619 0
686 681 623 0
619 620 618 0
627 625 622 0
622 625 621 0
622 683 684 0
628 622 684 0
627 622 628 0
689 628 684 0
698 687 624 0
698 624 629 0
623 624 686 0
686 624 687 0
627 626 625 0
626 627 631 0
627 633 631 0
627 628 633 0
628 689 690 0
634 628 690 0
633 628 634 0
692 635 634 0
692 634 690 0
694 637 635 0
694 635 692 0
696 640 637 0
696 637 694 0
630 638 640 0
696 630 640 0
699 630 696 0
629 630 698 0
698 630 699 0
633 632 631 0
632 633 641 0
633 643 641 0
633 634 643 0
646 634 635 0
643 634 646 0
644 646 636 0
646 637 636 0
646 635 637 0
636 637 639 0
639 637 640 0
639 640 638 0
643 642 641 0
642 643 645 0
645 643 646 0
645 646 644 0
653 651 647 0
648 654 647 0
647 654 653 0
649 655 648 0
648 655 654 0
650 657 649 0
649 657 655 0
656 657 650 0
660 659 652 0
705 660 652 0
705 652 651 0
701 705 651 0
653 701 651 0
701 653 654 0
701 654 702 0
702 654 655 0
702 655 703 0
703 655 657 0
703 657 704 0
709 704 663 0
663 704 658 0
704 657 658 0
657 656 658 0
661 663 658 0
667 665 660 0
660 665 659 0
660 705 712 0
660 712 667 0
716 710 669 0
669 710 709 0
669 709 663 0
668 669 663 0
662 668 663 0
662 663 661 0
673 671 664 0
666 674 664 0
664 674 673 0
719 674 666 0
719 666 665 0
713 719 665 0
667 713 665 0
713 667 712 0
718 716 669 0
724 718 677 0
677 718 670 0
718 669 670 0
669 668 670 0
675 677 670 0
673 672 671 0
672 673 678 0
673 680 678 0
673 674 680 0
674 719 727 0
674 727 680 0
732 725 682 0
682 725 724 0
682 724 677 0
681 682 677 0
676 681 677 0
676 677 675 0
685 683 679 0
734 685 679 0
734 679 678 0
728 734 678 0
680 728 678 0
728 680 727 0
732 682 688 0
732 688 743 0
686 688 681 0
681 688 682 0
685 684 683 0
735 691 689 0
735 689 684 0
734 735 684 0
685 734 684 0
737 693 691 0
737 691 735 0
739 695 693 0
739 693 737 0
741 697 695 0
741 695 739 0
744 700 697 0
744 697 741 0
700 744 743 0
700 743 688 0
698 700 688 0
687 698 688 0
687 688 686 0
691 690 689 0
690 691 692 0
692 691 693 0
692 693 694 0
694 693 695 0
694 695 696 0
696 695 697 0
696 697 699 0
699 697 700 0
699 700 698 0
706 705 701 0
702 707 701 0
701 707 706 0
703 708 702 0
702 708 707 0
704 711 703 0
703 711 708 0
709 711 704 0
714 712 706 0
706 712 705 0
715 706 707 0
714 706 715 0
717 707 708 0
715 707 717 0
716 717 710 0
717 711 710 0
717 708 711 0
710 711 709 0
720 719 713 0
712 714 713 0
714 720 713 0
714 721 720 0
722 714 715 0
721 714 722 0
723 715 717 0
722 715 723 0
718 726 716 0
726 717 716 0
726 723 717 0
724 726 718 0
729 727 720 0
720 727 719 0
730 720 721 0
729 720 730 0
731 721 722 0
730 721 731 0
733 722 723 0
731 722 733 0
732 733 725 0
733 726 725 0
733 723 726 0
725 726 724 0
736 734 728 0
727 729 728 0
729 736 728 0
729 738 736 0
740 729 730 0
738 729 740 0
742 730 731 0
740 730 742 0
745 731 733 0
742 731 745 0
743 745 732 0
732 745 733 0
736 735 734 0
735 736 737 0
737 736 738 0
737 738 739 0
739 738 740 0
739 740 741 0
741 740 742 0
741 742 744 0
744 742 745 0
744 745 743 0
