#!ascii version of /Users/gilles/git/nukkies/notebooks/data/MRCT_STh_L.asc
542 1080
10.556526  -54.570175  -30.263847  0
10.056526  -55.070175  -30.263847  0
10.556526  -55.070175  -30.263847  0
11.056526  -55.070175  -30.263847  0
10.056526  -55.570175  -30.263847  0
10.556526  -55.570175  -30.263847  0
11.056526  -55.570175  -30.263847  0
11.556526  -55.570175  -30.263847  0
10.056526  -56.070175  -30.263847  0
10.556526  -56.070175  -30.263847  0
11.056526  -56.070175  -30.263847  0
11.556526  -56.070175  -30.263847  0
10.556526  -56.570175  -30.263847  0
11.056526  -56.570175  -30.263847  0
11.556526  -56.570175  -30.263847  0
11.056526  -53.570175  -29.763847  0
11.556526  -53.570175  -29.763847  0
10.201513  -54.141411  -29.602926  0
10.572988  -54.325596  -29.999716  0
10.581827  -54.064972  -29.708397  0
11.056526  -54.070175  -29.763847  0
11.556526  -54.070175  -29.763847  0
10.322988  -54.575596  -29.999716  0
10.082991  -54.844559  -29.997694  0
10.143088  -54.635311  -29.702074  0
10.806526  -54.570175  -30.013847  0
11.056526  -54.820175  -30.013847  0
11.056526  -54.570175  -29.763847  0
11.556526  -54.570175  -29.763847  0
12.056526  -54.570175  -29.763847  0
9.815101  -55.086430  -30.012114  0
11.306526  -55.070175  -30.013847  0
11.556526  -55.320175  -30.013847  0
11.556526  -55.070175  -29.763847  0
12.056526  -55.070175  -29.763847  0
12.556526  -55.070175  -29.763847  0
9.806526  -55.570175  -30.013847  0
11.806526  -55.570175  -30.013847  0
12.056526  -55.570175  -29.763847  0
9.806526  -56.070175  -30.013847  0
10.056526  -56.320175  -30.013847  0
10.056526  -56.070175  -29.763847  0
11.806526  -56.070175  -30.013847  0
10.306526  -56.570175  -30.013847  0
10.556526  -56.820175  -30.013847  0
11.056526  -56.820175  -30.013847  0
11.806526  -56.570175  -30.013847  0
11.556526  -56.820175  -30.013847  0
10.556526  -57.070175  -29.763847  0
11.056526  -57.070175  -29.763847  0
11.556526  -57.070175  -29.763847  0
11.032792  -53.302345  -29.512484  0
11.556526  -53.320175  -29.513847  0
11.556526  -53.070175  -29.263847  0
10.249662  -54.010853  -29.295666  0
10.218259  -53.936291  -29.040743  0
10.769922  -53.531525  -29.484213  0
10.618849  -53.810333  -29.355145  0
11.806526  -53.570175  -29.513847  0
12.056526  -53.570175  -29.263847  0
13.056526  -53.570175  -29.263847  0
10.064008  -54.287804  -29.447163  0
11.806526  -54.070175  -29.513847  0
12.056526  -54.320175  -29.513847  0
12.056526  -54.070175  -29.263847  0
13.056526  -54.070175  -29.263847  0
13.556526  -54.070175  -29.263847  0
9.918840  -54.675705  -29.564693  0
12.306526  -54.570175  -29.513847  0
12.556526  -54.820175  -29.513847  0
12.556526  -54.570175  -29.263847  0
13.056526  -54.570175  -29.263847  0
13.556526  -54.570175  -29.263847  0
9.823870  -55.091599  -29.553268  0
12.806526  -55.070175  -29.513847  0
12.556526  -55.320175  -29.513847  0
13.056526  -55.070175  -29.263847  0
9.806526  -55.570175  -29.513847  0
10.056526  -55.820175  -29.513847  0
12.306526  -55.570175  -29.513847  0
12.056526  -55.820175  -29.513847  0
12.556526  -55.570175  -29.263847  0
13.056526  -55.570175  -29.263847  0
10.306526  -56.070175  -29.513847  0
11.806526  -56.070175  -29.513847  0
12.056526  -56.070175  -29.263847  0
12.556526  -56.070175  -29.263847  0
13.056526  -56.070175  -29.263847  0
13.556526  -56.070175  -29.263847  0
10.306526  -56.570175  -29.513847  0
11.806526  -56.570175  -29.513847  0
12.056526  -56.570175  -29.263847  0
12.556526  -56.570175  -29.263847  0
13.056526  -56.570175  -29.263847  0
10.306526  -57.070175  -29.513847  0
10.556526  -57.320175  -29.513847  0
11.056526  -57.320175  -29.513847  0
11.806526  -57.070175  -29.513847  0
11.556526  -57.320175  -29.513847  0
11.556526  -52.820175  -29.013847  0
10.231387  -53.857151  -28.922766  0
11.306526  -53.070175  -29.013847  0
11.036182  -53.304890  -29.012682  0
11.056526  -53.070175  -28.763847  0
11.806526  -53.070175  -29.013847  0
12.056526  -53.320175  -29.013847  0
12.056526  -53.070175  -28.763847  0
12.556526  -53.070175  -28.763847  0
13.056526  -53.320175  -29.013847  0
13.056526  -53.070175  -28.763847  0
10.083694  -54.005009  -29.016142  0
10.396231  -53.920433  -28.894518  0
10.246643  -53.992123  -28.817972  0
10.769057  -53.520573  -28.950361  0
10.571692  -53.862186  -28.863806  0
12.306526  -53.570175  -29.013847  0
12.806526  -53.570175  -29.013847  0
12.556526  -53.570175  -28.763847  0
13.306526  -53.570175  -29.013847  0
13.556526  -53.820175  -29.013847  0
13.556526  -53.570175  -28.763847  0
14.056526  -53.570175  -28.763847  0
10.067180  -54.345428  -29.156733  0
12.306526  -54.070175  -29.013847  0
12.806526  -54.070175  -29.013847  0
12.556526  -54.320175  -29.013847  0
12.556526  -54.070175  -28.763847  0
13.806526  -54.070175  -29.013847  0
14.056526  -54.070175  -28.763847  0
9.941991  -54.674484  -29.175425  0
13.806526  -54.570175  -29.013847  0
13.556526  -54.820175  -29.013847  0
14.056526  -54.570175  -28.763847  0
9.830391  -55.067257  -29.084278  0
13.306526  -55.070175  -29.013847  0
13.556526  -55.070175  -28.763847  0
14.056526  -55.070175  -28.763847  0
9.806526  -55.570175  -29.013847  0
10.056526  -55.820175  -29.013847  0
10.056526  -55.570175  -28.763847  0
13.306526  -55.570175  -29.013847  0
13.556526  -55.820175  -29.013847  0
13.556526  -55.570175  -28.763847  0
10.306526  -56.070175  -29.013847  0
13.806526  -56.070175  -29.013847  0
13.556526  -56.320175  -29.013847  0
14.056526  -56.070175  -28.763847  0
10.306526  -56.570175  -29.013847  0
12.056526  -56.820175  -29.013847  0
12.556526  -56.820175  -29.013847  0
13.306526  -56.570175  -29.013847  0
13.056526  -56.820175  -29.013847  0
13.556526  -56.570175  -28.763847  0
10.306526  -57.070175  -29.013847  0
10.556526  -57.320175  -29.013847  0
11.056526  -57.320175  -29.013847  0
11.806526  -57.070175  -29.013847  0
11.556526  -57.320175  -29.013847  0
12.056526  -57.070175  -28.763847  0
12.556526  -57.070175  -28.763847  0
13.056526  -57.070175  -28.763847  0
11.556526  -57.570175  -28.763847  0
12.056526  -57.570175  -28.763847  0
11.056526  -52.820175  -28.513847  0
11.556526  -52.820175  -28.513847  0
12.056526  -52.820175  -28.513847  0
12.556526  -52.820175  -28.513847  0
13.056526  -52.820175  -28.513847  0
13.056526  -52.570175  -28.263847  0
13.556526  -52.570175  -28.263847  0
10.764991  -53.038967  -28.511463  0
11.056526  -53.070175  -28.263847  0
13.306526  -53.070175  -28.513847  0
13.556526  -53.320175  -28.513847  0
13.556526  -53.070175  -28.263847  0
14.056526  -53.320175  -28.513847  0
14.056526  -53.070175  -28.263847  0
10.250832  -53.950478  -28.542906  0
10.786321  -53.509254  -28.453264  0
10.597198  -53.778938  -28.467089  0
14.306526  -53.570175  -28.513847  0
14.556526  -53.570175  -28.263847  0
10.052048  -54.284176  -28.726532  0
10.209446  -54.106823  -28.379232  0
14.306526  -54.070175  -28.513847  0
14.556526  -54.070175  -28.263847  0
9.930433  -54.609402  -28.659998  0
10.122369  -54.559986  -28.320660  0
14.306526  -54.570175  -28.513847  0
14.556526  -54.570175  -28.263847  0
9.821621  -55.062084  -28.543129  0
10.056526  -55.320175  -28.513847  0
10.056526  -55.070175  -28.263847  0
14.306526  -55.070175  -28.513847  0
14.056526  -55.320175  -28.513847  0
14.556526  -55.070175  -28.263847  0
10.306526  -55.570175  -28.513847  0
13.806526  -55.570175  -28.513847  0
14.056526  -55.820175  -28.513847  0
14.056526  -55.570175  -28.263847  0
14.556526  -55.570175  -28.263847  0
10.306526  -56.070175  -28.513847  0
14.306526  -56.070175  -28.513847  0
14.056526  -56.320175  -28.513847  0
14.556526  -56.070175  -28.263847  0
10.306526  -56.570175  -28.513847  0
13.806526  -56.570175  -28.513847  0
13.556526  -56.820175  -28.513847  0
14.056526  -56.570175  -28.263847  0
10.306526  -57.070175  -28.513847  0
10.556526  -57.320175  -28.513847  0
10.556526  -57.070175  -28.263847  0
11.056526  -57.320175  -28.513847  0
12.556526  -57.320175  -28.513847  0
13.306526  -57.070175  -28.513847  0
13.056526  -57.320175  -28.513847  0
13.556526  -57.070175  -28.263847  0
11.306526  -57.570175  -28.513847  0
11.556526  -57.820175  -28.513847  0
12.306526  -57.570175  -28.513847  0
12.056526  -57.820175  -28.513847  0
12.556526  -57.570175  -28.263847  0
13.056526  -57.570175  -28.263847  0
13.056526  -52.320175  -28.013847  0
13.556526  -52.320175  -28.013847  0
11.556526  -52.820175  -28.013847  0
12.056526  -52.820175  -28.013847  0
12.806526  -52.570175  -28.013847  0
12.556526  -52.820175  -28.013847  0
13.806526  -52.570175  -28.013847  0
14.056526  -52.820175  -28.013847  0
14.056526  -52.570175  -27.763847  0
11.306526  -53.070175  -28.013847  0
11.056526  -53.320175  -28.013847  0
11.556526  -53.070175  -27.763847  0
14.306526  -53.070175  -28.013847  0
14.556526  -53.320175  -28.013847  0
10.822625  -53.550751  -28.009005  0
10.644430  -53.815407  -28.018879  0
11.056526  -53.570175  -27.763847  0
14.806526  -53.570175  -28.013847  0
15.056526  -53.570175  -27.763847  0
10.451406  -54.077766  -28.056034  0
10.633777  -54.083183  -27.760042  0
14.806526  -54.070175  -28.013847  0
15.056526  -54.070175  -27.763847  0
10.398870  -54.575085  -28.039324  0
10.556526  -54.570175  -27.763847  0
14.806526  -54.570175  -28.013847  0
15.056526  -54.570175  -27.763847  0
10.306526  -55.070175  -28.013847  0
10.556526  -55.070175  -27.763847  0
14.806526  -55.070175  -28.013847  0
15.056526  -55.070175  -27.763847  0
10.306526  -55.570175  -28.013847  0
10.556526  -55.570175  -27.763847  0
14.806526  -55.570175  -28.013847  0
15.056526  -55.570175  -27.763847  0
10.306526  -56.070175  -28.013847  0
10.556526  -56.070175  -27.763847  0
14.806526  -56.070175  -28.013847  0
14.556526  -56.320175  -28.013847  0
15.056526  -56.070175  -27.763847  0
10.306526  -56.570175  -28.013847  0
10.556526  -56.820175  -28.013847  0
10.556526  -56.570175  -27.763847  0
14.306526  -56.570175  -28.013847  0
14.056526  -56.820175  -28.013847  0
14.556526  -56.570175  -27.763847  0
10.806526  -57.070175  -28.013847  0
11.056526  -57.320175  -28.013847  0
11.056526  -57.070175  -27.763847  0
13.806526  -57.070175  -28.013847  0
13.556526  -57.320175  -28.013847  0
14.056526  -57.070175  -27.763847  0
11.306526  -57.570175  -28.013847  0
11.556526  -57.820175  -28.013847  0
11.556526  -57.570175  -27.763847  0
12.056526  -57.820175  -28.013847  0
12.556526  -57.820175  -28.013847  0
13.306526  -57.570175  -28.013847  0
13.056526  -57.820175  -28.013847  0
13.056526  -52.320175  -27.513847  0
13.556526  -52.320175  -27.513847  0
14.056526  -52.320175  -27.513847  0
12.056526  -52.820175  -27.513847  0
12.806526  -52.570175  -27.513847  0
12.556526  -52.820175  -27.513847  0
13.056526  -52.570175  -27.263847  0
14.306526  -52.570175  -27.513847  0
11.806526  -53.070175  -27.513847  0
11.556526  -53.320175  -27.513847  0
12.056526  -53.070175  -27.263847  0
14.306526  -53.070175  -27.513847  0
14.556526  -53.320175  -27.513847  0
14.556526  -53.070175  -27.263847  0
15.056526  -53.320175  -27.513847  0
11.306526  -53.570175  -27.513847  0
11.056526  -53.820175  -27.513847  0
11.556526  -53.570175  -27.263847  0
12.056526  -53.570175  -27.263847  0
15.306526  -53.570175  -27.513847  0
10.842178  -54.076172  -27.512094  0
11.056526  -54.070175  -27.263847  0
11.556526  -54.070175  -27.263847  0
15.306526  -54.070175  -27.513847  0
10.806526  -54.570175  -27.513847  0
11.056526  -54.570175  -27.263847  0
15.306526  -54.570175  -27.513847  0
10.806526  -55.070175  -27.513847  0
11.056526  -55.070175  -27.263847  0
15.306526  -55.070175  -27.513847  0
10.806526  -55.570175  -27.513847  0
11.056526  -55.570175  -27.263847  0
15.306526  -55.570175  -27.513847  0
10.806526  -56.070175  -27.513847  0
11.056526  -56.070175  -27.263847  0
15.306526  -56.070175  -27.513847  0
15.056526  -56.320175  -27.513847  0
10.806526  -56.570175  -27.513847  0
11.056526  -56.820175  -27.513847  0
11.056526  -56.570175  -27.263847  0
14.806526  -56.570175  -27.513847  0
14.556526  -56.820175  -27.513847  0
11.306526  -57.070175  -27.513847  0
11.556526  -57.320175  -27.513847  0
13.556526  -57.320175  -27.513847  0
14.306526  -57.070175  -27.513847  0
14.056526  -57.320175  -27.513847  0
11.806526  -57.570175  -27.513847  0
12.056526  -57.820175  -27.513847  0
12.556526  -57.820175  -27.513847  0
13.306526  -57.570175  -27.513847  0
13.056526  -57.820175  -27.513847  0
13.556526  -52.320175  -27.013847  0
14.056526  -52.320175  -27.013847  0
12.556526  -52.820175  -27.013847  0
13.306526  -52.570175  -27.013847  0
13.056526  -52.820175  -27.013847  0
13.556526  -52.570175  -26.763847  0
14.306526  -52.570175  -27.013847  0
14.056526  -52.570175  -26.763847  0
14.556526  -52.820175  -27.013847  0
12.306526  -53.070175  -27.013847  0
12.556526  -53.070175  -26.763847  0
13.056526  -53.070175  -26.763847  0
13.556526  -53.070175  -26.763847  0
14.806526  -53.070175  -27.013847  0
14.556526  -53.070175  -26.763847  0
15.056526  -53.320175  -27.013847  0
12.306526  -53.570175  -27.013847  0
12.056526  -53.820175  -27.013847  0
12.556526  -53.570175  -26.763847  0
15.306526  -53.570175  -27.013847  0
11.806526  -54.070175  -27.013847  0
11.556526  -54.320175  -27.013847  0
12.056526  -54.070175  -26.763847  0
15.306526  -54.070175  -27.013847  0
15.556526  -54.070175  -26.763847  0
11.306526  -54.570175  -27.013847  0
11.556526  -54.570175  -26.763847  0
12.056526  -54.570175  -26.763847  0
15.306526  -54.570175  -27.013847  0
15.556526  -54.570175  -26.763847  0
11.306526  -55.070175  -27.013847  0
11.556526  -55.070175  -26.763847  0
15.306526  -55.070175  -27.013847  0
11.306526  -55.570175  -27.013847  0
11.556526  -55.570175  -26.763847  0
15.306526  -55.570175  -27.013847  0
11.306526  -56.070175  -27.013847  0
11.556526  -56.070175  -26.763847  0
15.306526  -56.070175  -27.013847  0
15.056526  -56.320175  -27.013847  0
11.306526  -56.570175  -27.013847  0
11.556526  -56.570175  -26.763847  0
14.806526  -56.570175  -27.013847  0
14.556526  -56.820175  -27.013847  0
15.056526  -56.570175  -26.763847  0
11.306526  -57.070175  -27.013847  0
11.556526  -57.320175  -27.013847  0
11.556526  -57.070175  -26.763847  0
12.056526  -57.070175  -26.763847  0
13.556526  -57.320175  -27.013847  0
14.306526  -57.070175  -27.013847  0
14.056526  -57.320175  -27.013847  0
11.806526  -57.570175  -27.013847  0
12.056526  -57.820175  -27.013847  0
12.056526  -57.570175  -26.763847  0
12.556526  -57.820175  -27.013847  0
12.556526  -57.570175  -26.763847  0
13.306526  -57.570175  -27.013847  0
13.056526  -57.820175  -27.013847  0
13.556526  -57.570175  -26.763847  0
14.056526  -52.820175  -26.513847  0
13.056526  -53.320175  -26.513847  0
13.806526  -53.070175  -26.513847  0
13.556526  -53.320175  -26.513847  0
14.306526  -53.070175  -26.513847  0
14.056526  -53.070175  -26.263847  0
14.556526  -53.320175  -26.513847  0
15.056526  -53.320175  -26.513847  0
12.806526  -53.570175  -26.513847  0
12.556526  -53.820175  -26.513847  0
13.056526  -53.570175  -26.263847  0
13.556526  -53.570175  -26.263847  0
14.556526  -53.570175  -26.263847  0
15.306526  -53.570175  -26.513847  0
15.056526  -53.570175  -26.263847  0
15.556526  -53.820175  -26.513847  0
12.306526  -54.070175  -26.513847  0
12.556526  -54.070175  -26.263847  0
13.056526  -54.070175  -26.263847  0
15.806526  -54.070175  -26.513847  0
12.306526  -54.570175  -26.513847  0
12.056526  -54.820175  -26.513847  0
12.556526  -54.570175  -26.263847  0
13.056526  -54.570175  -26.263847  0
15.806526  -54.570175  -26.513847  0
15.556526  -54.820175  -26.513847  0
11.806526  -55.070175  -26.513847  0
12.056526  -55.070175  -26.263847  0
15.306526  -55.070175  -26.513847  0
15.556526  -55.070175  -26.263847  0
11.806526  -55.570175  -26.513847  0
12.056526  -55.570175  -26.263847  0
12.556526  -55.570175  -26.263847  0
15.306526  -55.570175  -26.513847  0
15.556526  -55.570175  -26.263847  0
11.806526  -56.070175  -26.513847  0
12.056526  -56.070175  -26.263847  0
15.306526  -56.070175  -26.513847  0
11.806526  -56.570175  -26.513847  0
12.056526  -56.820175  -26.513847  0
12.056526  -56.570175  -26.263847  0
12.556526  -56.570175  -26.263847  0
14.556526  -56.820175  -26.513847  0
15.306526  -56.570175  -26.513847  0
15.056526  -56.820175  -26.513847  0
15.056526  -56.570175  -26.263847  0
12.306526  -57.070175  -26.513847  0
12.556526  -57.320175  -26.513847  0
12.556526  -57.070175  -26.263847  0
13.056526  -57.070175  -26.263847  0
13.556526  -57.070175  -26.263847  0
14.306526  -57.070175  -26.513847  0
14.056526  -57.320175  -26.513847  0
14.056526  -57.070175  -26.263847  0
12.806526  -57.570175  -26.513847  0
13.056526  -57.820175  -26.513847  0
13.056526  -57.570175  -26.263847  0
13.806526  -57.570175  -26.513847  0
13.556526  -57.820175  -26.513847  0
13.556526  -57.570175  -26.263847  0
14.056526  -53.320175  -26.013847  0
13.806526  -53.570175  -26.013847  0
13.556526  -53.820175  -26.013847  0
14.306526  -53.570175  -26.013847  0
14.056526  -53.570175  -25.763847  0
14.556526  -53.820175  -26.013847  0
15.056526  -53.820175  -26.013847  0
15.556526  -53.820175  -26.013847  0
13.306526  -54.070175  -26.013847  0
13.556526  -54.070175  -25.763847  0
15.806526  -54.070175  -26.013847  0
12.556526  -54.820175  -26.013847  0
13.306526  -54.570175  -26.013847  0
13.056526  -54.820175  -26.013847  0
13.556526  -54.570175  -25.763847  0
15.806526  -54.570175  -26.013847  0
15.556526  -54.570175  -25.763847  0
12.306526  -55.070175  -26.013847  0
12.556526  -55.320175  -26.013847  0
12.556526  -55.070175  -25.763847  0
13.056526  -55.070175  -25.763847  0
15.806526  -55.070175  -26.013847  0
12.806526  -55.570175  -26.013847  0
12.556526  -55.820175  -26.013847  0
13.056526  -55.570175  -25.763847  0
15.806526  -55.570175  -26.013847  0
15.556526  -55.820175  -26.013847  0
15.556526  -55.570175  -25.763847  0
12.306526  -56.070175  -26.013847  0
12.556526  -56.320175  -26.013847  0
12.556526  -56.070175  -25.763847  0
15.306526  -56.070175  -26.013847  0
15.056526  -56.320175  -26.013847  0
12.806526  -56.570175  -26.013847  0
13.056526  -56.820175  -26.013847  0
13.056526  -56.570175  -25.763847  0
13.556526  -56.820175  -26.013847  0
13.556526  -56.570175  -25.763847  0
14.056526  -56.820175  -26.013847  0
14.056526  -56.570175  -25.763847  0
14.806526  -56.570175  -26.013847  0
14.556526  -56.820175  -26.013847  0
14.556526  -56.570175  -25.763847  0
14.056526  -53.820175  -25.513847  0
14.556526  -53.820175  -25.513847  0
15.056526  -53.820175  -25.513847  0
15.556526  -53.820175  -25.513847  0
13.806526  -54.070175  -25.513847  0
14.056526  -54.070175  -25.263847  0
14.556526  -54.070175  -25.263847  0
15.056526  -54.070175  -25.263847  0
15.806526  -54.070175  -25.513847  0
15.556526  -54.320175  -25.513847  0
15.556526  -54.070175  -25.263847  0
13.806526  -54.570175  -25.513847  0
13.556526  -54.820175  -25.513847  0
14.056526  -54.570175  -25.263847  0
14.556526  -54.570175  -25.263847  0
15.306526  -54.570175  -25.513847  0
15.056526  -54.570175  -25.263847  0
15.556526  -54.820175  -25.513847  0
13.306526  -55.070175  -25.513847  0
13.556526  -55.070175  -25.263847  0
14.056526  -55.070175  -25.263847  0
14.556526  -55.070175  -25.263847  0
15.056526  -55.070175  -25.263847  0
15.806526  -55.070175  -25.513847  0
15.556526  -55.320175  -25.513847  0
15.556526  -55.070175  -25.263847  0
13.306526  -55.570175  -25.513847  0
13.056526  -55.820175  -25.513847  0
13.556526  -55.570175  -25.263847  0
14.056526  -55.570175  -25.263847  0
14.556526  -55.570175  -25.263847  0
15.306526  -55.570175  -25.513847  0
15.056526  -55.570175  -25.263847  0
12.806526  -56.070175  -25.513847  0
13.056526  -56.320175  -25.513847  0
13.056526  -56.070175  -25.263847  0
13.556526  -56.320175  -25.513847  0
13.556526  -56.070175  -25.263847  0
14.056526  -56.320175  -25.513847  0
14.056526  -56.070175  -25.263847  0
14.556526  -56.320175  -25.513847  0
14.556526  -56.070175  -25.263847  0
15.306526  -56.070175  -25.513847  0
15.056526  -56.320175  -25.513847  0
15.056526  -56.070175  -25.263847  0
18 22 0 0
0 25 18 0
23 30 1 0
23 1 22 0
1 0 22 0
1 2 0 0
25 0 26 0
0 3 26 0
0 2 3 0
3 31 26 0
1 30 4 0
4 30 36 0
1 5 2 0
1 4 5 0
2 6 3 0
2 5 6 0
31 3 32 0
3 7 32 0
3 6 7 0
7 37 32 0
4 36 8 0
8 36 39 0
4 9 5 0
4 8 9 0
5 10 6 0
5 9 10 0
6 11 7 0
6 10 11 0
37 7 42 0
42 7 11 0
39 40 8 0
43 12 40 0
12 8 40 0
12 9 8 0
9 13 10 0
9 12 13 0
10 14 11 0
10 13 14 0
42 11 46 0
46 11 14 0
43 44 12 0
12 44 13 0
13 44 45 0
13 45 14 0
14 45 47 0
14 47 46 0
51 56 15 0
16 52 15 0
15 52 51 0
16 58 52 0
54 61 17 0
19 57 17 0
17 57 54 0
57 19 56 0
19 15 56 0
19 20 15 0
15 21 16 0
15 20 21 0
58 16 62 0
62 16 21 0
17 61 24 0
24 61 67 0
24 22 18 0
19 24 18 0
17 24 19 0
19 18 25 0
27 19 25 0
20 19 27 0
20 28 21 0
20 27 28 0
62 21 63 0
21 29 63 0
21 28 29 0
29 68 63 0
24 67 23 0
67 30 23 0
67 73 30 0
24 23 22 0
26 27 25 0
27 26 31 0
33 27 31 0
28 27 33 0
28 34 29 0
28 33 34 0
68 29 69 0
29 35 69 0
29 34 35 0
35 74 69 0
73 36 30 0
77 36 73 0
32 33 31 0
33 32 37 0
38 33 37 0
34 33 38 0
75 35 79 0
35 38 79 0
35 34 38 0
35 75 74 0
41 39 78 0
39 77 78 0
39 36 77 0
83 41 78 0
84 80 38 0
37 84 38 0
42 84 37 0
38 80 79 0
41 40 39 0
43 40 41 0
83 43 41 0
89 43 83 0
46 84 42 0
46 90 84 0
44 43 48 0
43 94 48 0
43 89 94 0
49 45 44 0
49 44 48 0
50 47 45 0
50 45 49 0
50 97 47 0
97 46 47 0
97 90 46 0
94 95 48 0
48 95 49 0
49 95 96 0
49 96 50 0
50 96 98 0
50 98 97 0
99 101 53 0
53 104 99 0
100 110 55 0
55 111 100 0
102 113 51 0
51 113 56 0
52 53 101 0
102 52 101 0
51 52 102 0
59 105 58 0
58 105 52 0
105 104 52 0
104 53 52 0
59 115 105 0
108 116 60 0
60 118 108 0
55 110 54 0
110 61 54 0
110 122 61 0
114 111 55 0
54 114 55 0
57 114 54 0
57 56 113 0
57 113 114 0
62 64 59 0
62 59 58 0
115 59 123 0
123 59 64 0
60 116 65 0
65 116 124 0
118 60 119 0
60 66 119 0
60 65 66 0
66 127 119 0
122 67 61 0
129 67 122 0
63 64 62 0
70 125 68 0
68 125 63 0
125 123 63 0
123 64 63 0
125 70 124 0
70 65 124 0
70 71 65 0
65 72 66 0
65 71 72 0
127 66 130 0
130 66 72 0
129 73 67 0
133 73 129 0
69 70 68 0
70 69 74 0
76 70 74 0
71 70 76 0
131 72 134 0
72 76 134 0
72 71 76 0
72 131 130 0
133 77 73 0
137 77 133 0
79 81 75 0
76 74 75 0
81 76 75 0
82 76 81 0
134 76 140 0
140 76 82 0
137 138 77 0
77 138 78 0
83 78 138 0
83 138 143 0
84 85 80 0
81 79 80 0
85 81 80 0
86 81 85 0
81 87 82 0
81 86 87 0
140 82 141 0
82 88 141 0
82 87 88 0
88 144 141 0
143 89 83 0
147 89 143 0
90 91 85 0
90 85 84 0
85 92 86 0
85 91 92 0
86 93 87 0
86 92 93 0
145 88 150 0
88 93 150 0
88 87 93 0
88 145 144 0
147 94 89 0
153 94 147 0
156 148 91 0
90 156 91 0
97 156 90 0
91 148 92 0
92 148 149 0
92 149 93 0
93 149 151 0
93 151 150 0
153 154 94 0
94 154 95 0
95 155 96 0
154 155 95 0
96 157 98 0
155 157 96 0
97 98 156 0
156 98 157 0
163 170 103 0
101 99 103 0
99 163 103 0
99 164 163 0
106 165 104 0
165 99 104 0
165 164 99 0
107 166 106 0
106 166 165 0
109 167 107 0
107 167 166 0
109 172 167 0
112 110 100 0
111 112 100 0
103 170 102 0
170 113 102 0
170 178 113 0
103 102 101 0
105 106 104 0
106 105 115 0
117 106 115 0
107 106 117 0
117 116 108 0
109 117 108 0
107 117 109 0
120 173 118 0
118 173 108 0
173 172 108 0
172 109 108 0
121 175 120 0
120 175 173 0
121 180 175 0
177 182 112 0
182 110 112 0
182 122 110 0
177 112 111 0
114 177 111 0
179 177 114 0
114 113 178 0
114 178 179 0
123 126 117 0
123 117 115 0
126 124 116 0
126 116 117 0
119 120 118 0
120 119 127 0
128 120 127 0
121 120 128 0
180 121 184 0
184 121 128 0
182 129 122 0
186 129 182 0
125 126 123 0
126 125 124 0
130 132 128 0
130 128 127 0
184 128 188 0
188 128 132 0
186 133 129 0
190 133 186 0
134 135 131 0
132 130 131 0
135 132 131 0
136 132 135 0
188 132 193 0
193 132 136 0
139 137 191 0
137 190 191 0
137 133 190 0
196 139 191 0
140 142 135 0
140 135 134 0
194 136 197 0
136 142 197 0
136 135 142 0
136 194 193 0
139 138 137 0
143 138 139 0
196 143 139 0
201 143 196 0
141 142 140 0
146 198 144 0
144 198 141 0
198 197 141 0
197 142 141 0
146 202 198 0
201 147 143 0
205 147 201 0
150 152 145 0
152 206 145 0
145 206 144 0
206 203 144 0
203 146 144 0
146 203 202 0
205 153 147 0
209 153 205 0
156 158 148 0
159 149 148 0
159 148 158 0
160 151 149 0
160 149 159 0
160 214 151 0
151 214 150 0
214 207 150 0
207 152 150 0
152 207 206 0
209 210 153 0
153 210 154 0
154 212 155 0
210 212 154 0
212 217 161 0
157 212 161 0
155 212 157 0
158 156 157 0
161 158 157 0
162 158 161 0
213 159 219 0
159 162 219 0
159 158 162 0
159 213 160 0
160 213 215 0
160 215 214 0
217 218 161 0
161 218 162 0
162 218 220 0
162 220 219 0
223 227 168 0
169 224 168 0
168 224 223 0
169 229 224 0
171 170 163 0
171 163 232 0
163 225 232 0
163 164 225 0
226 164 165 0
226 225 164 0
228 165 166 0
228 226 165 0
167 168 227 0
228 167 227 0
166 167 228 0
168 167 172 0
174 168 172 0
169 168 174 0
229 169 230 0
169 176 230 0
169 174 176 0
176 235 230 0
233 237 171 0
237 170 171 0
237 178 170 0
233 171 232 0
173 174 172 0
174 173 175 0
174 175 176 0
181 236 180 0
180 236 175 0
236 235 175 0
235 176 175 0
181 240 236 0
183 182 177 0
183 177 242 0
177 238 242 0
177 179 238 0
179 178 237 0
179 237 238 0
184 185 181 0
184 181 180 0
240 181 244 0
244 181 185 0
187 186 183 0
183 186 182 0
183 242 246 0
183 246 187 0
188 189 185 0
188 185 184 0
244 185 248 0
248 185 189 0
192 190 187 0
187 190 186 0
187 246 250 0
187 250 192 0
193 195 189 0
193 189 188 0
248 189 252 0
252 189 195 0
192 191 190 0
196 191 192 0
250 196 192 0
254 196 250 0
197 199 194 0
195 193 194 0
199 195 194 0
200 195 199 0
252 195 256 0
256 195 200 0
254 201 196 0
258 201 254 0
198 199 197 0
199 198 202 0
204 199 202 0
200 199 204 0
256 200 260 0
260 200 204 0
258 205 201 0
263 205 258 0
206 208 203 0
208 266 203 0
203 266 202 0
266 261 202 0
261 204 202 0
204 261 260 0
211 209 264 0
209 263 264 0
209 205 263 0
269 211 264 0
214 216 207 0
216 272 207 0
207 272 206 0
272 267 206 0
267 208 206 0
208 267 266 0
211 210 209 0
269 270 211 0
270 210 211 0
270 212 210 0
217 212 270 0
217 270 275 0
219 221 213 0
222 215 213 0
222 213 221 0
222 280 215 0
215 280 214 0
280 273 214 0
273 216 214 0
216 273 272 0
275 276 217 0
217 276 218 0
218 278 220 0
276 278 218 0
219 220 221 0
220 279 221 0
220 278 279 0
221 279 222 0
222 279 281 0
222 281 280 0
282 286 223 0
223 286 227 0
283 223 224 0
283 282 223 0
231 284 229 0
284 224 229 0
284 283 224 0
231 289 284 0
234 232 225 0
234 225 290 0
225 285 290 0
225 226 285 0
287 226 228 0
287 285 226 0
228 227 286 0
228 286 287 0
230 231 229 0
230 235 231 0
235 289 231 0
235 293 289 0
239 237 233 0
297 239 233 0
297 233 232 0
291 297 232 0
234 291 232 0
291 234 290 0
294 293 235 0
294 235 236 0
241 296 240 0
296 236 240 0
296 294 236 0
241 301 296 0
243 242 238 0
302 243 238 0
302 238 237 0
298 302 237 0
239 298 237 0
298 239 297 0
244 245 241 0
244 241 240 0
301 241 305 0
305 241 245 0
247 246 243 0
243 246 242 0
243 302 306 0
243 306 247 0
248 249 245 0
248 245 244 0
305 245 308 0
308 245 249 0
251 250 247 0
247 250 246 0
247 306 309 0
247 309 251 0
252 253 249 0
252 249 248 0
308 249 311 0
311 249 253 0
255 254 251 0
251 254 250 0
251 309 312 0
251 312 255 0
256 257 253 0
256 253 252 0
311 253 314 0
314 253 257 0
259 258 255 0
255 258 254 0
255 312 315 0
255 315 259 0
260 262 257 0
260 257 256 0
314 257 317 0
317 257 262 0
265 263 259 0
259 263 258 0
259 315 319 0
259 319 265 0
266 268 261 0
268 322 261 0
261 322 260 0
322 318 260 0
318 262 260 0
262 318 317 0
265 264 263 0
320 271 269 0
320 269 264 0
319 320 264 0
265 319 264 0
324 271 320 0
272 274 267 0
274 327 267 0
267 327 266 0
327 323 266 0
323 268 266 0
268 323 322 0
271 270 269 0
325 277 275 0
325 275 270 0
324 325 270 0
271 324 270 0
329 277 325 0
332 326 273 0
332 273 280 0
272 273 274 0
273 328 274 0
273 326 328 0
274 328 327 0
277 276 275 0
329 330 277 0
330 276 277 0
330 278 276 0
278 331 279 0
330 331 278 0
279 333 281 0
331 333 279 0
280 281 332 0
332 281 333 0
288 286 282 0
288 282 337 0
282 334 337 0
282 283 334 0
335 283 284 0
335 334 283 0
284 289 335 0
335 289 340 0
292 290 285 0
292 285 343 0
285 336 343 0
285 287 336 0
287 286 288 0
338 287 288 0
336 287 338 0
338 288 337 0
293 295 342 0
340 293 342 0
289 293 340 0
295 347 342 0
299 297 291 0
290 292 291 0
292 299 291 0
292 300 299 0
292 343 350 0
292 350 300 0
294 295 293 0
349 347 295 0
294 349 295 0
296 349 294 0
296 301 349 0
349 301 353 0
303 302 298 0
297 299 298 0
299 303 298 0
299 304 303 0
300 351 354 0
304 300 354 0
299 300 304 0
351 300 350 0
305 353 301 0
305 357 353 0
307 306 303 0
303 306 302 0
304 355 359 0
307 304 359 0
303 304 307 0
355 304 354 0
308 357 305 0
308 362 357 0
310 309 307 0
307 309 306 0
307 359 364 0
307 364 310 0
311 362 308 0
311 366 362 0
313 312 310 0
310 312 309 0
310 364 367 0
310 367 313 0
314 366 311 0
314 369 366 0
316 315 313 0
313 315 312 0
313 367 370 0
313 370 316 0
317 369 314 0
317 372 369 0
321 319 316 0
316 319 315 0
316 370 374 0
316 374 321 0
376 373 318 0
376 318 322 0
317 318 372 0
372 318 373 0
321 320 319 0
324 320 321 0
374 324 321 0
379 324 374 0
384 377 323 0
384 323 327 0
322 323 376 0
376 323 377 0
379 380 324 0
324 380 325 0
329 325 380 0
329 380 386 0
391 383 326 0
391 326 332 0
326 385 328 0
383 385 326 0
327 328 384 0
384 328 385 0
386 387 329 0
329 387 330 0
330 389 331 0
387 389 330 0
331 392 333 0
389 392 331 0
332 333 391 0
391 333 392 0
339 337 334 0
335 341 334 0
334 341 339 0
340 341 335 0
344 343 336 0
338 345 336 0
336 345 344 0
337 339 338 0
339 345 338 0
339 346 345 0
341 394 396 0
346 341 396 0
339 341 346 0
398 394 348 0
348 394 342 0
394 341 342 0
341 340 342 0
347 348 342 0
352 350 344 0
344 350 343 0
345 395 402 0
352 345 402 0
344 345 352 0
395 345 346 0
395 346 397 0
397 346 396 0
400 398 348 0
400 348 347 0
349 400 347 0
401 400 349 0
349 353 401 0
401 353 407 0
356 354 351 0
410 356 351 0
410 351 350 0
403 410 350 0
352 403 350 0
403 352 402 0
357 358 409 0
407 357 409 0
353 357 407 0
358 413 409 0
360 359 355 0
354 356 355 0
356 360 355 0
356 361 360 0
356 410 414 0
356 414 361 0
362 363 358 0
362 358 357 0
413 358 418 0
418 358 363 0
365 364 360 0
360 364 359 0
361 415 420 0
365 361 420 0
360 361 365 0
415 361 414 0
422 419 363 0
362 422 363 0
366 422 362 0
363 419 418 0
368 367 365 0
365 367 364 0
365 420 424 0
365 424 368 0
369 422 366 0
369 427 422 0
371 370 368 0
368 370 367 0
368 424 429 0
368 429 371 0
372 427 369 0
372 431 427 0
375 374 371 0
371 374 370 0
371 429 432 0
371 432 375 0
376 378 373 0
378 437 373 0
437 372 373 0
437 431 372 0
381 379 375 0
375 379 374 0
375 432 433 0
382 375 433 0
381 375 382 0
440 382 433 0
445 436 377 0
445 377 384 0
376 377 378 0
377 438 378 0
377 436 438 0
378 438 437 0
381 380 379 0
380 381 386 0
381 388 386 0
381 382 388 0
382 440 441 0
390 382 441 0
388 382 390 0
448 390 441 0
391 393 383 0
383 393 451 0
446 383 451 0
385 383 446 0
384 385 445 0
445 385 446 0
388 387 386 0
387 388 389 0
389 388 390 0
448 449 390 0
449 389 390 0
449 392 389 0
391 392 393 0
392 452 393 0
392 449 452 0
393 452 451 0
399 396 394 0
398 399 394 0
404 402 395 0
397 405 395 0
395 405 404 0
455 405 397 0
455 397 396 0
454 455 396 0
399 454 396 0
457 454 406 0
406 454 400 0
454 399 400 0
399 398 400 0
401 408 400 0
400 408 406 0
407 408 401 0
411 410 403 0
402 404 403 0
404 411 403 0
404 412 411 0
405 456 462 0
412 405 462 0
404 405 412 0
456 405 455 0
459 457 406 0
459 406 408 0
459 408 460 0
460 408 407 0
409 460 407 0
461 460 409 0
409 413 461 0
461 413 464 0
416 414 411 0
411 414 410 0
417 411 412 0
416 411 417 0
412 462 466 0
412 466 417 0
418 464 413 0
418 469 464 0
421 420 415 0
471 421 415 0
471 415 414 0
465 471 414 0
416 465 414 0
465 416 417 0
465 417 467 0
467 417 466 0
422 423 419 0
423 475 419 0
475 418 419 0
475 469 418 0
425 424 421 0
421 424 420 0
421 471 472 0
426 421 472 0
425 421 426 0
476 426 472 0
427 428 423 0
427 423 422 0
475 423 479 0
479 423 428 0
430 429 425 0
425 429 424 0
426 477 482 0
430 426 482 0
425 426 430 0
477 426 476 0
485 480 428 0
427 485 428 0
431 485 427 0
428 480 479 0
434 432 430 0
430 432 429 0
430 482 483 0
435 430 483 0
434 430 435 0
487 435 483 0
494 486 439 0
486 485 439 0
485 437 439 0
485 431 437 0
434 433 432 0
433 434 440 0
434 442 440 0
434 435 442 0
435 487 488 0
443 435 488 0
442 435 443 0
490 444 443 0
490 443 488 0
492 447 444 0
492 444 490 0
436 445 447 0
492 436 447 0
495 436 492 0
439 438 494 0
438 495 494 0
438 436 495 0
438 439 437 0
442 441 440 0
441 442 448 0
442 450 448 0
442 443 450 0
453 443 444 0
450 443 453 0
451 453 446 0
453 447 446 0
453 444 447 0
446 447 445 0
450 449 448 0
449 450 452 0
452 450 453 0
452 453 451 0
458 455 454 0
457 458 454 0
463 462 456 0
501 463 456 0
501 456 455 0
497 501 455 0
458 497 455 0
497 458 457 0
459 497 457 0
498 497 459 0
499 459 460 0
499 498 459 0
500 460 461 0
500 499 460 0
461 464 500 0
500 464 505 0
468 466 463 0
463 466 462 0
463 501 508 0
463 508 468 0
512 506 470 0
506 505 470 0
505 469 470 0
505 464 469 0
473 471 465 0
467 474 465 0
465 474 473 0
515 474 467 0
515 467 466 0
509 515 466 0
468 509 466 0
509 468 508 0
514 512 470 0
470 469 514 0
469 520 514 0
469 475 520 0
473 472 471 0
472 473 476 0
473 478 476 0
473 474 478 0
474 515 523 0
474 523 478 0
528 521 481 0
521 520 481 0
520 479 481 0
520 475 479 0
484 482 477 0
530 484 477 0
530 477 476 0
524 530 476 0
478 524 476 0
524 478 523 0
528 481 480 0
485 528 480 0
539 528 485 0
480 481 479 0
484 483 482 0
531 489 487 0
531 487 483 0
530 531 483 0
484 530 483 0
533 491 489 0
533 489 531 0
535 493 491 0
535 491 533 0
537 496 493 0
537 493 535 0
486 494 496 0
537 486 496 0
540 486 537 0
485 486 539 0
539 486 540 0
489 488 487 0
488 489 490 0
490 489 491 0
490 491 492 0
492 491 493 0
492 493 495 0
495 493 496 0
495 496 494 0
502 501 497 0
498 503 497 0
497 503 502 0
499 504 498 0
498 504 503 0
500 507 499 0
499 507 504 0
505 507 500 0
510 508 502 0
502 508 501 0
511 502 503 0
510 502 511 0
513 503 504 0
511 503 513 0
512 513 506 0
513 507 506 0
513 504 507 0
506 507 505 0
516 515 509 0
508 510 509 0
510 516 509 0
510 517 516 0
518 510 511 0
517 510 518 0
519 511 513 0
518 511 519 0
514 522 512 0
522 513 512 0
522 519 513 0
520 522 514 0
525 523 516 0
516 523 515 0
526 516 517 0
525 516 526 0
527 517 518 0
526 517 527 0
529 518 519 0
527 518 529 0
528 529 521 0
529 522 521 0
529 519 522 0
521 522 520 0
532 530 524 0
523 525 524 0
525 532 524 0
525 534 532 0
536 525 526 0
534 525 536 0
538 526 527 0
536 526 538 0
541 527 529 0
538 527 541 0
539 541 528 0
528 541 529 0
532 531 530 0
531 532 533 0
533 532 534 0
533 534 535 0
535 534 536 0
535 536 537 0
537 536 538 0
537 538 540 0
540 538 541 0
540 541 539 0
