#!ascii version of /Users/gilles/git/nukkies/notebooks/data/NM3T_STh_R_dil.asc
884 1764
-6.043517  -57.991318  -35.548294  0
-6.529778  -57.944759  -35.406048  0
-4.219846  -58.402370  -35.526638  0
-4.605486  -58.945049  -35.846218  0
-4.712999  -58.494423  -35.751392  0
-5.245817  -58.567429  -35.667652  0
-5.673238  -58.408012  -35.566803  0
-4.528017  -59.062660  -35.853294  0
-4.336636  -58.900814  -35.642956  0
-4.837081  -59.082561  -35.749046  0
-4.574005  -59.226372  -35.727528  0
-5.140124  -58.897831  -35.655739  0
-5.531357  -58.924915  -35.495476  0
-4.583908  -59.483410  -35.483780  0
-5.415974  -55.603962  -34.967056  0
-5.870398  -55.568996  -34.993069  0
-6.324710  -55.584595  -34.963436  0
-6.671654  -55.611805  -34.899960  0
-5.194824  -56.055542  -35.071030  0
-5.727865  -55.950111  -35.092159  0
-6.137018  -55.870960  -35.050095  0
-6.547319  -55.971016  -34.966793  0
-4.766270  -56.826904  -35.361076  0
-4.722788  -56.494320  -35.108139  0
-5.059866  -56.753006  -35.382057  0
-5.212136  -56.463123  -35.252037  0
-5.534171  -56.730095  -35.381794  0
-5.648257  -56.360168  -35.216221  0
-6.136463  -56.726791  -35.260620  0
-6.136223  -56.233055  -35.115536  0
-4.510631  -57.076534  -35.347126  0
-4.294732  -56.831451  -34.984581  0
-6.465482  -57.005646  -35.254631  0
-6.786269  -57.046925  -35.095871  0
-7.093975  -57.117630  -34.932011  0
-4.314615  -57.506294  -35.440159  0
-4.102643  -57.649796  -35.290207  0
-4.159229  -57.264378  -35.156914  0
-6.544314  -57.277218  -35.327194  0
-6.760732  -57.601757  -35.273590  0
-6.846712  -57.300117  -35.163826  0
-4.001304  -58.034790  -35.238552  0
-6.426769  -58.327019  -35.377628  0
-6.947772  -58.027176  -35.154812  0
-6.729419  -58.265396  -35.262081  0
-7.192075  -57.980637  -34.962814  0
-3.903238  -58.569767  -35.180729  0
-3.672299  -58.466591  -34.930519  0
-6.122001  -58.478893  -35.426739  0
-6.378052  -58.726887  -35.239506  0
-6.694003  -58.616020  -35.131786  0
-4.068393  -59.021965  -35.272148  0
-4.322925  -59.294209  -35.450188  0
-5.268167  -59.292587  -35.462547  0
-6.021432  -58.958389  -35.261753  0
-5.682226  -59.271900  -35.269482  0
-6.346295  -58.999416  -35.111343  0
-6.585999  -58.984463  -34.989548  0
-4.467510  -59.559612  -35.170120  0
-4.870570  -59.433651  -35.534767  0
-4.827904  -59.648670  -35.228874  0
-5.153564  -59.590981  -35.262108  0
-5.534738  -59.558147  -35.100468  0
-5.812915  -54.562984  -34.542931  0
-6.387904  -54.527985  -34.553318  0
-6.902382  -54.580074  -34.529964  0
-7.349314  -54.642860  -34.435707  0
-5.276250  -55.322380  -34.835663  0
-5.261231  -54.956985  -34.618980  0
-5.579962  -55.245178  -34.858700  0
-5.764776  -54.942062  -34.738152  0
-6.048743  -55.224827  -34.874874  0
-6.218877  -54.887058  -34.723553  0
-6.510017  -55.271206  -34.849430  0
-6.766527  -54.999557  -34.695057  0
-7.234081  -55.024704  -34.564194  0
-7.648854  -55.038040  -34.376888  0
-5.014418  -55.556969  -34.811577  0
-4.795775  -55.269337  -34.508442  0
-6.838470  -55.419624  -34.806892  0
-7.113504  -55.455944  -34.676460  0
-7.522709  -55.521503  -34.452644  0
-4.796824  -55.996071  -34.898560  0
-4.566081  -56.126713  -34.762230  0
-4.653690  -55.735046  -34.624603  0
-6.916050  -55.784931  -34.809437  0
-6.866906  -56.150349  -34.832218  0
-7.228295  -56.018219  -34.616837  0
-4.375583  -56.413406  -34.707275  0
-4.156269  -56.702606  -34.600063  0
-6.565353  -56.407017  -35.001282  0
-6.674788  -56.749420  -35.029457  0
-6.959366  -56.432934  -34.792995  0
-7.151632  -56.741032  -34.749817  0
-7.219121  -56.399502  -34.625340  0
-4.072930  -57.055145  -34.829304  0
-7.366383  -56.992088  -34.695324  0
-7.331708  -57.223618  -34.791454  0
-7.626112  -57.170612  -34.526611  0
-3.956851  -57.506439  -34.884029  0
-7.100625  -57.410976  -35.012196  0
-7.145704  -57.738594  -35.008018  0
-7.441666  -57.511063  -34.721313  0
-7.703779  -57.444866  -34.473885  0
-3.793733  -58.103714  -34.771500  0
-3.656813  -58.434704  -34.771362  0
-7.411927  -57.951767  -34.699959  0
-7.226727  -58.245556  -34.840313  0
-3.612394  -58.543514  -34.874783  0
-3.687958  -58.625008  -34.939938  0
-3.672471  -58.593124  -34.780781  0
-6.985208  -58.457951  -34.998009  0
-7.234262  -58.654793  -34.652142  0
-3.885409  -58.855118  -34.803444  0
-4.171801  -59.302517  -35.009735  0
-6.349831  -59.280506  -34.906467  0
-6.963984  -58.952549  -34.723129  0
-6.688337  -59.259083  -34.722168  0
-7.222900  -58.932129  -34.500439  0
-4.422573  -59.558849  -34.712521  0
-4.774087  -59.726974  -34.821609  0
-5.273038  -59.750977  -34.849171  0
-5.950556  -59.434719  -34.991810  0
-5.832819  -59.703640  -34.708328  0
-6.205978  -59.586304  -34.686501  0
-6.545034  -59.529938  -34.535225  0
-6.833306  -53.576405  -34.042210  0
-7.301189  -53.636612  -33.981438  0
-5.721321  -54.262726  -34.357895  0
-5.685378  -54.021896  -34.101048  0
-6.066117  -54.183838  -34.358368  0
-6.325281  -53.792217  -34.128586  0
-6.580262  -54.179611  -34.383358  0
-6.799216  -53.933754  -34.242889  0
-7.052451  -54.265205  -34.374939  0
-7.242758  -53.993893  -34.179493  0
-7.618596  -53.968056  -34.006844  0
-5.426645  -54.440903  -34.370213  0
-5.143064  -54.635357  -34.382248  0
-5.141459  -54.410744  -34.088745  0
-7.420064  -54.362988  -34.304482  0
-7.765975  -54.628525  -34.209312  0
-7.622081  -54.262802  -34.149876  0
-4.916656  -54.838799  -34.340046  0
-4.674669  -55.093170  -34.234829  0
-4.778360  -54.790550  -34.030704  0
-7.983682  -55.000019  -34.158794  0
-8.224727  -55.151863  -33.983021  0
-4.555267  -55.469322  -34.278492  0
-7.973685  -55.417004  -34.169640  0
-7.806655  -55.781563  -34.239437  0
-8.227755  -55.377434  -33.991219  0
-4.428261  -55.961971  -34.356831  0
-7.592038  -55.967159  -34.373055  0
-7.882569  -56.191250  -34.147572  0
-4.246539  -56.341301  -34.293930  0
-4.117734  -56.597366  -34.259243  0
-4.187181  -56.376621  -33.996536  0
-7.510828  -56.381187  -34.437271  0
-7.581060  -56.795605  -34.474224  0
-7.869272  -56.638863  -34.205761  0
-8.142000  -56.574757  -33.947147  0
-4.013390  -56.990807  -34.410717  0
-7.861739  -56.987041  -34.283302  0
-8.137530  -57.025524  -34.010033  0
-3.899747  -57.493473  -34.358303  0
-7.962570  -57.418934  -34.195599  0
-7.712180  -57.776485  -34.397465  0
-8.212641  -57.377201  -33.946247  0
-3.853592  -57.902138  -34.267563  0
-7.605819  -58.077202  -34.423897  0
-7.767041  -58.209957  -34.159985  0
-3.812310  -58.414440  -34.433479  0
-7.499478  -58.444542  -34.381256  0
-7.731223  -58.589329  -33.969105  0
-4.014356  -58.821915  -34.226364  0
-4.226694  -59.224251  -34.365414  0
-4.176178  -59.004662  -34.050724  0
-7.367158  -58.859268  -34.334324  0
-7.214618  -59.183090  -34.234913  0
-4.508272  -59.520138  -34.294994  0
-4.744333  -59.697021  -34.390472  0
-4.756583  -59.586678  -34.055580  0
-5.183787  -59.804722  -34.378273  0
-5.732169  -59.829945  -34.317966  0
-6.299981  -59.747959  -34.282711  0
-6.888123  -59.391445  -34.404388  0
-6.729340  -59.640369  -34.191406  0
-6.744606  -53.272282  -33.875664  0
-6.728590  -53.054020  -33.609955  0
-7.049634  -53.296066  -33.851124  0
-7.350205  -53.079731  -33.598679  0
-7.871931  -53.113701  -33.485558  0
-5.629984  -53.816105  -33.710125  0
-6.458312  -53.365715  -33.860836  0
-5.996129  -53.567196  -33.748623  0
-6.280559  -53.219719  -33.549000  0
-7.422218  -53.416771  -33.823246  0
-7.612237  -53.683010  -33.882801  0
-7.794765  -53.515003  -33.706039  0
-8.259874  -53.510349  -33.517178  0
-8.631837  -53.609013  -33.403252  0
-5.387960  -54.051441  -33.828144  0
-5.165912  -54.255894  -33.649662  0
-7.849037  -53.891171  -33.849060  0
-8.144128  -53.931507  -33.696774  0
-8.547992  -53.984035  -33.485031  0
-4.907453  -54.570831  -33.726318  0
-4.705838  -54.858009  -33.719303  0
-7.963629  -54.269325  -33.931862  0
-8.259648  -54.721375  -33.855999  0
-8.325061  -54.294094  -33.690384  0
-4.578208  -55.178242  -33.892933  0
-4.626659  -55.094154  -33.516590  0
-8.451509  -55.042206  -33.750084  0
-8.671700  -55.186970  -33.548393  0
-4.453817  -55.617161  -33.951157  0
-8.419708  -55.329536  -33.805046  0
-8.289664  -55.610279  -33.894119  0
-8.633424  -55.623798  -33.584175  0
-4.336195  -56.029682  -33.786922  0
-4.216237  -56.374065  -33.707958  0
-8.083707  -55.873043  -34.013973  0
-8.178132  -56.235535  -33.896442  0
-8.415213  -56.049988  -33.719952  0
-8.717204  -56.041767  -33.480869  0
-4.102201  -56.649288  -33.970367  0
-4.178035  -56.682194  -33.581200  0
-8.386812  -56.520367  -33.715813  0
-8.643891  -56.424938  -33.504635  0
-4.027864  -57.049633  -33.941162  0
-4.147646  -57.142921  -33.526283  0
-8.343719  -56.881668  -33.775276  0
-3.981190  -57.523788  -33.903683  0
-4.151755  -57.659637  -33.524036  0
-8.395686  -57.327339  -33.702362  0
-8.238172  -57.702389  -33.826653  0
-3.970055  -58.021374  -33.920517  0
-4.173605  -58.157974  -33.575294  0
-8.001843  -57.956806  -34.003132  0
-8.227860  -58.156986  -33.639988  0
-4.031370  -58.463200  -33.916164  0
-4.238123  -58.744492  -33.762806  0
-4.188073  -58.468609  -33.643917  0
-7.996213  -58.477760  -33.704197  0
-7.804214  -58.804695  -33.694088  0
-8.205767  -58.441471  -33.486774  0
-4.399786  -59.055130  -33.827030  0
-4.662585  -59.318790  -33.824902  0
-4.635276  -59.069405  -33.584332  0
-7.553203  -59.009354  -33.848499  0
-7.298447  -59.388855  -33.817104  0
-7.769129  -59.000660  -33.536579  0
-4.964576  -59.519543  -33.741627  0
-5.135683  -59.705082  -33.925362  0
-5.257935  -59.565647  -33.530354  0
-5.663063  -59.824570  -33.864418  0
-6.229968  -59.843422  -33.796288  0
-7.034719  -59.536255  -33.996838  0
-6.780706  -59.743752  -33.760380  0
-7.162236  -59.600971  -33.634331  0
-6.665689  -52.863747  -33.237026  0
-7.056764  -52.728043  -33.248028  0
-7.368855  -52.459278  -33.005581  0
-7.638213  -52.669285  -33.237934  0
-7.610892  -52.415146  -33.013325  0
-8.900571  -52.634506  -32.944794  0
-6.443256  -53.021843  -33.324394  0
-6.216892  -53.201565  -33.155148  0
-8.037632  -52.848301  -33.303074  0
-8.222003  -53.114254  -33.396549  0
-8.445683  -52.836037  -33.190262  0
-8.545588  -53.269619  -33.357899  0
-8.854499  -53.108780  -33.185089  0
-9.217894  -53.012032  -32.979118  0
-6.025655  -53.396011  -33.355042  0
-5.762641  -53.683041  -33.301975  0
-8.830381  -53.458206  -33.295494  0
-9.151390  -53.521023  -33.111164  0
-5.442126  -54.012615  -33.398575  0
-5.234154  -54.291935  -33.272137  0
-8.882629  -53.816303  -33.293354  0
-8.847955  -54.199112  -33.317505  0
-9.168177  -54.133183  -33.103889  0
-5.030700  -54.520889  -33.340992  0
-5.179734  -54.528614  -33.015747  0
-8.610925  -54.446728  -33.508263  0
-8.649320  -54.828598  -33.529266  0
-8.966702  -54.604687  -33.254211  0
-9.289749  -54.591122  -33.019058  0
-4.803407  -54.881966  -33.324825  0
-4.662885  -55.232849  -33.203007  0
-8.904137  -54.996899  -33.332546  0
-9.276301  -55.068363  -33.072781  0
-4.513432  -55.533020  -33.439877  0
-4.638682  -55.520401  -32.997169  0
-8.946782  -55.361031  -33.330620  0
-9.211908  -55.552967  -33.156353  0
-9.568131  -55.578453  -32.923676  0
-4.422973  -55.914986  -33.349197  0
-8.957965  -55.806751  -33.325031  0
-9.276440  -56.014709  -33.094376  0
-4.349707  -56.283119  -33.317905  0
-8.928781  -56.271343  -33.305470  0
-8.827976  -56.673691  -33.335224  0
-9.130108  -56.637100  -33.088795  0
-4.324697  -56.785675  -33.186050  0
-8.587218  -56.912418  -33.524136  0
-8.843452  -57.063423  -33.248798  0
-9.080200  -57.172813  -32.964321  0
-4.337420  -57.298630  -33.161434  0
-8.629066  -57.371147  -33.401520  0
-8.798895  -57.569427  -33.101013  0
-4.427160  -57.846462  -33.158566  0
-4.687249  -58.168858  -32.986160  0
-8.483383  -57.891277  -33.376225  0
-8.670510  -58.016182  -32.977348  0
-4.416645  -58.394951  -33.367599  0
-4.659728  -58.759281  -33.338806  0
-4.666516  -58.452690  -33.141361  0
-8.333673  -58.354160  -33.335106  0
-8.201907  -58.686485  -33.199860  0
-4.905019  -59.048485  -33.326900  0
-5.185064  -59.298508  -33.293095  0
-5.175332  -59.029285  -33.065056  0
-7.941584  -58.904659  -33.363098  0
-7.748512  -59.232128  -33.228775  0
-5.499786  -59.498154  -33.212864  0
-5.651320  -59.696220  -33.401333  0
-5.798262  -59.556927  -32.998875  0
-6.189253  -59.819832  -33.325611  0
-6.736441  -59.817577  -33.258686  0
-7.430698  -59.442711  -33.438709  0
-7.172744  -59.690216  -33.269798  0
-7.356172  -52.344440  -32.679699  0
-7.648180  -52.288040  -32.746880  0
-8.863965  -52.246128  -32.633778  0
-8.621771  -52.079983  -32.487900  0
-7.073438  -52.535534  -32.794987  0
-6.770556  -52.752411  -32.921986  0
-7.191795  -52.416931  -32.586956  0
-7.882219  -52.350769  -32.884953  0
-8.530205  -52.400051  -32.858185  0
-8.116685  -52.540028  -33.053551  0
-8.278959  -52.216446  -32.683167  0
-9.093707  -52.386494  -32.714233  0
-9.300893  -52.628853  -32.731243  0
-9.245456  -52.382881  -32.588150  0
-6.473444  -53.018391  -32.868328  0
-6.225535  -53.280197  -32.787533  0
-6.661987  -52.870972  -32.663307  0
-9.501813  -52.962582  -32.768063  0
-9.718125  -53.152374  -32.568745  0
-6.015492  -53.528290  -32.862034  0
-5.789330  -53.824493  -32.848202  0
-6.170025  -53.441601  -32.598644  0
-9.496439  -53.337074  -32.853104  0
-9.733320  -53.598778  -32.591141  0
-5.611389  -53.966137  -33.009899  0
-5.701178  -54.136387  -32.627014  0
-9.478369  -53.844090  -32.871292  0
-9.722631  -54.104553  -32.590145  0
-5.451979  -54.384064  -32.790478  0
-5.246514  -54.742111  -32.691143  0
-5.652711  -54.386940  -32.475433  0
-9.493359  -54.351330  -32.846115  0
-9.737306  -54.570412  -32.604725  0
-5.030097  -54.880753  -32.879749  0
-5.197415  -55.033421  -32.489639  0
-9.549963  -54.776978  -32.829674  0
-9.756003  -55.139877  -32.723022  0
-9.757336  -54.854702  -32.647034  0
-4.822302  -55.315723  -32.825089  0
-4.720661  -55.727192  -32.710102  0
-9.978989  -55.569195  -32.611786  0
-9.801900  -55.843555  -32.746178  0
-10.193497  -55.486923  -32.415203  0
-4.541701  -55.919788  -32.993408  0
-4.716079  -56.150436  -32.579243  0
-9.591902  -55.973873  -32.889904  0
-9.764589  -56.177013  -32.691685  0
-4.512518  -56.450546  -32.868610  0
-4.708973  -56.664257  -32.530876  0
-9.492025  -56.366833  -32.865742  0
-9.701786  -56.566963  -32.598694  0
-4.511596  -56.960480  -32.834858  0
-4.719006  -57.136452  -32.559738  0
-9.440898  -56.928440  -32.685585  0
-9.239874  -57.330685  -32.696140  0
-9.690220  -56.844242  -32.472485  0
-4.566444  -57.416046  -32.831665  0
-4.777587  -57.738754  -32.697979  0
-4.736333  -57.434513  -32.610050  0
-9.033987  -57.580475  -32.774673  0
-9.210036  -57.618595  -32.516979  0
-4.957736  -58.063515  -32.664742  0
-5.205763  -58.183399  -32.488369  0
-8.853517  -57.878193  -32.793106  0
-8.743635  -58.236496  -32.620224  0
-4.936055  -58.409718  -32.870438  0
-5.186553  -58.727482  -32.835293  0
-5.201921  -58.427898  -32.632206  0
-8.475704  -58.465317  -32.892151  0
-8.296755  -58.872154  -32.766537  0
-5.442605  -59.013676  -32.803146  0
-5.716556  -59.282135  -32.766502  0
-5.700213  -59.007481  -32.545681  0
-8.069388  -59.135693  -32.787983  0
-7.819911  -59.430458  -32.755222  0
-8.260735  -59.058205  -32.532242  0
-6.034081  -59.498772  -32.677296  0
-6.189600  -59.696697  -32.859081  0
-6.325981  -59.566566  -32.454685  0
-6.719114  -59.801514  -32.780193  0
-7.543660  -59.556919  -32.966690  0
-7.263411  -59.746174  -32.731583  0
-7.670534  -59.613914  -32.573002  0
-8.663380  -51.909161  -32.193638  0
-7.702288  -52.253204  -32.254372  0
-8.446039  -51.996262  -32.353012  0
-8.099607  -52.117367  -32.408352  0
-8.883026  -52.004562  -32.197800  0
-9.121388  -52.224934  -32.416515  0
-7.341138  -52.382214  -32.374973  0
-7.133528  -52.593132  -32.282726  0
-9.403406  -52.436974  -32.289230  0
-9.614111  -52.786953  -32.477676  0
-6.851424  -52.771130  -32.492512  0
-6.639061  -53.094284  -32.275639  0
-9.818504  -52.978668  -32.261898  0
-6.348766  -53.386700  -32.373066  0
-6.148347  -53.689255  -32.344727  0
-9.898932  -53.329723  -32.244507  0
-5.940985  -53.991993  -32.391411  0
-6.134943  -54.042484  -32.007458  0
-9.918962  -53.822155  -32.240376  0
-5.807837  -54.408279  -32.229591  0
-5.650127  -54.659645  -32.259865  0
-9.925641  -54.342960  -32.268719  0
-5.449646  -54.966022  -32.262486  0
-5.269266  -55.284973  -32.220890  0
-5.665443  -54.937443  -32.023090  0
-9.984990  -54.850677  -32.355125  0
-10.103560  -55.260345  -32.437939  0
-10.221098  -55.105560  -32.157619  0
-5.065957  -55.319939  -32.456795  0
-5.223214  -55.645195  -32.095474  0
-10.315074  -55.419113  -32.122581  0
-10.222650  -55.731037  -32.290127  0
-4.943378  -55.802032  -32.380100  0
-5.194469  -56.120399  -32.007004  0
-10.022090  -56.028778  -32.455101  0
-10.233718  -56.078846  -32.109608  0
-4.939204  -56.377045  -32.258205  0
-5.189270  -56.627926  -31.988541  0
-9.905317  -56.394592  -32.444000  0
-4.939404  -56.889763  -32.269424  0
-5.190517  -57.099445  -32.045513  0
-9.873971  -56.753235  -32.285378  0
-9.727338  -57.150158  -32.211819  0
-4.954367  -57.368774  -32.359638  0
-5.208035  -57.748421  -32.263351  0
-5.194533  -57.408226  -32.123096  0
-9.444272  -57.463753  -32.331654  0
-9.298783  -57.801254  -32.238243  0
-5.461865  -58.041416  -32.162857  0
-5.724524  -58.160370  -31.976597  0
-9.047287  -58.017979  -32.359463  0
-8.824586  -58.401028  -32.257515  0
-9.275598  -58.002960  -32.073437  0
-5.463256  -58.376076  -32.351295  0
-5.698932  -58.711975  -32.336334  0
-5.726694  -58.403252  -32.112679  0
-8.619571  -58.614700  -32.351040  0
-8.757704  -58.651112  -32.001869  0
-5.933605  -59.014347  -32.315868  0
-6.218111  -59.278996  -32.250946  0
-6.155506  -59.012814  -32.087421  0
-8.405170  -58.889290  -32.432281  0
-8.195645  -59.222088  -32.196541  0
-6.549481  -59.507603  -32.137428  0
-6.703456  -59.699455  -32.324497  0
-6.829184  -59.574032  -31.940735  0
-7.186600  -59.765469  -32.274940  0
-7.917099  -59.472191  -32.376015  0
-7.619469  -59.680996  -32.246151  0
-8.742168  -51.874722  -31.981239  0
-7.882514  -52.326492  -31.689903  0
-8.497499  -51.923649  -32.066402  0
-8.267331  -52.091732  -31.841642  0
-8.867247  -51.961201  -31.820951  0
-8.653131  -51.935268  -31.786293  0
-9.140723  -52.158852  -31.877924  0
-7.487586  -52.530060  -31.838835  0
-7.220533  -52.787071  -31.782087  0
-7.732072  -52.494892  -31.528852  0
-9.504978  -52.404072  -31.687027  0
-9.714626  -52.691917  -32.024635  0
-6.970655  -53.005692  -31.849504  0
-6.744193  -53.312134  -31.754522  0
-7.186245  -52.975288  -31.558886  0
-9.930799  -53.004383  -31.861635  0
-6.543011  -53.497444  -31.863438  0
-6.698094  -53.574799  -31.511293  0
-10.069865  -53.458824  -31.782778  0
-10.225474  -53.707481  -31.480354  0
-6.338593  -53.866611  -31.841673  0
-6.230940  -54.261791  -31.664471  0
-10.091952  -54.049755  -31.825207  0
-10.230021  -54.048885  -31.457603  0
-6.037828  -54.431744  -31.845318  0
-6.213352  -54.558811  -31.460192  0
-10.121778  -54.544445  -31.901482  0
-10.217474  -54.872898  -31.942389  0
-5.847948  -54.849445  -31.838776  0
-5.684781  -55.210903  -31.814575  0
-10.371387  -55.115868  -31.801773  0
-5.461476  -55.448627  -31.930101  0
-5.700709  -55.652290  -31.588333  0
-10.455824  -55.418266  -31.716202  0
-5.453299  -55.896366  -31.778824  0
-5.697861  -56.128979  -31.496834  0
-10.400929  -55.836514  -31.786615  0
-10.308836  -56.296925  -31.802591  0
-5.447326  -56.378323  -31.731918  0
-5.700522  -56.617455  -31.493481  0
-10.111279  -56.483078  -32.086964  0
-10.282206  -56.702217  -31.612551  0
-5.446875  -56.868412  -31.761351  0
-5.706259  -57.085655  -31.551512  0
-10.068339  -57.073742  -31.777670  0
-9.872228  -57.439899  -31.800802  0
-10.274023  -57.020313  -31.461519  0
-5.448836  -57.347610  -31.864792  0
-5.703175  -57.740299  -31.785709  0
-5.707068  -57.394871  -31.629572  0
-9.676111  -57.554951  -31.965052  0
-9.797737  -57.759056  -31.616455  0
-5.977373  -58.050564  -31.687559  0
-6.324957  -58.200283  -31.463858  0
-9.500625  -57.942150  -31.800758  0
-9.221207  -58.236149  -31.866772  0
-9.716673  -57.977669  -31.465656  0
-5.991370  -58.405708  -31.869034  0
-6.089639  -58.782711  -31.998781  0
-6.345197  -58.618217  -31.665247  0
-6.657104  -58.543076  -31.356079  0
-8.975079  -58.447182  -31.941114  0
-8.843519  -58.749130  -31.607660  0
-9.108766  -58.524689  -31.616280  0
-6.359698  -58.970955  -31.865845  0
-6.721375  -59.262638  -31.752705  0
-6.611921  -58.862473  -31.569153  0
-8.509549  -58.943356  -31.911552  0
-8.123354  -59.278183  -31.604940  0
-7.061905  -59.517036  -31.688671  0
-7.133381  -59.682117  -31.911083  0
-7.415151  -59.552219  -31.590252  0
-7.898024  -59.524887  -31.935064  0
-7.535293  -59.676731  -31.875458  0
-7.763069  -59.521683  -31.611191  0
-8.268833  -52.288208  -31.362112  0
-8.793366  -52.145592  -31.374826  0
-9.265106  -52.246281  -31.345655  0
-7.993235  -52.532494  -31.214748  0
-7.689854  -52.716484  -31.291420  0
-8.257903  -52.447758  -31.069443  0
-8.518145  -52.376743  -30.972178  0
-9.565031  -52.395134  -31.102501  0
-9.802968  -52.656040  -31.460829  0
-7.430840  -52.965298  -31.297569  0
-7.182014  -53.216965  -31.294359  0
-7.677118  -52.947868  -31.034628  0
-10.077028  -52.990173  -31.301901  0
-10.221989  -53.347488  -31.372507  0
-6.945686  -53.495316  -31.290728  0
-6.760725  -53.792500  -31.237986  0
-7.180946  -53.472458  -31.030024  0
-10.331245  -53.488514  -31.172455  0
-6.571897  -53.865570  -31.451109  0
-6.713827  -54.139286  -31.060123  0
-10.372564  -53.864933  -31.115618  0
-10.316576  -54.218658  -31.253771  0
-6.454820  -54.396408  -31.241894  0
-6.279887  -54.792725  -31.210930  0
-6.687381  -54.423050  -30.919231  0
-10.219348  -54.348602  -31.530046  0
-10.364072  -54.712917  -31.449093  0
-10.334040  -54.419922  -31.271332  0
-6.091280  -54.866608  -31.450338  0
-6.227327  -55.163067  -31.109583  0
-10.539495  -55.173367  -31.330385  0
-10.688804  -55.121159  -30.903994  0
-5.954924  -55.328270  -31.413645  0
-6.189504  -55.619354  -31.037291  0
-10.526927  -55.551590  -31.437639  0
-5.941514  -55.866123  -31.274815  0
-6.185834  -56.102962  -31.007591  0
-10.525501  -55.834316  -31.294085  0
-5.944034  -56.360516  -31.246033  0
-6.214781  -56.597389  -31.019451  0
-10.443505  -56.300430  -31.333755  0
-5.967484  -56.861298  -31.275620  0
-6.305693  -57.127335  -31.044893  0
-10.400830  -56.886600  -31.138760  0
-10.260508  -57.289246  -31.275974  0
-5.976296  -57.372261  -31.393454  0
-6.126193  -57.801411  -31.436888  0
-6.338476  -57.579155  -31.161680  0
-6.595489  -57.493877  -30.927610  0
-10.038176  -57.596138  -31.391024  0
-10.223582  -57.594074  -31.045813  0
-6.426053  -57.900967  -31.230247  0
-6.717491  -58.159176  -31.118792  0
-6.602111  -57.793873  -31.040413  0
-9.859134  -57.911663  -31.307560  0
-9.588724  -58.169441  -31.203413  0
-6.958014  -58.535248  -31.110703  0
-7.331897  -58.727024  -30.973133  0
-8.837560  -58.812698  -31.295008  0
-8.814921  -58.704758  -31.031233  0
-9.318911  -58.374222  -31.467131  0
-9.059052  -58.652855  -31.327431  0
-9.232780  -58.494732  -31.145206  0
-6.979169  -58.913349  -31.311705  0
-7.211249  -59.304790  -31.433348  0
-7.399894  -59.072739  -31.168484  0
-7.698150  -59.306004  -31.325157  0
-7.793537  -58.966526  -30.992666  0
-8.524723  -58.973442  -31.344597  0
-8.102149  -59.129608  -31.209805  0
-8.298653  -58.896900  -30.989122  0
-9.263647  -52.298721  -30.747021  0
-8.328347  -52.668327  -30.720829  0
-8.856635  -52.335846  -30.768972  0
-8.678050  -52.508682  -30.587948  0
-9.606708  -52.363983  -30.682297  0
-9.867805  -52.572498  -30.794710  0
-9.721910  -52.392971  -30.526855  0
-7.959494  -52.934620  -30.790865  0
-7.684038  -53.185997  -30.802591  0
-8.228111  -52.925209  -30.544327  0
-10.153154  -52.865097  -30.792698  0
-10.287941  -53.167088  -31.011757  0
-10.294073  -53.031681  -30.607292  0
-7.443640  -53.451710  -30.803980  0
-7.186095  -53.741062  -30.816698  0
-7.702909  -53.422821  -30.579296  0
-10.414807  -53.422401  -30.753090  0
-6.942950  -53.955280  -30.919149  0
-7.185499  -54.152390  -30.542244  0
-10.500478  -53.825047  -30.689676  0
-6.927516  -54.438782  -30.642168  0
-6.680874  -54.719616  -30.774225  0
-7.177624  -54.435040  -30.379179  0
-10.507794  -54.332405  -30.853409  0
-10.621353  -54.831741  -30.947161  0
-6.452073  -54.941475  -30.931217  0
-6.677570  -55.167595  -30.599318  0
-10.763837  -54.954124  -30.635349  0
-10.765577  -55.203644  -30.561537  0
-6.437589  -55.394844  -30.802481  0
-6.693932  -55.617744  -30.516335  0
-10.629935  -55.481976  -30.987932  0
-6.443979  -55.861919  -30.761974  0
-6.790089  -56.124935  -30.489174  0
-10.574826  -55.947369  -30.864861  0
-6.468865  -56.349384  -30.782320  0
-6.805216  -56.656715  -30.605017  0
-7.127995  -56.542973  -30.360695  0
-10.517344  -56.445950  -30.765879  0
-6.518533  -56.827042  -30.819618  0
-6.604662  -57.192612  -30.829794  0
-6.850543  -57.119686  -30.675802  0
-7.244543  -57.071613  -30.470995  0
-10.470243  -56.883957  -30.663542  0
-6.829219  -57.444603  -30.760246  0
-7.228871  -57.599964  -30.617067  0
-7.721193  -57.564808  -30.431755  0
-9.378889  -57.759441  -30.365007  0
-10.358178  -57.324146  -30.829691  0
-10.242242  -57.641899  -30.833078  0
-10.187338  -57.561283  -30.568699  0
-6.919859  -57.848141  -30.843695  0
-7.119131  -58.318027  -30.892958  0
-7.363823  -58.123669  -30.694571  0
-7.749991  -58.014301  -30.557856  0
-8.202686  -57.913223  -30.454981  0
-8.723832  -58.459881  -30.744778  0
-8.836893  -58.058498  -30.523205  0
-9.194905  -58.338551  -30.851408  0
-9.372355  -58.061459  -30.621264  0
-9.982306  -57.854496  -30.949345  0
-9.611785  -58.102661  -30.821541  0
-9.773838  -57.827263  -30.554615  0
-7.441768  -58.471802  -30.768454  0
-7.667939  -58.683060  -30.795046  0
-7.750248  -58.414932  -30.665926  0
-8.438758  -58.659405  -30.801331  0
-8.037473  -58.696327  -30.773886  0
-8.253276  -58.348244  -30.622068  0
-9.380524  -52.365170  -30.270748  0
-9.572924  -52.345406  -30.406569  0
-9.070378  -52.501617  -30.281439  0
-8.673187  -52.764565  -30.307453  0
-9.371768  -52.455894  -30.075455  0
-9.788252  -52.456337  -30.383242  0
-9.641371  -52.482700  -30.111736  0
-10.041568  -52.723572  -30.300440  0
-8.409440  -52.935600  -30.381813  0
-8.223472  -53.160797  -30.374750  0
-8.591318  -53.179768  -30.088099  0
-10.318255  -53.150723  -30.204115  0
-10.108487  -52.873779  -29.918814  0
-7.924316  -53.341969  -30.477648  0
-7.758233  -53.642025  -30.396822  0
-8.199049  -53.626812  -30.126516  0
-8.641052  -53.592098  -29.869598  0
-10.483807  -53.565807  -30.366467  0
-7.467160  -53.909206  -30.450874  0
-7.798960  -54.004150  -30.157228  0
-8.099483  -54.097691  -29.948673  0
-8.474179  -53.956539  -29.821743  0
-10.545932  -53.957363  -30.277056  0
-7.464730  -54.388302  -30.170307  0
-7.171892  -54.717075  -30.246937  0
-7.813746  -54.301277  -29.983755  0
-10.659911  -54.380093  -30.149418  0
-10.731781  -54.695019  -30.464632  0
-6.917382  -54.935970  -30.416550  0
-7.164559  -55.151741  -30.093103  0
-10.828372  -54.948112  -30.241266  0
-10.807955  -55.224983  -30.085377  0
-6.921329  -55.377357  -30.291021  0
-7.166403  -55.567867  -30.032940  0
-10.692921  -55.563541  -30.458216  0
-6.970164  -55.778805  -30.240435  0
-7.187095  -56.127819  -30.147305  0
-7.168207  -55.835827  -30.052317  0
-10.591914  -56.020691  -30.333351  0
-7.413088  -56.500462  -30.137798  0
-7.801413  -56.728958  -29.997538  0
-10.498118  -56.540016  -30.283209  0
-7.496478  -56.857876  -30.252542  0
-7.638146  -57.212254  -30.329277  0
-7.885829  -57.128090  -30.173475  0
-8.269361  -57.070984  -29.968494  0
-9.378189  -57.420994  -30.076799  0
-9.132453  -57.263626  -29.942581  0
-10.374450  -57.090057  -30.349663  0
-10.235596  -57.350555  -30.290518  0
-10.186119  -57.120594  -30.045820  0
-7.917092  -57.409485  -30.293943  0
-8.122246  -57.627190  -30.335621  0
-8.239549  -57.409851  -30.190536  0
-8.993047  -57.619549  -30.227423  0
-8.521029  -57.695179  -30.304037  0
-8.689559  -57.353359  -30.050903  0
-9.599370  -57.489567  -30.156191  0
-10.021267  -57.503933  -30.291979  0
-9.727818  -57.616447  -30.294451  0
-9.876900  -57.337246  -30.074436  0
-9.413117  -52.691990  -29.881876  0
-9.841468  -52.730515  -29.865671  0
-8.992847  -52.895252  -29.961519  0
-9.269075  -53.059120  -29.692913  0
-9.978092  -52.894188  -29.719601  0
-9.689131  -53.054790  -29.587431  0
-10.113779  -53.146893  -29.704573  0
-8.955486  -53.333256  -29.757233  0
-9.296898  -53.462387  -29.489033  0
-10.383230  -53.568974  -29.871525  0
-10.148863  -53.473740  -29.499065  0
-8.294959  -54.320503  -29.742989  0
-8.925105  -53.870678  -29.554283  0
-8.623813  -54.244659  -29.586279  0
-9.219255  -53.799465  -29.382236  0
-10.508365  -54.089931  -29.712736  0
-10.258744  -53.802452  -29.442574  0
-8.001808  -54.392353  -29.844282  0
-7.758610  -54.620415  -29.864437  0
-8.104119  -54.674232  -29.674854  0
-8.491306  -54.626354  -29.468304  0
-10.658613  -54.456810  -29.682825  0
-10.777135  -54.696293  -29.928885  0
-7.453867  -54.894703  -29.947212  0
-7.856123  -55.111546  -29.680195  0
-8.363963  -55.074978  -29.447071  0
-10.832981  -54.955864  -29.749271  0
-10.794315  -55.215931  -29.609592  0
-7.455279  -55.372219  -29.840050  0
-7.823370  -55.671307  -29.659203  0
-8.257393  -55.571854  -29.510405  0
-8.738381  -55.578491  -29.336250  0
-10.685384  -55.581070  -29.919098  0
-7.436977  -55.854912  -29.875854  0
-7.580260  -56.298656  -29.922140  0
-7.861938  -56.139107  -29.708843  0
-8.239007  -56.046703  -29.566298  0
-8.655309  -56.014751  -29.467104  0
-9.076259  -56.025848  -29.354942  0
-10.484379  -56.099728  -29.787790  0
-10.333621  -55.994900  -29.376032  0
-7.921252  -56.485645  -29.790291  0
-8.142231  -56.748276  -29.812349  0
-8.283701  -56.507481  -29.665310  0
-8.601009  -56.376740  -29.557207  0
-9.227564  -56.844288  -29.641645  0
-8.989024  -56.428043  -29.502914  0
-10.356212  -56.688965  -29.931889  0
-10.210450  -56.815819  -29.792080  0
-10.176545  -56.504017  -29.568968  0
-8.434493  -56.868134  -29.770956  0
-8.917924  -57.102570  -29.830601  0
-8.638612  -57.074532  -29.849628  0
-8.755592  -56.779945  -29.673338  0
-9.497307  -57.064487  -29.769308  0
-10.011625  -56.972992  -29.800955  0
-9.697597  -57.201523  -29.908796  0
-9.838370  -56.835552  -29.616404  0
-9.884690  -53.366184  -29.392776  0
-9.602471  -53.431240  -29.351656  0
-9.971217  -53.695160  -29.264772  0
-9.714191  -53.639130  -29.231291  0
-9.449939  -53.744694  -29.271675  0
-9.253499  -54.066750  -29.246761  0
-10.090519  -54.004944  -29.188505  0
-9.704706  -54.052345  -29.101173  0
-10.322487  -54.127483  -29.315552  0
-8.948284  -54.458969  -29.236803  0
-8.700344  -54.769180  -29.228439  0
-9.382404  -54.372093  -29.024643  0
-9.706787  -54.470440  -28.889713  0
-10.491435  -54.363354  -29.384102  0
-10.167134  -54.412220  -29.046860  0
-10.633337  -54.720741  -29.349581  0
-8.565197  -54.905636  -29.295067  0
-8.755939  -55.158329  -29.182173  0
-8.706046  -54.936680  -29.166504  0
-10.788555  -55.008942  -29.384817  0
-10.748025  -55.176697  -29.317518  0
-10.578942  -55.086422  -29.085131  0
-9.026215  -55.465546  -29.135239  0
-9.134054  -55.731766  -29.217432  0
-9.429141  -55.583179  -29.009220  0
-9.841157  -55.471695  -28.849754  0
-10.558293  -55.516731  -29.356647  0
-10.239708  -55.785118  -29.157009  0
-10.238184  -55.419777  -28.944017  0
-9.401234  -55.935814  -29.204054  0
-10.075857  -56.171906  -29.257812  0
-9.835261  -55.890850  -29.095274  0
-9.453524  -56.337444  -29.350252  0
-9.928383  -56.518898  -29.387344  0
-9.647412  -56.683475  -29.475412  0
-9.810877  -56.341091  -29.271639  0
-9.413391  -54.724026  -28.848103  0
-9.921144  -54.733757  -28.746920  0
-10.330561  -54.824562  -28.867981  0
-8.971868  -54.912464  -29.022600  0
-9.165037  -55.244030  -28.947887  0
-9.356180  -55.036263  -28.784384  0
-9.589965  -55.259151  -28.763645  0
-9.736687  -54.988823  -28.665411  0
-10.303550  -55.083004  -28.772743  0
-10.000397  -55.192394  -28.697901  0
-10.095634  -54.959225  -28.659948  0
6 11 0 0
0 13 6 0
11 14 0 0
0 14 13 0
20 24 1 0
1 26 20 0
24 27 1 0
1 27 26 0
39 47 2 0
3 41 2 0
2 41 39 0
4 43 3 0
3 43 41 0
5 45 4 0
4 45 43 0
5 49 45 0
2 47 7 0
7 47 52 0
2 8 3 0
2 7 8 0
3 9 4 0
3 8 9 0
4 10 5 0
4 9 10 0
49 5 55 0
55 5 10 0
53 58 12 0
53 12 52 0
52 12 7 0
12 11 7 0
11 6 7 0
7 6 13 0
15 7 13 0
8 7 15 0
8 16 9 0
8 15 16 0
9 17 10 0
9 16 17 0
55 10 56 0
10 18 56 0
10 17 18 0
18 60 56 0
12 58 19 0
19 58 63 0
21 14 11 0
12 21 11 0
19 21 12 0
15 13 14 0
21 15 14 0
22 15 21 0
15 23 16 0
15 22 23 0
59 17 65 0
17 23 65 0
17 16 23 0
17 59 18 0
18 59 61 0
18 61 60 0
19 63 25 0
25 63 68 0
25 24 20 0
21 25 20 0
19 25 21 0
21 20 26 0
28 21 26 0
22 21 28 0
22 29 23 0
22 28 29 0
65 23 71 0
71 23 29 0
68 69 25 0
69 75 30 0
69 30 27 0
25 69 27 0
24 25 27 0
30 76 27 0
27 76 26 0
76 70 26 0
70 28 26 0
28 70 29 0
29 70 72 0
29 72 71 0
75 77 30 0
30 77 76 0
84 94 31 0
32 86 31 0
31 86 84 0
33 88 32 0
32 88 86 0
34 90 33 0
33 90 88 0
34 96 90 0
31 94 35 0
35 94 99 0
31 36 32 0
31 35 36 0
32 37 33 0
32 36 37 0
33 38 34 0
33 37 38 0
96 34 102 0
102 34 38 0
100 105 40 0
100 40 99 0
40 35 99 0
40 42 35 0
35 44 36 0
35 42 44 0
36 46 37 0
36 44 46 0
103 38 107 0
38 46 107 0
38 37 46 0
38 103 102 0
106 112 48 0
106 48 105 0
105 48 40 0
48 47 40 0
47 39 40 0
40 39 41 0
40 41 42 0
42 41 43 0
42 43 44 0
44 43 45 0
44 45 46 0
50 108 49 0
49 108 45 0
108 107 45 0
107 46 45 0
51 110 50 0
50 110 108 0
51 113 110 0
48 112 54 0
54 112 116 0
54 52 47 0
54 47 48 0
55 57 50 0
55 50 49 0
114 51 117 0
51 57 117 0
51 50 57 0
51 114 113 0
54 116 53 0
116 58 53 0
116 121 58 0
54 53 52 0
56 57 55 0
62 118 60 0
60 118 56 0
118 117 56 0
117 57 56 0
62 123 118 0
122 125 64 0
121 122 64 0
63 121 64 0
58 121 63 0
65 66 59 0
67 61 59 0
67 59 66 0
67 128 61 0
61 128 60 0
128 124 60 0
124 62 60 0
62 124 123 0
125 126 64 0
63 64 126 0
130 63 126 0
68 63 130 0
71 73 66 0
71 66 65 0
66 74 67 0
66 73 74 0
128 67 133 0
133 67 74 0
130 131 68 0
68 131 69 0
75 69 131 0
75 131 136 0
76 78 70 0
79 72 70 0
79 70 78 0
79 139 72 0
72 139 71 0
139 132 71 0
132 73 71 0
73 132 74 0
74 132 134 0
74 134 133 0
136 137 75 0
75 137 77 0
76 77 78 0
77 138 78 0
77 137 138 0
78 138 79 0
79 138 140 0
79 140 139 0
145 154 80 0
81 147 80 0
80 147 145 0
82 149 81 0
81 149 147 0
83 151 82 0
82 151 149 0
83 157 151 0
155 160 85 0
155 85 154 0
85 80 154 0
85 87 80 0
80 89 81 0
80 87 89 0
81 91 82 0
81 89 91 0
82 92 83 0
82 91 92 0
157 83 158 0
83 93 158 0
83 92 93 0
93 163 158 0
161 165 95 0
161 95 160 0
160 95 85 0
95 94 85 0
94 84 85 0
85 84 86 0
85 86 87 0
87 86 88 0
87 88 89 0
89 88 90 0
89 90 91 0
91 90 96 0
97 91 96 0
92 91 97 0
92 98 93 0
92 97 98 0
163 93 166 0
166 93 98 0
95 165 101 0
101 165 169 0
101 99 94 0
101 94 95 0
102 104 97 0
102 97 96 0
167 98 170 0
98 104 170 0
98 97 104 0
98 167 166 0
101 169 100 0
169 105 100 0
169 172 105 0
101 100 99 0
107 109 103 0
104 102 103 0
109 104 103 0
111 104 109 0
170 104 175 0
175 104 111 0
173 179 106 0
106 179 112 0
106 105 172 0
106 172 173 0
108 109 107 0
109 108 110 0
109 110 111 0
115 176 113 0
113 176 110 0
176 175 110 0
175 111 110 0
115 180 176 0
179 116 112 0
182 116 179 0
117 119 114 0
115 113 114 0
119 115 114 0
120 115 119 0
180 115 183 0
183 115 120 0
182 121 116 0
186 121 182 0
118 119 117 0
120 119 184 0
119 123 184 0
123 187 184 0
123 119 118 0
120 184 183 0
127 125 122 0
189 127 122 0
121 189 122 0
186 189 121 0
128 129 124 0
129 190 124 0
190 123 124 0
190 187 123 0
127 126 125 0
130 126 127 0
189 130 127 0
192 130 189 0
133 135 129 0
133 129 128 0
190 129 195 0
195 129 135 0
192 193 130 0
130 193 131 0
136 131 193 0
136 193 197 0
139 141 132 0
142 134 132 0
142 132 141 0
142 203 134 0
134 203 133 0
203 196 133 0
196 135 133 0
135 196 195 0
197 198 136 0
136 198 137 0
137 200 138 0
198 200 137 0
138 201 140 0
200 201 138 0
139 140 141 0
140 202 141 0
140 201 202 0
141 202 142 0
142 202 204 0
142 204 203 0
205 211 143 0
144 207 143 0
143 207 205 0
144 214 207 0
210 219 146 0
148 212 146 0
146 212 210 0
212 148 211 0
148 143 211 0
148 150 143 0
143 152 144 0
143 150 152 0
214 144 215 0
144 153 215 0
144 152 153 0
153 221 215 0
220 224 156 0
220 156 219 0
219 156 146 0
156 154 146 0
154 145 146 0
146 145 147 0
146 147 148 0
148 147 149 0
148 149 150 0
150 149 151 0
150 151 152 0
152 151 157 0
159 152 157 0
153 152 159 0
221 153 226 0
226 153 159 0
225 229 162 0
225 162 224 0
224 162 156 0
162 160 156 0
160 155 156 0
156 155 154 0
158 159 157 0
164 227 163 0
163 227 158 0
227 226 158 0
226 159 158 0
164 231 227 0
162 229 161 0
229 165 161 0
229 233 165 0
162 161 160 0
166 168 164 0
166 164 163 0
231 164 234 0
234 164 168 0
233 169 165 0
237 169 233 0
170 171 167 0
171 239 167 0
167 239 166 0
239 235 166 0
235 168 166 0
168 235 234 0
238 243 174 0
237 238 174 0
172 237 174 0
169 237 172 0
175 177 171 0
175 171 170 0
239 171 240 0
171 178 240 0
171 177 178 0
178 245 240 0
174 243 173 0
243 179 173 0
243 247 179 0
174 173 172 0
176 177 175 0
177 176 180 0
181 177 180 0
178 177 181 0
245 178 249 0
249 178 181 0
247 182 179 0
250 182 247 0
183 185 181 0
183 181 180 0
249 181 252 0
252 181 185 0
250 186 182 0
254 186 250 0
187 188 184 0
188 256 184 0
184 256 183 0
256 253 183 0
253 185 183 0
185 253 252 0
254 189 186 0
258 189 254 0
190 191 188 0
190 188 187 0
256 188 261 0
261 188 191 0
194 192 259 0
192 258 259 0
192 189 258 0
264 194 259 0
267 262 191 0
190 267 191 0
195 267 190 0
191 262 261 0
194 193 192 0
265 199 197 0
265 197 193 0
264 265 193 0
194 264 193 0
270 199 265 0
275 268 196 0
275 196 203 0
195 196 267 0
267 196 268 0
199 198 197 0
270 271 199 0
271 198 199 0
271 200 198 0
200 273 201 0
271 273 200 0
201 274 202 0
273 274 201 0
202 276 204 0
274 276 202 0
203 204 275 0
275 204 276 0
278 284 206 0
208 279 206 0
206 279 278 0
209 281 208 0
208 281 279 0
209 286 281 0
285 292 213 0
285 213 284 0
284 213 206 0
213 211 206 0
211 205 206 0
206 205 207 0
206 207 208 0
208 207 214 0
216 208 214 0
209 208 216 0
286 209 287 0
209 217 287 0
209 216 217 0
218 289 217 0
217 289 287 0
218 294 289 0
293 296 210 0
210 296 219 0
212 213 292 0
293 212 292 0
210 212 293 0
213 212 211 0
215 216 214 0
216 215 221 0
222 216 221 0
217 216 222 0
217 223 218 0
217 222 223 0
294 218 298 0
298 218 223 0
297 301 220 0
220 301 224 0
220 219 296 0
220 296 297 0
226 228 222 0
226 222 221 0
299 223 303 0
223 228 303 0
223 222 228 0
223 299 298 0
230 229 225 0
307 230 225 0
224 307 225 0
301 307 224 0
227 228 226 0
232 304 231 0
231 304 227 0
304 303 227 0
303 228 227 0
232 309 304 0
308 311 230 0
311 229 230 0
311 233 229 0
308 230 307 0
234 236 232 0
234 232 231 0
309 232 313 0
313 232 236 0
311 237 233 0
316 237 311 0
239 241 235 0
236 234 235 0
241 236 235 0
242 236 241 0
313 236 317 0
317 236 242 0
244 243 238 0
319 244 238 0
237 319 238 0
316 319 237 0
240 241 239 0
241 240 245 0
246 241 245 0
242 241 246 0
317 242 320 0
320 242 246 0
248 247 244 0
244 247 243 0
244 319 323 0
244 323 248 0
324 321 246 0
245 324 246 0
249 324 245 0
246 321 320 0
251 250 248 0
248 250 247 0
248 323 327 0
248 327 251 0
252 324 249 0
252 328 324 0
255 254 251 0
251 254 250 0
251 327 330 0
251 330 255 0
256 257 253 0
257 332 253 0
332 252 253 0
332 328 252 0
260 258 255 0
255 258 254 0
255 330 334 0
255 334 260 0
261 263 257 0
261 257 256 0
332 257 337 0
337 257 263 0
260 259 258 0
335 266 264 0
335 264 259 0
334 335 259 0
260 334 259 0
339 266 335 0
267 269 262 0
269 342 262 0
262 342 261 0
342 338 261 0
338 263 261 0
263 338 337 0
266 265 264 0
340 272 270 0
340 270 265 0
339 340 265 0
266 339 265 0
344 272 340 0
275 277 268 0
277 349 268 0
268 349 267 0
349 343 267 0
343 269 267 0
269 343 342 0
272 271 270 0
344 345 272 0
345 271 272 0
345 273 271 0
273 347 274 0
345 347 273 0
274 348 276 0
347 348 274 0
275 276 277 0
276 350 277 0
276 348 350 0
277 350 349 0
351 355 280 0
282 352 280 0
280 352 351 0
282 358 352 0
353 359 283 0
283 362 353 0
356 365 278 0
278 365 284 0
279 280 355 0
356 279 355 0
278 279 356 0
280 279 281 0
280 281 282 0
288 360 286 0
286 360 281 0
360 358 281 0
358 282 281 0
360 288 359 0
288 283 359 0
288 290 283 0
362 283 363 0
283 291 363 0
283 290 291 0
291 368 363 0
366 370 285 0
285 370 292 0
285 284 365 0
285 365 366 0
287 288 286 0
288 287 289 0
288 289 290 0
290 289 294 0
295 290 294 0
291 290 295 0
368 291 373 0
373 291 295 0
371 375 293 0
293 375 296 0
293 292 370 0
293 370 371 0
298 300 295 0
298 295 294 0
373 295 377 0
377 295 300 0
302 301 297 0
379 302 297 0
296 379 297 0
375 379 296 0
303 305 299 0
300 298 299 0
305 300 299 0
306 300 305 0
377 300 382 0
382 300 306 0
380 384 302 0
384 301 302 0
384 307 301 0
380 302 379 0
304 305 303 0
305 304 309 0
310 305 309 0
306 305 310 0
382 306 386 0
386 306 310 0
312 311 308 0
389 312 308 0
307 389 308 0
384 389 307 0
313 314 310 0
313 310 309 0
386 310 387 0
310 315 387 0
310 314 315 0
315 391 387 0
390 394 312 0
394 311 312 0
394 316 311 0
390 312 389 0
317 318 314 0
317 314 313 0
392 315 396 0
315 318 396 0
315 314 318 0
315 392 391 0
394 319 316 0
398 319 394 0
320 322 318 0
320 318 317 0
396 318 400 0
400 318 322 0
398 323 319 0
402 323 398 0
324 325 321 0
322 320 321 0
325 322 321 0
326 322 325 0
400 322 404 0
404 322 326 0
402 327 323 0
407 327 402 0
328 329 325 0
328 325 324 0
405 326 410 0
326 329 410 0
326 325 329 0
326 405 404 0
331 330 408 0
330 407 408 0
330 327 407 0
412 331 408 0
332 333 329 0
332 329 328 0
410 329 414 0
414 329 333 0
336 334 331 0
331 334 330 0
331 412 416 0
331 416 336 0
419 415 333 0
332 419 333 0
337 419 332 0
333 415 414 0
336 335 334 0
417 341 339 0
417 339 335 0
416 417 335 0
336 416 335 0
421 341 417 0
424 420 338 0
424 338 342 0
337 338 419 0
419 338 420 0
341 340 339 0
422 346 344 0
422 344 340 0
421 422 340 0
341 421 340 0
427 346 422 0
431 425 343 0
431 343 349 0
342 343 424 0
424 343 425 0
346 345 344 0
427 428 346 0
428 345 346 0
428 347 345 0
347 430 348 0
428 430 347 0
348 432 350 0
430 432 348 0
349 350 431 0
431 350 432 0
434 436 354 0
354 438 434 0
357 355 351 0
357 351 440 0
351 435 440 0
351 352 435 0
361 437 358 0
437 352 358 0
437 435 352 0
437 361 436 0
436 361 354 0
361 359 354 0
359 353 354 0
364 439 362 0
362 439 353 0
439 438 353 0
438 354 353 0
364 442 439 0
367 365 356 0
444 367 356 0
444 356 355 0
441 444 355 0
357 441 355 0
441 357 440 0
360 361 358 0
361 360 359 0
363 364 362 0
369 443 368 0
368 443 363 0
443 442 363 0
442 364 363 0
369 446 443 0
372 370 366 0
447 372 366 0
447 366 365 0
445 447 365 0
367 445 365 0
445 367 444 0
373 374 369 0
373 369 368 0
446 369 449 0
449 369 374 0
376 375 371 0
450 376 371 0
450 371 370 0
448 450 370 0
372 448 370 0
448 372 447 0
377 378 374 0
377 374 373 0
449 374 452 0
452 374 378 0
381 379 376 0
376 379 375 0
376 450 453 0
376 453 381 0
382 383 378 0
382 378 377 0
452 378 455 0
455 378 383 0
385 384 380 0
456 385 380 0
456 380 379 0
454 456 379 0
381 454 379 0
454 381 453 0
386 388 383 0
386 383 382 0
455 383 459 0
459 383 388 0
457 462 385 0
462 384 385 0
462 389 384 0
457 385 456 0
387 388 386 0
393 460 391 0
391 460 387 0
460 459 387 0
459 388 387 0
393 464 460 0
395 394 390 0
466 395 390 0
389 466 390 0
462 466 389 0
396 397 392 0
397 468 392 0
392 468 391 0
468 465 391 0
465 393 391 0
393 465 464 0
399 398 395 0
395 398 394 0
395 466 470 0
395 470 399 0
400 401 397 0
400 397 396 0
468 397 472 0
472 397 401 0
403 402 399 0
399 402 398 0
399 470 473 0
399 473 403 0
404 406 401 0
404 401 400 0
472 401 475 0
475 401 406 0
409 407 403 0
403 407 402 0
403 473 477 0
403 477 409 0
410 411 405 0
411 480 405 0
405 480 404 0
480 476 404 0
476 406 404 0
406 476 475 0
409 408 407 0
478 413 412 0
478 412 408 0
477 478 408 0
409 477 408 0
482 413 478 0
484 481 411 0
410 484 411 0
414 484 410 0
411 481 480 0
418 416 413 0
413 416 412 0
413 482 487 0
413 487 418 0
490 485 415 0
490 415 419 0
414 415 484 0
484 415 485 0
418 417 416 0
488 423 421 0
488 421 417 0
487 488 417 0
418 487 417 0
492 423 488 0
424 426 420 0
426 495 420 0
495 419 420 0
495 490 419 0
423 422 421 0
493 429 427 0
493 427 422 0
492 493 422 0
423 492 422 0
497 429 493 0
431 433 425 0
433 501 425 0
425 501 424 0
501 496 424 0
496 426 424 0
426 496 495 0
429 428 427 0
497 498 429 0
498 428 429 0
498 430 428 0
430 500 432 0
498 500 430 0
431 432 433 0
432 502 433 0
432 500 502 0
433 502 501 0
503 505 434 0
434 505 436 0
434 438 503 0
503 438 507 0
504 510 435 0
435 510 440 0
506 435 437 0
506 504 435 0
437 436 505 0
437 505 506 0
509 507 438 0
509 438 439 0
439 442 509 0
509 442 513 0
511 515 441 0
441 515 444 0
441 440 510 0
441 510 511 0
514 513 442 0
514 442 443 0
443 446 514 0
514 446 518 0
516 519 445 0
445 519 447 0
445 444 515 0
445 515 516 0
449 518 446 0
449 521 518 0
451 450 448 0
523 451 448 0
447 523 448 0
519 523 447 0
452 521 449 0
452 525 521 0
524 527 451 0
527 450 451 0
527 453 450 0
524 451 523 0
455 525 452 0
455 529 525 0
458 456 454 0
531 458 454 0
453 531 454 0
527 531 453 0
459 461 530 0
529 459 530 0
455 459 529 0
461 533 530 0
463 462 457 0
534 463 457 0
534 457 456 0
532 534 456 0
458 532 456 0
532 458 531 0
460 461 459 0
460 464 461 0
464 533 461 0
464 536 533 0
467 466 463 0
463 466 462 0
463 534 537 0
463 537 467 0
468 469 465 0
469 539 465 0
539 464 465 0
539 536 464 0
471 470 467 0
467 470 466 0
467 537 541 0
467 541 471 0
543 540 469 0
468 543 469 0
472 543 468 0
469 540 539 0
474 473 471 0
471 473 470 0
471 541 545 0
471 545 474 0
475 543 472 0
475 547 543 0
479 477 474 0
474 477 473 0
474 545 550 0
474 550 479 0
553 548 476 0
553 476 480 0
475 476 547 0
547 476 548 0
479 478 477 0
551 483 482 0
551 482 478 0
550 551 478 0
479 550 478 0
555 483 551 0
484 486 481 0
486 557 481 0
557 480 481 0
557 553 480 0
489 487 483 0
483 487 482 0
483 555 560 0
483 560 489 0
490 491 485 0
491 564 485 0
485 564 484 0
564 558 484 0
558 486 484 0
486 558 557 0
489 488 487 0
561 494 492 0
561 492 488 0
560 561 488 0
489 560 488 0
567 494 561 0
570 565 491 0
490 570 491 0
495 570 490 0
491 565 564 0
494 493 492 0
568 499 497 0
568 497 493 0
567 568 493 0
494 567 493 0
572 499 568 0
575 571 496 0
575 496 501 0
495 496 570 0
570 496 571 0
499 498 497 0
572 573 499 0
573 498 499 0
573 500 498 0
500 576 502 0
573 576 500 0
501 502 575 0
575 502 576 0
508 505 503 0
507 508 503 0
512 510 504 0
512 504 581 0
504 578 581 0
504 506 578 0
506 505 508 0
579 506 508 0
578 506 579 0
579 508 507 0
509 579 507 0
580 579 509 0
509 513 580 0
580 513 585 0
517 515 511 0
587 517 511 0
587 511 510 0
582 587 510 0
512 582 510 0
582 512 581 0
586 585 513 0
586 513 514 0
514 518 586 0
586 518 590 0
520 519 516 0
592 520 516 0
592 516 515 0
588 592 515 0
517 588 515 0
588 517 587 0
521 522 591 0
590 521 591 0
518 521 590 0
522 595 591 0
593 596 520 0
596 519 520 0
596 523 519 0
593 520 592 0
525 526 522 0
525 522 521 0
595 522 598 0
598 522 526 0
528 527 524 0
600 528 524 0
523 600 524 0
596 600 523 0
603 599 526 0
525 603 526 0
529 603 525 0
526 599 598 0
601 606 528 0
606 527 528 0
606 531 527 0
601 528 600 0
604 603 529 0
604 529 530 0
530 533 604 0
604 533 608 0
535 534 532 0
610 535 532 0
531 610 532 0
606 610 531 0
536 608 533 0
536 612 608 0
538 537 535 0
535 537 534 0
535 610 613 0
535 613 538 0
539 612 536 0
539 615 612 0
542 541 538 0
538 541 537 0
538 613 616 0
538 616 542 0
543 544 540 0
544 618 540 0
618 539 540 0
618 615 539 0
546 545 542 0
542 545 541 0
542 616 619 0
542 619 546 0
547 549 544 0
547 544 543 0
618 544 621 0
621 544 549 0
552 550 546 0
546 550 545 0
546 619 623 0
546 623 552 0
553 554 548 0
554 627 548 0
548 627 547 0
627 622 547 0
622 549 547 0
549 622 621 0
552 551 550 0
624 556 555 0
624 555 551 0
623 624 551 0
552 623 551 0
629 556 624 0
557 559 554 0
557 554 553 0
627 554 632 0
632 554 559 0
562 560 556 0
556 560 555 0
556 629 630 0
563 556 630 0
562 556 563 0
634 563 630 0
564 566 558 0
566 638 558 0
