#!ascii version of /Users/gilles/git/nukkies/notebooks/data/NM3T_STh_L.asc
508 1012
7.270468  -56.672092  -33.809395  0
6.966939  -56.641869  -33.773441  0
8.764698  -55.474186  -34.040855  0
8.232669  -55.473469  -34.007782  0
8.769173  -55.971886  -34.047100  0
8.216961  -55.961639  -33.993729  0
7.666927  -55.997833  -33.894371  0
7.282579  -56.449444  -33.698322  0
6.961507  -56.475292  -33.558357  0
8.252872  -56.458950  -34.036667  0
7.406951  -56.562164  -33.871124  0
7.667694  -56.461445  -33.907066  0
7.298621  -56.785019  -33.712894  0
6.889917  -56.613518  -33.691566  0
7.039970  -56.767651  -33.706039  0
8.288352  -56.970688  -34.073463  0
7.751909  -56.949524  -34.028305  0
7.236988  -56.953476  -33.840916  0
6.923622  -56.931744  -33.733967  0
8.787698  -57.482613  -34.068447  0
8.299096  -57.480324  -34.080975  0
7.804189  -57.468906  -34.093929  0
7.294642  -57.453526  -34.055485  0
6.846405  -57.434608  -34.015568  0
8.287645  -57.984688  -34.067783  0
7.802359  -57.983772  -34.084000  0
7.321348  -57.976078  -34.093864  0
8.282661  -58.485680  -34.062706  0
7.787409  -58.485931  -34.066807  0
7.297405  -58.486984  -34.076633  0
9.282661  -54.985680  -33.562706  0
8.780963  -55.233940  -33.808823  0
8.782661  -54.985680  -33.562706  0
8.271978  -55.229649  -33.797127  0
9.782661  -55.485680  -33.562706  0
9.031598  -55.482601  -33.808628  0
9.282661  -55.485680  -33.562706  0
8.016100  -55.480137  -33.793312  0
7.728781  -55.736420  -33.755966  0
9.033406  -55.982609  -33.811234  0
9.282661  -55.985680  -33.562706  0
8.780967  -56.226170  -33.809193  0
7.464056  -56.021133  -33.702503  0
7.255706  -56.342010  -33.517059  0
7.285079  -56.035568  -33.473488  0
7.008332  -56.412453  -33.323093  0
9.782661  -56.485680  -33.562706  0
9.282661  -56.485680  -33.562706  0
8.534307  -56.476780  -33.814701  0
8.784371  -56.483826  -33.563637  0
6.900303  -56.534981  -33.463524  0
8.538091  -56.981426  -33.818386  0
8.784203  -57.235096  -33.814445  0
8.783857  -56.984833  -33.563728  0
6.855322  -56.936092  -33.486820  0
9.033132  -57.485504  -33.813236  0
9.282661  -57.485680  -33.562706  0
8.783211  -57.735462  -33.813328  0
6.703609  -57.391846  -33.708218  0
6.863110  -57.689034  -33.821529  0
9.282661  -57.985680  -33.562706  0
8.532661  -57.985680  -33.812706  0
8.782661  -57.985680  -33.562706  0
7.083437  -57.974380  -33.840862  0
9.282661  -58.485680  -33.562706  0
8.532661  -58.485680  -33.812706  0
8.782661  -58.485680  -33.562706  0
8.282661  -58.735680  -33.812706  0
7.784369  -58.736053  -33.814018  0
7.055671  -58.488129  -33.832424  0
7.288324  -58.737518  -33.816666  0
9.282661  -54.735680  -33.312706  0
8.782661  -54.735680  -33.312706  0
9.532661  -54.985680  -33.312706  0
9.782661  -55.235680  -33.312706  0
9.782661  -54.985680  -33.062706  0
8.532661  -54.985680  -33.312706  0
8.281174  -55.234695  -33.309761  0
10.032661  -55.485680  -33.312706  0
10.282661  -55.485680  -33.062706  0
9.782661  -55.735680  -33.312706  0
8.031516  -55.484901  -33.309887  0
7.770465  -55.735615  -33.299770  0
7.271058  -55.751892  -33.287537  0
10.282661  -55.985680  -33.062706  0
9.532661  -55.985680  -33.312706  0
9.782661  -56.235680  -33.312706  0
9.782661  -55.985680  -33.062706  0
7.077357  -56.016598  -33.281021  0
7.324975  -56.001522  -33.049942  0
6.923147  -56.273441  -33.168724  0
10.032661  -56.485680  -33.312706  0
9.782661  -56.735680  -33.312706  0
9.282661  -56.735680  -33.312706  0
6.786329  -56.421360  -33.164776  0
6.902889  -56.440449  -33.013893  0
9.782661  -56.985680  -33.062706  0
9.032661  -56.985680  -33.312706  0
9.282661  -57.235680  -33.312706  0
9.282661  -56.985680  -33.062706  0
6.724409  -56.875751  -33.222187  0
6.891741  -56.899635  -33.026306  0
9.532661  -57.485680  -33.312706  0
9.782661  -57.485680  -33.062706  0
6.640755  -57.395271  -33.301674  0
6.829683  -57.693478  -33.325005  0
6.851111  -57.410587  -33.052666  0
9.532661  -57.985680  -33.312706  0
9.782661  -57.985680  -33.062706  0
7.059269  -57.977055  -33.330070  0
9.532661  -58.485680  -33.312706  0
9.782661  -58.485680  -33.062706  0
9.282661  -58.735680  -33.312706  0
8.782661  -58.735680  -33.312706  0
8.282661  -58.735680  -33.312706  0
7.782661  -58.735680  -33.312706  0
7.039087  -58.487682  -33.316498  0
7.282661  -58.735680  -33.312706  0
7.282661  -58.485680  -33.062706  0
8.782661  -58.985680  -33.062706  0
8.282661  -58.985680  -33.062706  0
10.282661  -54.485680  -32.562706  0
9.782661  -54.735680  -32.812706  0
9.782661  -54.485680  -32.562706  0
9.282661  -54.735680  -32.812706  0
8.782661  -54.735680  -32.812706  0
10.782661  -54.985680  -32.562706  0
10.032661  -54.985680  -32.812706  0
10.282661  -55.235680  -32.812706  0
10.282661  -54.985680  -32.562706  0
8.532661  -54.985680  -32.812706  0
8.282661  -55.235680  -32.812706  0
10.532661  -55.485680  -32.812706  0
10.782661  -55.485680  -32.562706  0
8.033144  -55.485962  -32.813179  0
7.787512  -55.739910  -32.813221  0
10.532661  -55.985680  -32.812706  0
10.782661  -55.985680  -32.562706  0
10.282661  -56.235680  -32.812706  0
7.549551  -55.989861  -32.816296  0
7.785322  -55.987263  -32.565334  0
7.338414  -56.231766  -32.796730  0
10.782661  -56.485680  -32.562706  0
10.032661  -56.485680  -32.812706  0
10.282661  -56.485680  -32.562706  0
7.783293  -56.486050  -32.563332  0
7.071634  -56.452572  -32.805191  0
7.294072  -56.482468  -32.565060  0
10.782661  -56.985680  -32.562706  0
10.032661  -56.985680  -32.812706  0
10.282661  -56.985680  -32.562706  0
7.056947  -56.948231  -32.808289  0
7.286505  -56.978645  -32.563702  0
10.782661  -57.485680  -32.562706  0
10.032661  -57.485680  -32.812706  0
10.282661  -57.485680  -32.562706  0
7.782661  -57.485680  -32.562706  0
7.047022  -57.466240  -32.816452  0
7.284378  -57.478218  -32.563332  0
10.782661  -57.985680  -32.562706  0
10.032661  -57.985680  -32.812706  0
10.282661  -57.985680  -32.562706  0
7.782661  -57.985680  -32.562706  0
7.036186  -57.985046  -32.814754  0
7.282661  -58.235680  -32.812706  0
7.282907  -57.984241  -32.563042  0
10.782661  -58.485680  -32.562706  0
10.032661  -58.485680  -32.812706  0
10.282661  -58.485680  -32.562706  0
9.782661  -58.735680  -32.812706  0
9.282661  -58.735680  -32.812706  0
7.532661  -58.485680  -32.812706  0
7.782661  -58.735680  -32.812706  0
9.032661  -58.985680  -32.812706  0
9.282661  -58.985680  -32.562706  0
8.782661  -59.235680  -32.812706  0
8.032661  -58.985680  -32.812706  0
8.282661  -59.235680  -32.812706  0
10.282661  -54.235680  -32.312706  0
9.782661  -54.235680  -32.312706  0
11.282661  -54.485680  -32.062706  0
10.532661  -54.485680  -32.312706  0
10.782661  -54.735680  -32.312706  0
10.782661  -54.485680  -32.062706  0
9.532661  -54.485680  -32.312706  0
9.282661  -54.735680  -32.312706  0
8.782661  -54.735680  -32.312706  0
11.032661  -54.985680  -32.312706  0
11.282661  -54.985680  -32.062706  0
8.532661  -54.985680  -32.312706  0
8.782661  -54.985680  -32.062706  0
8.282661  -55.235680  -32.312706  0
11.032661  -55.485680  -32.312706  0
11.282661  -55.485680  -32.062706  0
8.032661  -55.485680  -32.312706  0
8.282661  -55.485680  -32.062706  0
11.782661  -55.985680  -32.062706  0
11.032661  -55.985680  -32.312706  0
11.282661  -55.985680  -32.062706  0
8.032661  -55.985680  -32.312706  0
8.282661  -55.985680  -32.062706  0
11.782661  -56.485680  -32.062706  0
11.032661  -56.485680  -32.312706  0
11.282661  -56.485680  -32.062706  0
8.032661  -56.485680  -32.312706  0
7.782661  -56.735680  -32.312706  0
11.782661  -56.985680  -32.062706  0
11.032661  -56.985680  -32.312706  0
11.282661  -56.985680  -32.062706  0
7.532661  -56.985680  -32.312706  0
7.782661  -57.235680  -32.312706  0
7.782661  -56.985680  -32.062706  0
11.782661  -57.485680  -32.062706  0
11.032661  -57.485680  -32.312706  0
11.282661  -57.485680  -32.062706  0
8.032661  -57.485680  -32.312706  0
11.782661  -57.985680  -32.062706  0
11.032661  -57.985680  -32.312706  0
11.282661  -57.985680  -32.062706  0
8.032661  -57.985680  -32.312706  0
7.782661  -58.235680  -32.312706  0
11.032661  -58.485680  -32.312706  0
11.282661  -58.485680  -32.062706  0
10.782661  -58.735680  -32.312706  0
10.282661  -58.735680  -32.312706  0
9.782661  -58.735680  -32.312706  0
7.532661  -58.485680  -32.312706  0
7.782661  -58.735680  -32.312706  0
7.782661  -58.485680  -32.062706  0
9.532661  -58.985680  -32.312706  0
9.782661  -58.985680  -32.062706  0
9.282661  -59.235680  -32.312706  0
8.782661  -59.235680  -32.312706  0
8.032661  -58.985680  -32.312706  0
8.282661  -59.235680  -32.312706  0
8.282661  -58.985680  -32.062706  0
11.282661  -54.235680  -31.812706  0
10.782661  -54.235680  -31.812706  0
10.282661  -54.235680  -31.812706  0
9.782661  -54.235680  -31.812706  0
11.532661  -54.485680  -31.812706  0
11.782661  -54.485680  -31.562706  0
9.532661  -54.485680  -31.812706  0
9.782661  -54.485680  -31.562706  0
9.282661  -54.735680  -31.812706  0
11.532661  -54.985680  -31.812706  0
11.782661  -54.985680  -31.562706  0
9.032661  -54.985680  -31.812706  0
9.282661  -54.985680  -31.562706  0
8.782661  -55.235680  -31.812706  0
11.532661  -55.485680  -31.812706  0
11.782661  -55.735680  -31.812706  0
11.782661  -55.485680  -31.562706  0
8.532661  -55.485680  -31.812706  0
8.782661  -55.485680  -31.562706  0
12.032661  -55.985680  -31.812706  0
12.282661  -55.985680  -31.562706  0
8.532661  -55.985680  -31.812706  0
8.282661  -56.235680  -31.812706  0
12.032661  -56.485680  -31.812706  0
12.282661  -56.485680  -31.562706  0
8.032661  -56.485680  -31.812706  0
8.282661  -56.485680  -31.562706  0
12.032661  -56.985680  -31.812706  0
12.282661  -56.985680  -31.562706  0
8.032661  -56.985680  -31.812706  0
8.282661  -56.985680  -31.562706  0
12.032661  -57.485680  -31.812706  0
8.032661  -57.485680  -31.812706  0
8.282661  -57.485680  -31.562706  0
12.032661  -57.985680  -31.812706  0
11.782661  -58.235680  -31.812706  0
8.032661  -57.985680  -31.812706  0
8.282661  -57.985680  -31.562706  0
11.532661  -58.485680  -31.812706  0
11.782661  -58.485680  -31.562706  0
11.282661  -58.735680  -31.812706  0
10.782661  -58.735680  -31.812706  0
10.282661  -58.735680  -31.812706  0
8.032661  -58.485680  -31.812706  0
8.282661  -58.735680  -31.812706  0
8.282661  -58.485680  -31.562706  0
10.032661  -58.985680  -31.812706  0
10.282661  -58.985680  -31.562706  0
9.782661  -59.235680  -31.812706  0
9.282661  -59.235680  -31.812706  0
8.532661  -58.985680  -31.812706  0
8.782661  -59.235680  -31.812706  0
8.782661  -58.985680  -31.562706  0
11.782661  -54.235680  -31.312706  0
11.282661  -54.235680  -31.312706  0
10.782661  -54.235680  -31.312706  0
10.282661  -54.235680  -31.312706  0
12.032661  -54.485680  -31.312706  0
10.032661  -54.485680  -31.312706  0
10.282661  -54.485680  -31.062706  0
9.782661  -54.735680  -31.312706  0
12.032661  -54.985680  -31.312706  0
12.282661  -54.985680  -31.062706  0
9.532661  -54.985680  -31.312706  0
9.782661  -54.985680  -31.062706  0
9.282661  -55.235680  -31.312706  0
12.032661  -55.485680  -31.312706  0
12.282661  -55.735680  -31.312706  0
12.282661  -55.485680  -31.062706  0
9.032661  -55.485680  -31.312706  0
9.282661  -55.485680  -31.062706  0
8.782661  -55.735680  -31.312706  0
12.532661  -55.985680  -31.312706  0
9.282661  -55.985680  -31.062706  0
8.532661  -55.985680  -31.312706  0
8.782661  -55.985680  -31.062706  0
12.532661  -56.485680  -31.312706  0
9.282661  -56.485680  -31.062706  0
8.532661  -56.485680  -31.312706  0
8.782661  -56.485680  -31.062706  0
12.532661  -56.985680  -31.312706  0
12.282661  -57.235680  -31.312706  0
8.532661  -56.985680  -31.312706  0
8.782661  -56.985680  -31.062706  0
12.032661  -57.485680  -31.312706  0
12.282661  -57.485680  -31.062706  0
8.532661  -57.485680  -31.312706  0
8.782661  -57.485680  -31.062706  0
12.032661  -57.985680  -31.312706  0
8.532661  -57.985680  -31.312706  0
8.782661  -57.985680  -31.062706  0
12.032661  -58.485680  -31.312706  0
11.782661  -58.735680  -31.312706  0
11.282661  -58.735680  -31.312706  0
10.782661  -58.735680  -31.312706  0
8.532661  -58.485680  -31.312706  0
8.782661  -58.735680  -31.312706  0
8.782661  -58.485680  -31.062706  0
10.532661  -58.985680  -31.312706  0
10.782661  -58.985680  -31.062706  0
10.282661  -59.235680  -31.312706  0
9.782661  -59.235680  -31.312706  0
9.032661  -58.985680  -31.312706  0
9.282661  -59.235680  -31.312706  0
9.282661  -58.985680  -31.062706  0
11.782661  -54.235680  -30.812706  0
11.282661  -54.235680  -30.812706  0
10.782661  -54.235680  -30.812706  0
12.032661  -54.485680  -30.812706  0
12.282661  -54.735680  -30.812706  0
11.782661  -54.485680  -30.562706  0
11.282661  -54.485680  -30.562706  0
10.532661  -54.485680  -30.812706  0
10.782661  -54.485680  -30.562706  0
10.282661  -54.735680  -30.812706  0
12.532661  -54.985680  -30.812706  0
10.032661  -54.985680  -30.812706  0
10.282661  -54.985680  -30.562706  0
9.782661  -55.235680  -30.812706  0
12.532661  -55.485680  -30.812706  0
9.532661  -55.485680  -30.812706  0
9.782661  -55.485680  -30.562706  0
12.532661  -55.985680  -30.812706  0
9.532661  -55.985680  -30.812706  0
9.782661  -55.985680  -30.562706  0
12.532661  -56.485680  -30.812706  0
9.532661  -56.485680  -30.812706  0
9.282661  -56.735680  -30.812706  0
12.532661  -56.985680  -30.812706  0
9.032661  -56.985680  -30.812706  0
9.282661  -56.985680  -30.562706  0
12.532661  -57.485680  -30.812706  0
12.282661  -57.735680  -30.812706  0
9.032661  -57.485680  -30.812706  0
9.282661  -57.485680  -30.562706  0
12.032661  -57.985680  -30.812706  0
9.032661  -57.985680  -30.812706  0
9.282661  -57.985680  -30.562706  0
12.032661  -58.485680  -30.812706  0
11.782661  -58.735680  -30.812706  0
11.282661  -58.735680  -30.812706  0
9.032661  -58.485680  -30.812706  0
9.282661  -58.735680  -30.812706  0
9.282661  -58.485680  -30.562706  0
11.032661  -58.985680  -30.812706  0
10.782661  -59.235680  -30.812706  0
10.282661  -59.235680  -30.812706  0
9.532661  -58.985680  -30.812706  0
9.782661  -59.235680  -30.812706  0
12.282661  -54.735680  -30.312706  0
11.782661  -54.735680  -30.312706  0
11.282661  -54.735680  -30.312706  0
10.782661  -54.735680  -30.312706  0
12.532661  -54.985680  -30.312706  0
11.282661  -54.985680  -30.062706  0
10.532661  -54.985680  -30.312706  0
10.782661  -54.985680  -30.062706  0
10.282661  -55.235680  -30.312706  0
12.532661  -55.485680  -30.312706  0
10.032661  -55.485680  -30.312706  0
10.282661  -55.485680  -30.062706  0
12.532661  -55.985680  -30.312706  0
10.032661  -55.985680  -30.312706  0
10.282661  -55.985680  -30.062706  0
9.782661  -56.235680  -30.312706  0
12.532661  -56.485680  -30.312706  0
9.532661  -56.485680  -30.312706  0
9.782661  -56.485680  -30.062706  0
12.532661  -56.985680  -30.312706  0
12.282661  -56.985680  -30.062706  0
9.532661  -56.985680  -30.312706  0
9.782661  -56.985680  -30.062706  0
12.532661  -57.485680  -30.312706  0
12.282661  -57.735680  -30.312706  0
12.282661  -57.485680  -30.062706  0
9.532661  -57.485680  -30.312706  0
9.782661  -57.485680  -30.062706  0
12.032661  -57.985680  -30.312706  0
9.532661  -57.985680  -30.312706  0
9.782661  -57.985680  -30.062706  0
12.032661  -58.485680  -30.312706  0
11.782661  -58.735680  -30.312706  0
11.282661  -58.735680  -30.312706  0
10.282661  -58.485680  -30.062706  0
9.532661  -58.485680  -30.312706  0
9.782661  -58.485680  -30.062706  0
11.032661  -58.985680  -30.312706  0
10.782661  -59.235680  -30.312706  0
10.782661  -58.985680  -30.062706  0
10.282661  -59.235680  -30.312706  0
10.282661  -58.985680  -30.062706  0
9.532661  -58.985680  -30.312706  0
9.782661  -59.235680  -30.312706  0
9.782661  -58.985680  -30.062706  0
12.282661  -54.735680  -29.812706  0
11.782661  -54.735680  -29.812706  0
12.532661  -54.985680  -29.812706  0
12.282661  -54.985680  -29.562706  0
11.532661  -54.985680  -29.812706  0
11.782661  -54.985680  -29.562706  0
11.282661  -55.235680  -29.812706  0
10.782661  -55.235680  -29.812706  0
12.532661  -55.485680  -29.812706  0
12.282661  -55.485680  -29.562706  0
10.532661  -55.485680  -29.812706  0
10.782661  -55.485680  -29.562706  0
12.532661  -55.985680  -29.812706  0
12.282661  -55.985680  -29.562706  0
10.532661  -55.985680  -29.812706  0
10.282661  -56.235680  -29.812706  0
12.532661  -56.485680  -29.812706  0
12.282661  -56.735680  -29.812706  0
12.282661  -56.485680  -29.562706  0
10.032661  -56.485680  -29.812706  0
12.032661  -56.985680  -29.812706  0
10.032661  -56.985680  -29.812706  0
10.282661  -56.985680  -29.562706  0
12.032661  -57.485680  -29.812706  0
10.782661  -57.485680  -29.562706  0
10.032661  -57.485680  -29.812706  0
10.282661  -57.485680  -29.562706  0
12.032661  -57.985680  -29.812706  0
10.032661  -57.985680  -29.812706  0
10.282661  -58.235680  -29.812706  0
10.282661  -57.985680  -29.562706  0
12.032661  -58.485680  -29.812706  0
11.782661  -58.735680  -29.812706  0
11.782661  -58.485680  -29.562706  0
11.282661  -58.735680  -29.812706  0
11.282661  -58.485680  -29.562706  0
10.532661  -58.485680  -29.812706  0
10.782661  -58.735680  -29.812706  0
10.782661  -58.485680  -29.562706  0
11.782661  -55.235680  -29.312706  0
11.282661  -55.235680  -29.312706  0
12.032661  -55.485680  -29.312706  0
11.782661  -55.485680  -29.062706  0
11.032661  -55.485680  -29.312706  0
11.282661  -55.485680  -29.062706  0
10.782661  -55.735680  -29.312706  0
12.032661  -55.985680  -29.312706  0
11.782661  -55.985680  -29.062706  0
11.282661  -55.985680  -29.062706  0
10.532661  -55.985680  -29.312706  0
10.782661  -55.985680  -29.062706  0
10.282661  -56.235680  -29.312706  0
12.032661  -56.485680  -29.312706  0
11.782661  -56.485680  -29.062706  0
11.282661  -56.485680  -29.062706  0
10.782661  -56.485680  -29.062706  0
10.032661  -56.485680  -29.312706  0
10.282661  -56.735680  -29.312706  0
10.282661  -56.485680  -29.062706  0
12.032661  -56.985680  -29.312706  0
11.782661  -56.985680  -29.062706  0
11.282661  -56.985680  -29.062706  0
10.532661  -56.985680  -29.312706  0
10.782661  -57.235680  -29.312706  0
10.782661  -56.985680  -29.062706  0
12.032661  -57.485680  -29.312706  0
11.782661  -57.485680  -29.062706  0
11.032661  -57.485680  -29.312706  0
11.282661  -57.485680  -29.062706  0
10.782661  -57.735680  -29.312706  0
12.032661  -57.985680  -29.312706  0
11.782661  -58.235680  -29.312706  0
11.782661  -57.985680  -29.062706  0
11.282661  -58.235680  -29.312706  0
11.282661  -57.985680  -29.062706  0
10.532661  -57.985680  -29.312706  0
10.782661  -58.235680  -29.312706  0
10.782661  -57.985680  -29.062706  0
7 10 0 0
1 8 0 0
0 8 7 0
1 13 8 0
10 12 0 0
0 12 1 0
1 12 14 0
1 14 13 0
31 35 2 0
3 33 2 0
2 33 31 0
3 37 33 0
2 35 4 0
4 35 39 0
2 5 3 0
2 4 5 0
37 3 38 0
3 6 38 0
3 5 6 0
6 42 38 0
39 41 4 0
48 9 41 0
9 4 41 0
9 5 4 0
5 11 6 0
5 9 11 0
7 43 10 0
43 6 10 0
6 11 10 0
6 43 42 0
45 7 8 0
45 43 7 0
8 13 45 0
45 13 50 0
9 48 15 0
15 48 51 0
9 16 11 0
9 15 16 0
17 12 10 0
11 17 10 0
16 17 11 0
18 14 12 0
18 12 17 0
18 54 14 0
54 13 14 0
54 50 13 0
52 55 19 0
52 19 51 0
19 15 51 0
19 20 15 0
15 21 16 0
15 20 21 0
16 22 17 0
16 21 22 0
17 23 18 0
17 22 23 0
54 18 58 0
58 18 23 0
55 57 19 0
61 24 57 0
24 19 57 0
24 20 19 0
20 25 21 0
20 24 25 0
21 26 22 0
21 25 26 0
59 23 63 0
23 26 63 0
23 22 26 0
23 59 58 0
24 61 27 0
27 61 65 0
24 28 25 0
24 27 28 0
25 29 26 0
25 28 29 0
63 26 69 0
69 26 29 0
65 67 27 0
27 67 28 0
28 67 68 0
28 68 29 0
29 68 70 0
29 70 69 0
71 73 30 0
32 72 30 0
30 72 71 0
32 76 72 0
74 78 34 0
74 34 73 0
34 30 73 0
34 36 30 0
36 35 31 0
32 36 31 0
30 36 32 0
77 76 32 0
31 77 32 0
33 77 31 0
33 37 77 0
77 37 81 0
78 80 34 0
85 40 80 0
40 34 80 0
40 36 34 0
40 39 35 0
40 35 36 0
82 81 37 0
82 37 38 0
44 83 42 0
83 38 42 0
83 82 38 0
44 88 83 0
86 91 46 0
86 46 85 0
46 40 85 0
46 47 40 0
49 41 39 0
40 49 39 0
47 49 40 0
49 48 41 0
43 44 42 0
90 88 44 0
43 90 44 0
45 90 43 0
45 50 90 0
90 50 94 0
91 92 46 0
46 92 47 0
47 92 93 0
97 53 93 0
53 47 93 0
53 49 47 0
53 51 48 0
53 48 49 0
54 94 50 0
54 100 94 0
98 102 56 0
98 56 97 0
97 56 53 0
56 55 53 0
55 52 53 0
53 52 51 0
58 100 54 0
58 104 100 0
56 102 60 0
60 102 107 0
62 57 55 0
56 62 55 0
60 62 56 0
62 61 57 0
109 105 59 0
109 59 63 0
58 59 104 0
104 59 105 0
60 107 64 0
64 107 110 0
60 66 62 0
60 64 66 0
66 65 61 0
66 61 62 0
69 109 63 0
69 116 109 0
110 112 64 0
64 112 66 0
66 112 113 0
66 113 65 0
113 67 65 0
113 114 67 0
67 115 68 0
114 115 67 0
68 117 70 0
115 117 68 0
69 70 116 0
116 70 117 0
122 127 75 0
73 71 75 0
71 122 75 0
71 124 122 0
125 71 72 0
125 124 71 0
72 76 125 0
125 76 130 0
128 132 79 0
128 79 127 0
127 79 75 0
79 78 75 0
78 74 75 0
75 74 73 0
131 130 76 0
131 76 77 0
77 81 131 0
131 81 134 0
79 132 84 0
84 132 136 0
87 80 78 0
79 87 78 0
84 87 79 0
87 85 80 0
135 134 81 0
135 81 82 0
139 135 89 0
135 83 89 0
135 82 83 0
88 89 83 0
136 138 84 0
143 91 86 0
84 143 86 0
87 84 86 0
138 143 84 0
87 86 85 0
141 139 89 0
146 141 95 0
95 141 90 0
141 89 90 0
89 88 90 0
94 95 90 0
92 91 96 0
91 149 96 0
91 143 149 0
99 93 92 0
99 92 96 0
99 97 93 0
146 95 101 0
146 101 151 0
100 101 94 0
94 101 95 0
96 149 103 0
103 149 154 0
103 102 98 0
99 103 98 0
96 103 99 0
99 98 97 0
151 101 106 0
151 106 157 0
104 106 100 0
100 106 101 0
103 154 108 0
108 154 160 0
108 107 102 0
108 102 103 0
157 106 105 0
109 157 105 0
163 157 109 0
105 106 104 0
108 160 111 0
111 160 167 0
111 110 107 0
111 107 108 0
171 164 118 0
164 163 118 0
163 116 118 0
163 109 116 0
167 169 111 0
111 169 110 0
169 112 110 0
169 170 112 0
170 173 119 0
113 170 119 0
112 170 113 0
120 114 113 0
120 113 119 0
114 120 176 0
172 114 176 0
115 114 172 0
118 117 171 0
117 172 171 0
117 115 172 0
117 118 116 0
173 175 119 0
119 175 120 0
120 175 177 0
120 177 176 0
178 181 121 0
123 179 121 0
121 179 178 0
123 184 179 0
182 187 126 0
182 126 181 0
126 121 181 0
126 129 121 0
129 127 122 0
123 129 122 0
121 129 123 0
185 184 123 0
122 185 123 0
124 185 122 0
186 124 125 0
186 185 124 0
125 130 186 0
186 130 189 0
126 187 133 0
133 187 192 0
133 132 128 0
129 133 128 0
126 133 129 0
129 128 127 0
191 189 130 0
191 130 131 0
131 134 191 0
191 134 194 0
133 192 137 0
137 192 197 0
137 136 132 0
137 132 133 0
134 135 140 0
199 134 140 0
194 134 199 0
139 140 135 0
137 197 142 0
142 197 202 0
144 138 136 0
137 144 136 0
142 144 137 0
144 143 138 0
199 140 145 0
199 145 204 0
141 147 139 0
147 140 139 0
147 145 140 0
146 147 141 0
142 202 148 0
148 202 207 0
142 150 144 0
142 148 150 0
150 149 143 0
150 143 144 0
205 204 145 0
152 209 205 0
145 152 205 0
147 152 145 0
151 152 146 0
146 152 147 0
148 207 153 0
153 207 213 0
148 155 150 0
148 153 155 0
155 154 149 0
155 149 150 0
215 210 156 0
156 210 209 0
152 156 209 0
158 156 152 0
157 158 151 0
151 158 152 0
153 213 159 0
159 213 217 0
153 161 155 0
153 159 161 0
161 160 154 0
161 154 155 0
215 156 162 0
215 162 219 0
165 156 158 0
162 156 165 0
163 165 157 0
157 165 158 0
159 217 166 0
166 217 221 0
159 168 161 0
159 166 168 0
168 167 160 0
168 160 161 0
220 219 162 0
171 226 164 0
226 162 164 0
162 165 164 0
226 220 162 0
164 165 163 0
221 223 166 0
166 223 168 0
168 223 224 0
168 224 167 0
224 169 167 0
224 225 169 0
225 229 174 0
170 225 174 0
169 225 170 0
174 173 170 0
233 227 172 0
233 172 176 0
171 172 226 0
226 172 227 0
229 231 174 0
174 231 173 0
231 175 173 0
231 232 175 0
175 234 177 0
232 234 175 0
176 177 233 0
233 177 234 0
236 240 180 0
183 237 180 0
180 237 236 0
181 178 183 0
178 237 183 0
178 238 237 0
239 178 179 0
239 238 178 0
179 184 239 0
239 184 242 0
180 240 188 0
188 240 245 0
188 187 182 0
183 188 182 0
180 188 183 0
183 182 181 0
244 242 184 0
244 184 185 0
247 244 190 0
244 186 190 0
244 185 186 0
189 190 186 0
188 245 193 0
193 245 250 0
193 192 187 0
193 187 188 0
249 247 190 0
253 249 195 0
195 249 191 0
249 190 191 0
190 189 191 0
194 195 191 0
251 255 196 0
251 196 250 0
196 193 250 0
196 198 193 0
198 197 192 0
198 192 193 0
253 195 200 0
253 200 257 0
199 200 194 0
194 200 195 0
196 255 201 0
201 255 259 0
196 203 198 0
196 201 203 0
203 202 197 0
203 197 198 0
258 257 200 0
200 199 258 0
199 261 258 0
199 204 261 0
201 259 206 0
206 259 263 0
201 208 203 0
201 206 208 0
208 207 202 0
208 202 203 0
204 205 211 0
265 204 211 0
261 204 265 0
209 211 205 0
206 263 212 0
212 263 267 0
206 214 208 0
206 212 214 0
214 213 207 0
214 207 208 0
265 211 210 0
215 265 210 0
268 265 215 0
210 211 209 0
212 267 216 0
216 267 270 0
212 218 214 0
212 216 218 0
218 217 213 0
218 213 214 0
219 268 215 0
219 272 268 0
270 271 216 0
274 222 271 0
222 216 271 0
222 218 216 0
222 221 217 0
222 217 218 0
219 220 228 0
279 219 228 0
272 219 279 0
226 228 220 0
274 276 222 0
222 276 221 0
276 223 221 0
276 277 223 0
223 278 224 0
277 278 223 0
278 282 230 0
225 278 230 0
224 278 225 0
230 229 225 0
286 280 235 0
235 280 279 0
235 279 228 0
233 235 228 0
227 233 228 0
227 228 226 0
282 284 230 0
230 284 229 0
284 231 229 0
284 285 231 0
231 287 232 0
285 287 231 0
235 234 286 0
234 287 286 0
234 232 287 0
234 235 233 0
289 293 241 0
240 236 241 0
236 289 241 0
236 290 289 0
291 236 237 0
291 290 236 0
292 237 238 0
292 291 237 0
294 292 243 0
292 239 243 0
292 238 239 0
242 243 239 0
241 293 246 0
246 293 297 0
246 245 240 0
246 240 241 0
296 294 243 0
299 296 248 0
248 296 244 0
296 243 244 0
243 242 244 0
247 248 244 0
246 297 252 0
252 297 302 0
252 250 245 0
252 245 246 0
301 299 248 0
305 301 254 0
254 301 249 0
301 248 249 0
248 247 249 0
253 254 249 0
303 308 256 0
303 256 302 0
302 256 252 0
256 255 252 0
255 251 252 0
252 251 250 0
307 305 254 0
254 253 307 0
253 310 307 0
253 257 310 0
256 308 260 0
260 308 312 0
260 259 255 0
260 255 256 0
257 258 262 0
314 257 262 0
310 257 314 0
261 262 258 0
260 312 264 0
264 312 316 0
264 263 259 0
264 259 260 0
314 262 266 0
314 266 318 0
265 266 261 0
261 266 262 0
316 317 264 0
263 264 317 0
320 263 317 0
267 263 320 0
318 266 269 0
318 269 322 0
268 269 265 0
265 269 266 0
320 270 267 0
324 270 320 0
322 269 273 0
322 273 325 0
272 273 268 0
268 273 269 0
271 270 275 0
270 327 275 0
270 324 327 0
275 274 271 0
325 273 281 0
325 281 331 0
279 281 272 0
272 281 273 0
327 328 275 0
275 328 274 0
328 276 274 0
328 329 276 0
276 330 277 0
329 330 276 0
330 334 283 0
278 330 283 0
277 330 278 0
283 282 278 0
338 332 288 0
288 332 331 0
288 331 281 0
286 288 281 0
280 286 281 0
280 281 279 0
334 336 283 0
283 336 282 0
336 284 282 0
336 337 284 0
284 339 285 0
337 339 284 0
288 287 338 0
287 339 338 0
287 285 339 0
287 288 286 0
341 344 289 0
289 344 293 0
342 289 290 0
342 341 289 0
343 290 291 0
343 342 290 0
348 343 295 0
343 292 295 0
343 291 292 0
294 295 292 0
345 351 298 0
344 345 298 0
297 344 298 0
293 344 297 0
350 348 295 0
352 350 300 0
300 350 296 0
350 295 296 0
295 294 296 0
299 300 296 0
298 351 304 0
304 351 355 0
304 302 297 0
304 297 298 0
354 352 300 0
356 354 306 0
306 354 301 0
354 300 301 0
300 299 301 0
305 306 301 0
304 355 303 0
355 308 303 0
355 358 308 0
304 303 302 0
356 306 309 0
356 309 359 0
307 311 305 0
311 306 305 0
311 309 306 0
310 311 307 0
358 312 308 0
361 312 358 0
359 309 313 0
359 313 362 0
315 309 311 0
313 309 315 0
314 315 310 0
310 315 311 0
361 316 312 0
364 316 361 0
363 362 313 0
319 365 363 0
313 319 363 0
315 319 313 0
318 319 314 0
314 319 315 0
317 316 321 0
316 367 321 0
316 364 367 0
321 320 317 0
365 319 323 0
365 323 369 0
322 323 318 0
318 323 319 0
367 368 321 0
320 321 368 0
371 320 368 0
324 320 371 0
369 323 326 0
369 326 372 0
325 326 322 0
322 326 323 0
371 327 324 0
374 327 371 0
372 326 333 0
372 333 377 0
331 333 325 0
325 333 326 0
374 375 327 0
327 375 328 0
328 376 329 0
375 376 328 0
376 380 335 0
330 376 335 0
329 376 330 0
335 334 330 0
383 378 340 0
340 378 377 0
340 377 333 0
338 340 333 0
332 338 333 0
332 333 331 0
380 381 335 0
335 381 334 0
381 336 334 0
381 382 336 0
336 384 337 0
382 384 336 0
340 339 383 0
339 384 383 0
339 337 384 0
339 340 338 0
346 344 341 0
342 347 341 0
341 347 346 0
343 349 342 0
342 349 347 0
348 349 343 0
385 389 345 0
345 389 351 0
345 344 346 0
386 345 346 0
385 345 386 0
386 346 347 0
386 347 387 0
387 347 349 0
387 349 388 0
391 388 353 0
353 388 350 0
388 349 350 0
349 348 350 0
352 353 350 0
389 355 351 0
394 355 389 0
393 391 353 0
395 393 357 0
357 393 354 0
393 353 354 0
353 352 354 0
356 357 354 0
394 358 355 0
397 358 394 0
395 357 360 0
395 360 398 0
359 360 356 0
356 360 357 0
397 361 358 0
401 361 397 0
400 398 360 0
360 359 400 0
359 402 400 0
359 362 402 0
401 364 361 0
404 364 401 0
362 363 366 0
406 362 366 0
402 362 406 0
365 366 363 0
404 367 364 0
408 367 404 0
406 366 370 0
406 370 411 0
369 370 365 0
365 370 366 0
408 409 367 0
367 409 368 0
371 368 409 0
371 409 413 0
411 370 373 0
411 373 414 0
372 373 369 0
369 373 370 0
413 374 371 0
416 374 413 0
414 373 379 0
414 379 420 0
377 379 372 0
372 379 373 0
416 417 374 0
374 417 375 0
375 418 376 0
417 418 375 0
380 376 418 0
380 418 422 0
420 379 378 0
383 420 378 0
427 420 383 0
378 379 377 0
422 423 380 0
380 423 381 0
381 425 382 0
423 425 381 0
382 428 384 0
425 428 382 0
383 384 427 0
427 384 428 0
430 432 385 0
385 432 389 0
431 385 386 0
431 430 385 0
434 431 390 0
431 387 390 0
431 386 387 0
388 392 387 0
387 392 390 0
391 392 388 0
432 394 389 0
438 394 432 0
436 434 390 0
436 390 392 0
436 392 437 0
440 437 396 0
396 437 393 0
437 392 393 0
392 391 393 0
395 396 393 0
438 397 394 0
442 397 438 0
440 396 399 0
440 399 444 0
398 399 395 0
395 399 396 0
442 401 397 0
446 401 442 0
445 444 399 0
449 445 403 0
403 445 400 0
445 399 400 0
399 398 400 0
402 403 400 0
405 404 447 0
404 446 447 0
404 401 446 0
450 405 447 0
449 403 407 0
449 407 451 0
406 407 402 0
402 407 403 0
410 408 405 0
405 408 404 0
405 450 453 0
405 453 410 0
451 407 412 0
451 412 455 0
411 412 406 0
406 412 407 0
410 409 408 0
413 409 410 0
453 413 410 0
457 413 453 0
455 412 415 0
455 415 458 0
414 415 411 0
411 415 412 0
457 416 413 0
461 416 457 0
466 459 419 0
419 459 458 0
415 419 458 0
421 419 415 0
420 421 414 0
414 421 415 0
461 462 416 0
416 462 417 0
417 464 418 0
462 464 417 0
467 424 422 0
418 467 422 0
464 467 418 0
424 467 466 0
419 424 466 0
426 424 419 0
429 419 421 0
426 419 429 0
427 429 420 0
420 429 421 0
424 423 422 0
423 424 425 0
425 424 426 0
425 426 428 0
428 426 429 0
428 429 427 0
433 432 430 0
431 435 430 0
430 435 433 0
434 435 431 0
439 438 433 0
433 438 432 0
435 469 471 0
439 435 471 0
433 435 439 0
469 435 434 0
436 469 434 0
470 469 436 0
473 470 441 0
470 437 441 0
470 436 437 0
440 441 437 0
443 442 439 0
439 442 438 0
439 471 476 0
439 476 443 0
475 473 441 0
441 440 475 0
440 479 475 0
440 444 479 0
448 446 443 0
443 446 442 0
443 476 482 0
443 482 448 0
481 479 444 0
481 444 445 0
445 449 481 0
481 449 486 0
448 447 446 0
450 447 448 0
482 450 448 0
489 450 482 0
492 487 452 0
487 486 452 0
486 451 452 0
486 449 451 0
489 453 450 0
495 453 489 0
497 493 454 0
454 493 492 0
452 454 492 0
456 454 452 0
455 456 451 0
451 456 452 0
495 457 453 0
500 457 495 0
499 497 454 0
460 505 499 0
454 460 499 0
456 460 454 0
458 460 455 0
455 460 456 0
463 461 501 0
461 500 501 0
461 457 500 0
503 465 463 0
503 463 501 0
506 468 465 0
506 465 503 0
468 506 505 0
468 505 460 0
466 468 460 0
459 466 460 0
459 460 458 0
463 462 461 0
462 463 464 0
464 463 465 0
464 465 467 0
467 465 468 0
467 468 466 0
472 471 469 0
470 474 469 0
469 474 472 0
473 474 470 0
477 476 472 0
472 476 471 0
478 472 474 0
477 472 478 0
475 480 473 0
480 474 473 0
480 478 474 0
479 480 475 0
483 482 477 0
477 482 476 0
484 477 478 0
483 477 484 0
485 478 480 0
484 478 485 0
481 488 479 0
488 480 479 0
488 485 480 0
486 488 481 0
490 489 483 0
483 489 482 0
491 483 484 0
490 483 491 0
494 484 485 0
491 484 494 0
492 494 487 0
494 488 487 0
494 485 488 0
487 488 486 0
496 495 490 0
490 495 489 0
498 490 491 0
496 490 498 0
497 498 493 0
498 494 493 0
498 491 494 0
493 494 492 0
502 500 496 0
496 500 495 0
504 496 498 0
502 496 504 0
499 507 497 0
507 498 497 0
507 504 498 0
505 507 499 0
502 501 500 0
501 502 503 0
503 502 504 0
503 504 506 0
506 504 507 0
506 507 505 0
