#!ascii version of /Users/gilles/git/nukkies/notebooks/data/PF5T_STh_L_dil.asc
760 1516
10.885437  -49.155643  -26.379780  0
11.757245  -49.757324  -26.357113  0
11.369749  -49.716171  -26.444242  0
10.934628  -49.687374  -26.386625  0
11.762228  -50.163914  -26.272980  0
11.453197  -50.095707  -26.392538  0
11.048225  -50.231918  -26.342331  0
11.402847  -50.492939  -26.273546  0
12.649570  -47.758591  -25.794884  0
12.270329  -47.638004  -25.798429  0
11.788188  -47.985313  -26.005369  0
11.982487  -47.713554  -25.835894  0
12.770315  -48.180183  -25.847006  0
12.045995  -48.380074  -26.183924  0
12.309603  -47.999092  -25.966509  0
11.461122  -48.099171  -26.082766  0
11.294528  -48.300182  -26.195169  0
11.134020  -48.122505  -25.974186  0
10.861382  -48.409012  -26.051155  0
10.886690  -48.163700  -25.847837  0
12.824031  -48.673714  -25.836346  0
12.126312  -48.864914  -26.232214  0
12.457364  -48.500950  -26.036022  0
10.542074  -48.708809  -26.087328  0
10.276335  -48.876564  -25.891075  0
12.809860  -49.183121  -25.794847  0
12.123954  -49.379745  -26.214996  0
12.486014  -49.014816  -26.023994  0
10.518018  -49.058369  -26.193806  0
10.244153  -49.320366  -25.938957  0
12.754218  -49.661198  -25.737585  0
12.085626  -49.860031  -26.164680  0
12.450196  -49.534096  -25.976147  0
10.535620  -49.553276  -26.215204  0
10.251128  -49.832588  -25.911097  0
12.023526  -50.165161  -26.127604  0
12.348201  -50.083473  -25.899893  0
11.871642  -50.469269  -26.078419  0
10.538921  -50.195530  -26.105927  0
10.772665  -50.595631  -26.159931  0
10.249331  -50.179001  -25.848431  0
11.527861  -50.786453  -26.102530  0
11.810579  -50.864948  -25.909348  0
11.040127  -50.656307  -26.235855  0
11.225501  -50.837620  -26.151365  0
10.885599  -50.969727  -25.998358  0
11.767855  -51.157238  -25.775164  0
11.356513  -51.137363  -25.916559  0
10.934359  -51.319000  -25.784107  0
13.652067  -47.220985  -25.288568  0
13.274419  -47.108711  -25.339895  0
12.878638  -47.533447  -25.637426  0
12.787720  -47.188503  -25.434452  0
12.452545  -47.426704  -25.642012  0
12.194716  -47.161728  -25.408447  0
11.906527  -47.408039  -25.533833  0
11.877273  -47.173927  -25.328171  0
13.765448  -47.658691  -25.321093  0
13.065962  -47.876228  -25.673292  0
13.305298  -47.497341  -25.481321  0
11.593216  -47.672985  -25.656757  0
11.293184  -47.905743  -25.754305  0
11.224802  -47.707573  -25.391890  0
10.955540  -48.035091  -25.702824  0
13.812253  -48.172680  -25.316133  0
13.147739  -48.345539  -25.664572  0
13.458429  -48.003628  -25.497768  0
10.656003  -48.205891  -25.574608  0
10.419093  -48.527142  -25.765156  0
13.802944  -48.688961  -25.301708  0
13.150333  -48.852070  -25.631050  0
13.485831  -48.513897  -25.475243  0
10.173862  -48.703735  -25.548336  0
13.770663  -49.222210  -25.297188  0
13.097086  -49.359722  -25.593861  0
13.452253  -49.042744  -25.450544  0
10.086819  -49.054012  -25.562166  0
13.742342  -49.764950  -25.298246  0
12.985096  -49.773098  -25.572399  0
13.341184  -49.646992  -25.439384  0
12.729397  -50.006969  -25.659451  0
10.064855  -49.536633  -25.557411  0
13.728909  -50.272018  -25.292280  0
13.335299  -50.211262  -25.394175  0
12.556323  -50.307022  -25.670244  0
12.919217  -50.187359  -25.518848  0
12.209867  -50.569485  -25.798302  0
10.083891  -50.073284  -25.503065  0
10.248309  -50.480297  -25.693295  0
13.743925  -50.682358  -25.250256  0
13.339428  -50.698883  -25.348846  0
12.898984  -50.695686  -25.440599  0
12.110956  -50.963440  -25.691303  0
12.516884  -50.656231  -25.583000  0
10.506663  -50.771381  -25.870991  0
10.250637  -50.918804  -25.458941  0
13.427718  -51.069744  -25.249714  0
12.909103  -51.198471  -25.333456  0
11.959623  -51.290871  -25.613302  0
12.392025  -51.162598  -25.481953  0
11.593632  -51.443993  -25.659460  0
11.164334  -51.529156  -25.661442  0
10.538945  -51.263115  -25.563118  0
10.820914  -51.545277  -25.569450  0
10.259598  -51.200829  -25.285479  0
12.467030  -51.575020  -25.299505  0
11.952198  -51.631901  -25.394148  0
11.393723  -51.766277  -25.404922  0
10.962894  -51.767956  -25.374058  0
13.786708  -47.016201  -25.145229  0
13.808411  -46.783173  -24.891733  0
13.481441  -46.904213  -25.157537  0
13.182168  -46.647469  -24.898201  0
12.967040  -46.862404  -25.170029  0
12.645092  -46.643673  -24.877934  0
12.358868  -46.892689  -25.115341  0
12.248530  -46.687080  -24.778515  0
11.948314  -47.035862  -25.166788  0
14.676908  -47.160103  -24.753819  0
14.031863  -47.286308  -25.104734  0
14.330664  -47.038612  -24.871374  0
11.653351  -47.196472  -25.062677  0
11.419146  -47.489464  -25.238968  0
14.125229  -47.851379  -25.138571  0
14.506764  -47.591476  -24.898191  0
11.064162  -47.683178  -24.975069  0
10.892311  -47.921795  -25.306700  0
14.709621  -48.156147  -24.803392  0
14.121697  -48.360844  -25.145094  0
14.387371  -48.094376  -24.994888  0
10.541785  -48.154659  -25.034697  0
10.319163  -48.434944  -25.289932  0
14.750483  -48.708675  -24.805412  0
14.119494  -48.862827  -25.143448  0
14.427229  -48.533192  -24.979565  0
10.124474  -48.763699  -25.153801  0
14.776428  -49.204002  -24.808130  0
14.114339  -49.380344  -25.152052  0
14.446941  -49.035927  -24.984833  0
10.028089  -49.208927  -25.123768  0
14.805405  -49.638027  -24.765421  0
14.104974  -49.896297  -25.153282  0
14.460389  -49.538712  -24.979593  0
9.994639  -49.691326  -25.105074  0
14.060724  -50.366623  -25.149677  0
14.477674  -50.057617  -24.910513  0
9.985519  -50.086952  -25.035954  0
13.996269  -50.660736  -25.144907  0
14.275182  -50.588371  -24.932364  0
13.888251  -50.961525  -25.078497  0
10.061667  -50.534569  -25.153080  0
13.562659  -51.313190  -25.107178  0
13.878729  -51.336590  -24.911564  0
13.162130  -51.460484  -25.176613  0
12.780855  -51.586582  -25.226030  0
10.120710  -51.033352  -25.023973  0
10.299598  -51.413940  -25.008715  0
13.868337  -51.602200  -24.783678  0
13.483895  -51.650566  -24.937300  0
12.588121  -51.759769  -25.181887  0
12.886070  -51.817616  -25.044285  0
12.310320  -51.956001  -25.072561  0
11.656317  -52.027901  -25.035675  0
11.132623  -51.964863  -25.049379  0
10.619506  -51.649830  -25.256268  0
10.782857  -51.867550  -25.051888  0
12.362592  -52.235828  -24.771385  0
11.998098  -52.234039  -24.793726  0
13.878939  -46.495159  -24.429253  0
13.321875  -46.482704  -24.544554  0
12.805221  -46.487617  -24.579689  0
12.417090  -46.548347  -24.595392  0
14.768476  -46.962650  -24.635971  0
14.794540  -46.773052  -24.401529  0
14.219005  -46.717205  -24.713284  0
14.559044  -46.847633  -24.682142  0
14.372215  -46.615101  -24.499666  0
12.122393  -46.649609  -24.460949  0
11.915117  -46.892708  -24.770166  0
14.914125  -47.160938  -24.585676  0
15.196413  -47.129852  -24.357300  0
14.817500  -47.447357  -24.708328  0
11.578456  -47.130714  -24.523844  0
11.312563  -47.424107  -24.737738  0
15.361986  -47.560135  -24.326326  0
14.828653  -47.756760  -24.714748  0
14.994387  -47.994576  -24.613577  0
15.072766  -47.583221  -24.536095  0
11.030248  -47.749172  -24.465240  0
10.755400  -47.939468  -24.791851  0
15.034836  -48.407864  -24.609713  0
15.302653  -48.047054  -24.403612  0
10.552417  -48.138065  -24.708641  0
10.712900  -48.097733  -24.462828  0
10.397520  -48.428085  -24.705858  0
15.067039  -48.905399  -24.616133  0
15.344977  -48.612026  -24.397959  0
10.171834  -48.895294  -24.700832  0
10.410014  -48.692791  -24.369398  0
15.070325  -49.357971  -24.612669  0
15.346762  -49.105991  -24.398678  0
10.099273  -49.385174  -24.607456  0
10.316765  -49.007397  -24.306782  0
15.042905  -49.645184  -24.600002  0
15.289221  -49.572350  -24.385719  0
14.955091  -49.943298  -24.564188  0
9.999648  -49.840611  -24.726442  0
14.661232  -50.364220  -24.662977  0
14.989404  -50.265694  -24.386873  0
10.007607  -50.236919  -24.653511  0
14.509037  -50.647991  -24.688246  0
14.788647  -50.616680  -24.408672  0
14.342666  -50.986858  -24.677523  0
10.034426  -50.731003  -24.618580  0
14.133167  -51.425903  -24.668480  0
14.444840  -51.290367  -24.403318  0
10.110592  -51.180679  -24.579691  0
10.261023  -51.504295  -24.494928  0
14.017901  -51.647675  -24.641745  0
14.238439  -51.630703  -24.394073  0
13.796084  -51.877659  -24.577564  0
13.229223  -52.019680  -24.735329  0
12.724916  -52.132141  -24.805590  0
11.315994  -52.117928  -24.561234  0
10.513178  -51.730495  -24.792692  0
10.844212  -51.932102  -24.641491  0
13.825857  -52.154346  -24.268604  0
13.449418  -52.223423  -24.397764  0
12.588325  -52.327431  -24.560902  0
12.972503  -52.294556  -24.483189  0
12.242149  -52.382359  -24.455250  0
11.672336  -52.242893  -24.679945  0
11.890114  -52.344902  -24.500496  0
14.877110  -46.526024  -23.909307  0
14.270576  -46.450123  -24.079668  0
13.724525  -46.363098  -23.976162  0
13.318745  -46.380756  -24.107542  0
12.917820  -46.410168  -24.253965  0
12.452390  -46.500088  -24.246023  0
15.157324  -46.790527  -24.193228  0
15.355624  -46.955933  -24.185165  0
15.420269  -46.805019  -23.956249  0
12.129163  -46.626205  -24.187584  0
12.261013  -46.629059  -23.899004  0
11.881443  -46.860401  -24.189137  0
15.540704  -47.260105  -24.135105  0
15.836504  -47.132202  -23.866850  0
11.610620  -47.121616  -24.190454  0
11.739475  -47.156296  -23.878126  0
11.414228  -47.425732  -24.176174  0
16.163197  -47.550381  -23.760469  0
15.623063  -47.805923  -24.158766  0
15.847203  -47.563145  -23.978638  0
11.201855  -47.777817  -24.089436  0
11.416121  -47.713036  -23.859591  0
15.636103  -48.333141  -24.158749  0
15.985028  -48.043724  -23.893515  0
10.975290  -48.007980  -24.175142  0
11.227470  -48.070862  -23.833937  0
10.774418  -48.403881  -24.127039  0
15.619942  -48.842995  -24.156296  0
15.910447  -48.603344  -23.889992  0
10.577108  -48.808460  -24.078508  0
10.865550  -48.724289  -23.831030  0
15.579941  -49.301624  -24.150890  0
15.841413  -49.084984  -23.882486  0
10.477114  -49.036461  -24.062096  0
10.706667  -49.066967  -23.806194  0
10.371949  -49.329796  -24.074987  0
15.519909  -49.608097  -24.146509  0
15.739807  -49.577557  -23.882339  0
15.373278  -49.961819  -24.145428  0
10.143624  -49.830147  -24.261515  0
10.384500  -49.680027  -23.871906  0
15.166638  -50.397903  -24.139090  0
15.466521  -50.271076  -23.907753  0
10.102979  -50.394115  -24.204729  0
10.306743  -50.089161  -23.854111  0
15.032665  -50.647575  -24.136862  0
15.313411  -50.599648  -23.883623  0
14.866161  -50.961189  -24.128391  0
10.122187  -50.919533  -24.200680  0
10.289126  -50.630322  -23.845839  0
14.665242  -51.414902  -24.034756  0
15.012111  -51.183147  -23.803862  0
10.167803  -51.290749  -24.245634  0
10.274169  -51.464043  -24.199209  0
10.359675  -51.238972  -23.933847  0
14.440565  -51.732990  -24.042942  0
14.143223  -51.947666  -24.190916  0
11.447623  -52.145424  -23.988070  0
10.520293  -51.669506  -24.258190  0
10.995770  -51.900608  -24.048096  0
10.679152  -51.577602  -23.815706  0
14.035941  -52.221813  -23.958548  0
13.624672  -52.392113  -24.042761  0
13.140269  -52.463100  -24.097330  0
12.623664  -52.455948  -24.168234  0
12.292189  -52.453564  -24.121326  0
11.656337  -52.291737  -24.310951  0
12.003219  -52.394875  -24.110151  0
11.745764  -52.293232  -23.927149  0
15.326743  -46.515064  -23.485106  0
14.727201  -46.372303  -23.456907  0
14.309345  -46.356831  -23.562553  0
13.812396  -46.341957  -23.599979  0
13.321431  -46.363876  -23.638464  0
12.785398  -46.449192  -23.807215  0
15.703605  -46.790451  -23.724537  0
15.918707  -46.936024  -23.706692  0
15.949971  -46.795433  -23.490076  0
12.482744  -46.640015  -23.431431  0
12.087829  -46.887794  -23.631821  0
16.120892  -47.148781  -23.668365  0
16.313391  -47.364597  -23.630634  0
16.395372  -47.146992  -23.434109  0
11.967559  -47.286510  -23.372091  0
11.649838  -47.496109  -23.699705  0
16.435986  -47.537128  -23.566370  0
16.698772  -47.557110  -23.306879  0
16.418791  -47.940750  -23.570545  0
11.590542  -47.890236  -23.516119  0
11.803689  -47.644054  -23.371017  0
16.233555  -48.403549  -23.628750  0
16.509016  -48.288933  -23.419037  0
11.448693  -48.293537  -23.454123  0
11.143353  -48.493996  -23.676853  0
16.155758  -48.885414  -23.546631  0
16.435179  -48.584064  -23.357712  0
11.109491  -48.899891  -23.474808  0
11.362059  -48.612221  -23.366081  0
16.001476  -49.322613  -23.611248  0
10.925993  -49.326828  -23.444815  0
10.623271  -49.457687  -23.692728  0
15.996357  -49.776047  -23.459732  0
15.713918  -50.018963  -23.752750  0
10.564305  -49.845535  -23.599503  0
10.795466  -49.655693  -23.432878  0
15.648439  -50.372314  -23.666124  0
15.870591  -50.181156  -23.485512  0
10.531519  -50.326874  -23.554871  0
10.793439  -50.051765  -23.336332  0
15.551102  -50.612591  -23.633390  0
15.767592  -50.552090  -23.388224  0
15.356700  -50.911034  -23.622534  0
10.554039  -50.886597  -23.574533  0
10.801933  -50.599327  -23.311251  0
15.184548  -51.186504  -23.601517  0
15.351912  -51.214897  -23.364202  0
15.003863  -51.412857  -23.609987  0
10.622952  -51.303539  -23.626461  0
10.769719  -51.470947  -23.578323  0
10.881513  -51.219673  -23.373699  0
14.691613  -51.652836  -23.778032  0
14.899656  -51.706177  -23.452503  0
14.467003  -51.974709  -23.734039  0
11.701715  -52.164555  -23.584530  0
10.965388  -51.641514  -23.585779  0
11.344933  -51.892723  -23.527256  0
11.184453  -51.552357  -23.280300  0
14.208089  -52.250557  -23.713392  0
14.423230  -52.255245  -23.447119  0
13.927838  -52.505428  -23.616680  0
13.338797  -52.633099  -23.716143  0
12.796569  -52.600163  -23.651699  0
11.957667  -52.329529  -23.705982  0
12.304076  -52.448940  -23.749468  0
13.941055  -52.762287  -23.265841  0
13.541605  -52.812244  -23.375248  0
13.099218  -52.800335  -23.345215  0
15.847276  -46.522503  -23.016533  0
15.249218  -46.405750  -23.004049  0
14.800781  -46.376865  -23.094545  0
14.306857  -46.360184  -23.113451  0
13.825892  -46.368725  -23.153214  0
13.425907  -46.381657  -23.251457  0
12.940533  -46.490192  -23.233042  0
16.241020  -46.786221  -23.245197  0
16.468807  -46.917339  -23.221670  0
16.447571  -46.746014  -22.964190  0
12.629125  -46.646801  -23.110661  0
12.825266  -46.656288  -22.857792  0
12.402045  -46.906357  -23.058336  0
16.669230  -47.096115  -23.156845  0
16.907352  -47.320724  -23.018755  0
16.822876  -46.982819  -22.835623  0
12.219496  -47.335983  -22.891790  0
12.455365  -47.099403  -22.706573  0
16.989828  -47.725521  -22.948009  0
16.734602  -48.032070  -23.260315  0
11.984138  -47.740356  -23.022631  0
11.800673  -47.910271  -23.215746  0
16.675383  -48.386196  -23.194605  0
16.895134  -48.166298  -23.000002  0
11.690031  -48.208637  -23.196764  0
11.865458  -48.124279  -22.989033  0
16.596064  -48.605953  -23.155832  0
16.792696  -48.530560  -22.905643  0
16.481203  -48.872524  -23.133165  0
11.562085  -48.507355  -23.183868  0
11.759452  -48.529747  -22.898560  0
11.463290  -48.863857  -23.078592  0
16.243671  -49.343227  -23.236267  0
16.481770  -49.204971  -22.922049  0
11.231573  -49.261337  -23.136362  0
11.473484  -49.217144  -22.865093  0
16.215378  -49.849968  -23.032797  0
16.399046  -49.562309  -22.842257  0
11.059274  -49.727737  -23.149801  0
11.364659  -49.572884  -22.850113  0
16.036547  -50.215378  -23.174644  0
11.044536  -50.300430  -23.075975  0
11.291818  -50.046917  -22.828796  0
15.972210  -50.632957  -22.967289  0
15.679698  -50.938568  -23.176886  0
11.088655  -50.869583  -23.082106  0
11.300785  -50.595150  -22.821985  0
15.564789  -51.319271  -22.933325  0
15.218629  -51.506413  -23.244022  0
11.166924  -51.279533  -23.121756  0
11.301660  -51.448151  -23.080013  0
11.407048  -51.221390  -22.888912  0
15.091594  -51.713577  -23.199007  0
15.283666  -51.680859  -22.954014  0
14.879869  -51.974945  -23.194397  0
11.452416  -51.655079  -23.118532  0
11.670126  -51.954323  -23.241785  0
11.795415  -51.734093  -22.865063  0
14.653562  -52.257481  -23.181166  0
14.855856  -52.262035  -22.892241  0
14.398158  -52.537720  -23.136429  0
12.026353  -52.215252  -23.297171  0
12.424444  -52.466389  -23.320902  0
12.307776  -52.236961  -22.870405  0
14.143807  -52.829185  -23.004330  0
14.425385  -52.760826  -22.800680  0
13.763597  -52.946053  -22.988914  0
13.348798  -52.930687  -23.091715  0
12.711349  -52.641460  -23.153587  0
13.029572  -52.831875  -22.956211  0
12.707602  -52.585346  -22.794186  0
16.229433  -46.534966  -22.545475  0
15.848343  -46.435959  -22.629366  0
15.442148  -46.446060  -22.613865  0
14.885575  -46.445465  -22.693544  0
14.376528  -46.458157  -22.711033  0
13.849563  -46.479118  -22.726818  0
13.307527  -46.505215  -22.840002  0
16.637182  -46.728264  -22.592451  0
16.900198  -46.955547  -22.434113  0
15.443219  -46.559517  -22.238085  0
15.032450  -46.580379  -22.322170  0
14.529752  -46.617439  -22.351418  0
13.990529  -46.661961  -22.351984  0
13.053474  -46.661777  -22.615210  0
13.380157  -46.709568  -22.428797  0
12.795817  -46.891006  -22.555037  0
17.044197  -47.290123  -22.698107  0
12.578271  -47.108681  -22.513870  0
12.739576  -47.169502  -22.316538  0
12.441849  -47.359253  -22.510979  0
17.143391  -47.614140  -22.572020  0
12.218179  -47.735668  -22.629725  0
12.427104  -47.701363  -22.348373  0
17.071285  -48.079269  -22.621027  0
12.039279  -48.234463  -22.672621  0
12.328468  -48.097626  -22.353178  0
16.976896  -48.584984  -22.445040  0
16.708637  -48.933620  -22.728283  0
11.929191  -48.717037  -22.591391  0
12.210418  -48.665733  -22.335562  0
11.698992  -48.981651  -22.726238  0
16.618713  -49.332401  -22.580744  0
12.200189  -49.182060  -22.221329  0
11.645732  -49.386005  -22.614897  0
11.929089  -49.099121  -22.448917  0
16.521515  -49.759644  -22.433393  0
16.350079  -49.921455  -22.709232  0
11.568062  -49.829845  -22.573154  0
11.912287  -49.574558  -22.336470  0
16.210373  -50.331394  -22.669348  0
16.394386  -50.104099  -22.441990  0
11.523293  -50.327068  -22.562601  0
11.799742  -50.085396  -22.327957  0
16.062124  -50.762127  -22.577015  0
15.869695  -50.999744  -22.762985  0
11.569149  -50.864475  -22.582087  0
11.785309  -50.597610  -22.331821  0
15.773851  -51.285534  -22.525875  0
11.676597  -51.296143  -22.630487  0
11.832384  -51.488857  -22.580608  0
11.904632  -51.218681  -22.388744  0
15.539510  -51.627235  -22.483587  0
15.206165  -51.966263  -22.693220  0
12.054547  -51.743958  -22.572832  0
12.287026  -52.015839  -22.568396  0
12.325718  -51.770416  -22.336105  0
15.067892  -52.271008  -22.416939  0
14.729537  -52.546757  -22.649925  0
12.517466  -52.263340  -22.575001  0
12.744070  -52.505451  -22.585917  0
12.771157  -52.279465  -22.342222  0
14.546390  -52.784618  -22.431644  0
14.160170  -52.936024  -22.651413  0
13.831775  -53.002151  -22.660494  0
12.977737  -52.687073  -22.615591  0
13.442630  -52.906864  -22.647167  0
13.173873  -52.617172  -22.318483  0
16.234529  -46.548954  -22.159603  0
15.856065  -46.494152  -22.301868  0
16.561432  -46.738514  -22.117863  0
16.890493  -47.020966  -22.039003  0
16.318434  -46.641022  -21.956095  0
15.672040  -46.639935  -22.005989  0
16.042444  -46.634792  -21.942600  0
15.232965  -46.760902  -21.942728  0
14.750342  -46.762650  -22.070272  0
14.242121  -46.908638  -22.014359  0
13.634806  -46.948868  -22.096092  0
13.126274  -47.020706  -22.195536  0
17.096848  -47.329014  -22.239311  0
16.982176  -47.276375  -21.820803  0
14.277597  -47.235542  -21.743242  0
13.778087  -47.265797  -21.882692  0
12.949188  -47.287495  -22.092537  0
13.299283  -47.275734  -21.978481  0
12.667256  -47.483089  -22.202723  0
17.175690  -47.760658  -22.273321  0
13.854518  -47.676506  -21.737976  0
13.354196  -47.656311  -21.878309  0
12.624459  -47.876228  -22.134668  0
12.958854  -47.592564  -22.001596  0
17.147120  -48.180576  -22.128962  0
13.739041  -48.146740  -21.698402  0
13.344838  -48.119774  -21.837210  0
12.570708  -48.359383  -22.116964  0
12.940975  -48.031822  -21.964952  0
17.080231  -48.705372  -21.933434  0
16.863985  -49.041027  -22.303871  0
13.370280  -48.586105  -21.744396  0
12.520841  -48.874439  -22.083628  0
12.913860  -48.535698  -21.939091  0
16.751680  -49.477631  -22.127384  0
16.952129  -49.151592  -21.923693  0
12.440587  -49.273529  -22.059362  0
12.855241  -49.125031  -21.862650  0
12.215675  -49.511341  -22.141310  0
16.632069  -49.787724  -22.100611  0
12.738050  -49.694031  -21.811167  0
12.118099  -49.862049  -22.136080  0
12.447364  -49.594669  -21.995319  0
16.512491  -50.076187  -22.040533  0
16.342882  -50.365078  -22.221884  0
12.684246  -50.173794  -21.779755  0
12.057973  -50.319118  -22.122118  0
12.383921  -50.030766  -21.959913  0
16.156775  -50.751366  -22.076159  0
15.957646  -51.066509  -22.332592  0
12.695301  -50.664177  -21.759169  0
12.086075  -50.821865  -22.128126  0
12.365403  -50.509937  -21.940392  0
15.760917  -51.416019  -22.059128  0
15.950215  -51.137081  -21.904146  0
12.788306  -51.118561  -21.746220  0
12.201784  -51.267357  -22.155798  0
12.451717  -51.521408  -22.079168  0
12.453506  -51.073227  -21.945400  0
15.546913  -51.734531  -21.989117  0
15.349424  -51.977417  -22.185530  0
12.617162  -51.858597  -22.140940  0
12.804179  -52.032787  -22.106989  0
12.837047  -51.701874  -21.894844  0
15.129742  -52.251049  -21.917250  0
14.825304  -52.541367  -22.119566  0
13.031501  -52.264519  -22.085207  0
13.269123  -52.515453  -22.083660  0
13.333416  -52.287422  -21.836996  0
14.533671  -52.757381  -22.070686  0
14.317687  -52.894749  -22.266287  0
14.216146  -52.764034  -21.934874  0
13.499855  -52.708790  -22.159828  0
13.917568  -52.910053  -22.301510  0
13.787436  -52.638527  -21.872326  0
16.271469  -46.852539  -21.692257  0
15.727838  -46.864700  -21.670536  0
15.238338  -46.994125  -21.605061  0
14.756230  -46.999397  -21.758488  0
16.649012  -47.134094  -21.578444  0
16.915508  -47.460335  -21.489138  0
16.331034  -47.093235  -21.412197  0
15.996162  -47.114059  -21.354239  0
15.488523  -47.167667  -21.342812  0
14.600915  -47.212879  -21.602524  0
14.932021  -47.243370  -21.434166  0
14.422776  -47.483215  -21.523754  0
17.118225  -47.745407  -21.768744  0
16.977551  -47.771679  -21.281071  0
14.106862  -47.873791  -21.565641  0
14.432399  -47.752541  -21.368643  0
17.164095  -48.281822  -21.708820  0
13.980171  -48.135883  -21.574741  0
14.256463  -48.075874  -21.360609  0
13.856230  -48.403473  -21.525627  0
17.147684  -48.605713  -21.499552  0
13.600746  -48.674618  -21.580824  0
13.827847  -48.684998  -21.356806  0
13.413835  -48.951401  -21.545071  0
17.055733  -49.041252  -21.487389  0
16.898161  -49.401573  -21.707521  0
13.113820  -49.392033  -21.610306  0
13.435369  -49.224266  -21.363388  0
16.721756  -49.760700  -21.695013  0
13.009641  -49.851112  -21.599302  0
13.315385  -49.581299  -21.369263  0
16.533012  -50.133850  -21.445604  0
16.359459  -50.444736  -21.756536  0
12.984044  -50.339600  -21.578665  0
13.268209  -50.048168  -21.363138  0
16.193960  -50.715431  -21.519573  0
13.014535  -50.857166  -21.562500  0
13.280144  -50.575916  -21.351297  0
15.988407  -51.013050  -21.486204  0
15.764505  -51.339890  -21.513144  0
15.816291  -51.181587  -21.258350  0
13.072828  -51.385361  -21.593164  0
13.375489  -51.185074  -21.333700  0
15.577412  -51.643147  -21.616665  0
15.314719  -51.941807  -21.606920  0
15.423826  -51.748074  -21.377251  0
13.757966  -51.701431  -21.215481  0
13.189997  -51.829300  -21.642141  0
13.438733  -52.069733  -21.557236  0
13.397679  -51.712780  -21.437164  0
15.036146  -52.209240  -21.540186  0
14.886518  -52.398991  -21.705290  0
14.709941  -52.256046  -21.389948  0
14.517716  -52.529488  -21.697472  0
14.198552  -52.160698  -21.312260  0
13.655123  -52.348915  -21.615551  0
14.025198  -52.472889  -21.597637  0
13.727757  -52.103477  -21.417585  0
16.254225  -47.377033  -21.138931  0
15.726004  -47.416367  -21.077166  0
15.216465  -47.453186  -21.133459  0
14.766938  -47.559917  -21.248568  0
16.648386  -47.646915  -21.039761  0
16.907574  -47.988750  -20.942064  0
16.297682  -47.647896  -20.884027  0
15.920059  -47.717789  -20.813583  0
15.384995  -47.722111  -20.898338  0
14.641326  -47.865421  -21.150431  0
14.981857  -47.717926  -21.027428  0
17.101503  -48.242828  -21.218500  0
16.964911  -48.295406  -20.746532  0
15.525249  -47.995678  -20.664261  0
14.525772  -48.101067  -21.118847  0
14.922009  -48.075405  -20.871038  0
14.295765  -48.404247  -21.119516  0
17.123724  -48.740940  -21.163847  0
14.043859  -48.682667  -21.121384  0
14.246360  -48.705528  -20.886984  0
13.812867  -48.957550  -21.121880  0
17.034441  -49.081573  -20.939915  0
16.902651  -49.444412  -21.245710  0
13.610853  -49.359764  -21.108624  0
13.875862  -49.214798  -20.869089  0
16.698107  -49.798946  -21.071402  0
13.544540  -49.808403  -21.105394  0
13.816951  -49.587742  -20.842525  0
16.476652  -50.088139  -20.897875  0
16.277067  -50.433289  -21.107597  0
16.314339  -50.220242  -20.754271  0
13.535883  -50.321968  -21.118805  0
13.850257  -50.159332  -20.835560  0
16.051130  -50.780418  -21.115475  0
15.810099  -50.996109  -21.005766  0
15.905097  -50.795044  -20.860630  0
14.186666  -50.758354  -20.719122  0
13.584493  -50.846420  -21.123283  0
13.798926  -50.637894  -20.935061  0
15.605302  -51.270920  -21.078613  0
15.483824  -51.549068  -21.242098  0
15.181871  -51.380329  -20.886253  0
14.617137  -51.220070  -20.735794  0
14.254877  -51.187557  -20.793249  0
13.696583  -51.283939  -21.108158  0
13.947301  -51.518120  -21.018753  0
13.948589  -51.125717  -20.924734  0
15.216938  -51.749687  -21.174986  0
14.957218  -52.005360  -21.248304  0
14.811077  -51.678951  -20.958818  0
14.133885  -51.811642  -21.072086  0
14.524208  -51.952732  -21.099588  0
14.311181  -51.535114  -20.906048  0
16.259079  -47.915424  -20.631750  0
15.878378  -47.987762  -20.576677  0
16.643459  -48.172779  -20.528732  0
16.888269  -48.513462  -20.459793  0
16.297827  -48.160309  -20.383608  0
15.678008  -48.129696  -20.498766  0
15.931675  -48.201321  -20.375153  0
15.327020  -48.352303  -20.456287  0
14.691036  -48.500801  -20.705759  0
17.050716  -48.682491  -20.739172  0
16.898111  -48.853241  -20.343212  0
15.248144  -48.742725  -20.176779  0
14.478224  -48.784176  -20.615623  0
14.843651  -48.751129  -20.414843  0
14.151267  -48.988178  -20.739882  0
16.987600  -49.043041  -20.545273  0
16.813936  -49.387043  -20.593590  0
16.883116  -49.114143  -20.345755  0
14.863007  -49.164410  -20.215967  0
14.109688  -49.346172  -20.628305  0
14.462372  -49.074642  -20.473766  0
16.559320  -49.781597  -20.557491  0
16.302729  -49.990864  -20.453403  0
16.407928  -49.763744  -20.284327  0
14.815710  -49.761311  -20.197735  0
14.101933  -49.823853  -20.601023  0
14.433556  -49.537491  -20.398317  0
16.093239  -50.277248  -20.584383  0
15.967714  -50.582272  -20.760855  0
15.658098  -50.348217  -20.376736  0
15.118177  -50.176384  -20.220213  0
14.762448  -50.160069  -20.283503  0
14.170012  -50.277367  -20.601795  0
14.414407  -50.513958  -20.520065  0
14.461686  -50.097332  -20.410261  0
15.693864  -50.750061  -20.662407  0
15.442927  -51.024475  -20.738926  0
15.281278  -50.650707  -20.456768  0
14.588831  -50.819950  -20.564541  0
14.986873  -50.961742  -20.590130  0
14.784467  -50.509369  -20.405161  0
16.220318  -48.456783  -20.155378  0
15.699007  -48.529079  -20.137413  0
16.634218  -48.647980  -20.194557  0
16.261166  -48.899441  -19.950460  0
15.511086  -48.800518  -19.986385  0
15.853381  -48.794815  -19.926434  0
15.240838  -49.009453  -20.021307  0
16.637808  -49.109283  -20.149824  0
16.496759  -49.523834  -20.210094  0
16.228264  -49.331577  -19.945122  0
15.858895  -49.182148  -19.841486  0
15.149927  -49.369568  -20.005083  0
15.502682  -49.084648  -19.890549  0
16.209175  -49.705147  -20.105263  0
15.936683  -49.981697  -20.197805  0
15.858011  -49.598206  -19.930645  0
15.180390  -49.749645  -20.032057  0
15.515595  -49.901665  -20.053043  0
15.483180  -49.479389  -19.896986  0
16 19 0 0
0 21 16 0
0 19 1 0
1 19 27 0
21 0 22 0
0 2 22 0
0 1 2 0
3 24 2 0
2 24 22 0
3 29 24 0
1 27 4 0
4 27 32 0
1 5 2 0
1 4 5 0
2 6 3 0
2 5 6 0
29 3 34 0
34 3 6 0
4 32 7 0
7 32 37 0
4 8 5 0
4 7 8 0
5 9 6 0
5 8 9 0
34 6 39 0
39 6 9 0
7 37 10 0
10 37 41 0
7 11 8 0
7 10 11 0
8 12 9 0
8 11 12 0
39 9 44 0
44 9 12 0
41 43 10 0
47 13 43 0
13 10 43 0
13 11 10 0
45 12 49 0
12 13 49 0
12 11 13 0
12 45 44 0
47 50 13 0
13 50 49 0
57 64 14 0
15 59 14 0
14 59 57 0
17 61 15 0
15 61 59 0
17 66 61 0
14 64 18 0
18 64 71 0
14 20 15 0
14 18 20 0
20 19 16 0
17 20 16 0
15 20 17 0
23 67 21 0
21 67 16 0
67 66 16 0
66 17 16 0
25 69 23 0
23 69 67 0
25 73 69 0
18 71 26 0
26 71 76 0
18 28 20 0
18 26 28 0
28 27 19 0
28 19 20 0
22 23 21 0
23 22 24 0
23 24 25 0
30 74 29 0
29 74 24 0
74 73 24 0
73 25 24 0
30 78 74 0
26 76 31 0
31 76 80 0
26 33 28 0
26 31 33 0
33 32 27 0
33 27 28 0
34 35 30 0
34 30 29 0
78 30 82 0
82 30 35 0
31 80 36 0
36 80 84 0
31 38 33 0
31 36 38 0
38 37 32 0
38 32 33 0
39 40 35 0
39 35 34 0
82 35 87 0
87 35 40 0
84 86 36 0
90 42 86 0
42 36 86 0
42 38 36 0
42 41 37 0
42 37 38 0
44 46 40 0
44 40 39 0
87 40 93 0
93 40 46 0
90 92 42 0
92 98 48 0
92 48 43 0
42 92 43 0
41 42 43 0
48 47 43 0
49 51 45 0
51 100 45 0
45 100 44 0
100 94 44 0
94 46 44 0
46 94 93 0
48 98 52 0
52 98 104 0
53 50 47 0
48 53 47 0
52 53 48 0
51 49 50 0
53 51 50 0
54 51 53 0
100 51 108 0
108 51 54 0
104 106 52 0
52 106 53 0
53 106 107 0
53 107 54 0
54 107 109 0
54 109 108 0
115 125 55 0
56 117 55 0
55 117 115 0
58 119 56 0
56 119 117 0
60 121 58 0
58 121 119 0
62 123 60 0
60 123 121 0
62 127 123 0
55 125 63 0
63 125 129 0
55 65 56 0
55 63 65 0
65 64 57 0
58 65 57 0
56 65 58 0
58 57 59 0
58 59 60 0
60 59 61 0
60 61 62 0
68 128 66 0
66 128 61 0
128 127 61 0
127 62 61 0
68 131 128 0
63 129 70 0
70 129 134 0
63 72 65 0
63 70 72 0
72 71 64 0
72 64 65 0
67 68 66 0
132 131 68 0
67 132 68 0
69 132 67 0
69 73 132 0
132 73 136 0
70 134 75 0
75 134 139 0
70 77 72 0
70 75 77 0
77 76 71 0
77 71 72 0
137 136 73 0
137 73 74 0
74 78 137 0
137 78 141 0
75 139 79 0
79 139 143 0
75 81 77 0
75 79 81 0
81 80 76 0
81 76 77 0
82 141 78 0
82 145 141 0
79 143 83 0
83 143 147 0
79 85 81 0
79 83 85 0
85 84 80 0
85 80 81 0
87 145 82 0
87 149 145 0
83 147 88 0
88 147 150 0
83 89 85 0
83 88 89 0
91 86 84 0
85 91 84 0
89 91 85 0
91 90 86 0
93 149 87 0
93 152 149 0
88 150 95 0
95 150 153 0
88 96 89 0
88 95 96 0
89 97 91 0
89 96 97 0
99 92 90 0
91 99 90 0
97 99 91 0
99 98 92 0
100 101 94 0
101 156 94 0
156 93 94 0
156 152 93 0
153 155 95 0
157 102 155 0
102 95 155 0
102 96 95 0
96 103 97 0
96 102 103 0
97 105 99 0
97 103 105 0
105 104 98 0
105 98 99 0
108 110 101 0
108 101 100 0
156 101 161 0
161 101 110 0
157 159 102 0
102 159 103 0
103 159 160 0
165 111 160 0
111 103 160 0
111 105 103 0
112 106 104 0
105 112 104 0
111 112 105 0
113 107 106 0
113 106 112 0
114 109 107 0
114 107 113 0
114 170 109 0
109 170 108 0
170 162 108 0
162 110 108 0
110 162 161 0
165 167 111 0
111 167 112 0
112 167 168 0
112 168 113 0
113 168 169 0
113 169 114 0
114 169 171 0
114 171 170 0
174 180 116 0
118 175 116 0
116 175 174 0
120 176 118 0
118 176 175 0
122 177 120 0
120 177 176 0
122 183 177 0
178 185 124 0
126 181 124 0
124 181 178 0
181 126 180 0
180 126 116 0
126 125 116 0
125 115 116 0
116 115 117 0
116 117 118 0
118 117 119 0
118 119 120 0
120 119 121 0
120 121 122 0
184 183 122 0
121 184 122 0
123 184 121 0
123 127 184 0
184 127 188 0
185 187 124 0
191 130 187 0
130 124 187 0
130 126 124 0
130 129 125 0
130 125 126 0
189 188 127 0
189 127 128 0
128 131 189 0
189 131 194 0
192 196 133 0
192 133 191 0
133 130 191 0
133 135 130 0
135 134 129 0
135 129 130 0
195 194 131 0
195 131 132 0
132 136 195 0
195 136 198 0
133 196 138 0
138 196 201 0
133 140 135 0
133 138 140 0
140 139 134 0
140 134 135 0
200 198 136 0
200 136 137 0
137 141 200 0
200 141 203 0
138 201 142 0
142 201 205 0
138 144 140 0
138 142 144 0
144 143 139 0
144 139 140 0
145 203 141 0
145 207 203 0
142 205 146 0
146 205 209 0
142 148 144 0
142 146 148 0
148 147 143 0
148 143 144 0
149 207 145 0
149 212 207 0
209 211 146 0
213 151 211 0
151 146 211 0
151 148 146 0
151 150 147 0
151 147 148 0
152 212 149 0
152 215 212 0
151 213 154 0
154 213 216 0
154 153 150 0
154 150 151 0
156 215 152 0
156 219 215 0
216 218 154 0
218 220 158 0
218 158 155 0
154 218 155 0
153 154 155 0
158 157 155 0
161 219 156 0
161 222 219 0
158 220 163 0
163 220 224 0
164 159 157 0
158 164 157 0
163 164 158 0
166 160 159 0
166 159 164 0
166 165 160 0
230 223 162 0
230 162 170 0
161 162 222 0
222 162 223 0
224 226 163 0
163 226 164 0
164 226 227 0
164 227 166 0
166 227 228 0
228 234 172 0
228 172 167 0
166 228 167 0
165 166 167 0
173 168 167 0
173 167 172 0
168 173 237 0
229 168 237 0
169 168 229 0
169 231 171 0
229 231 169 0
170 171 230 0
230 171 231 0
234 236 172 0
172 236 173 0
173 236 238 0
173 238 237 0
239 245 179 0
182 240 179 0
179 240 239 0
180 174 182 0
174 240 182 0
174 241 240 0
242 174 175 0
242 241 174 0
243 175 176 0
243 242 175 0
244 176 177 0
244 243 176 0
177 183 244 0
244 183 248 0
246 251 186 0
246 186 245 0
245 186 179 0
186 185 179 0
185 178 179 0
179 178 181 0
179 181 182 0
182 181 180 0
250 248 183 0
250 183 184 0
184 188 250 0
250 188 253 0
186 251 190 0
190 251 257 0
193 187 185 0
186 193 185 0
190 193 186 0
193 191 187 0
255 253 188 0
255 188 189 0
189 194 255 0
255 194 259 0
190 257 197 0
197 257 261 0
197 196 192 0
193 197 192 0
190 197 193 0
193 192 191 0
194 195 199 0
263 194 199 0
259 194 263 0
198 199 195 0
197 261 202 0
202 261 266 0
202 201 196 0
202 196 197 0
265 263 199 0
268 265 204 0
204 265 200 0
265 199 200 0
199 198 200 0
203 204 200 0
202 266 206 0
206 266 270 0
206 205 201 0
206 201 202 0
268 204 208 0
268 208 272 0
207 208 203 0
203 208 204 0
206 270 210 0
210 270 275 0
210 209 205 0
210 205 206 0
274 272 208 0
208 207 274 0
207 278 274 0
207 212 278 0
275 277 210 0
277 280 214 0
277 214 211 0
210 277 211 0
209 210 211 0
214 213 211 0
215 278 212 0
215 282 278 0
214 280 217 0
217 280 284 0
217 216 213 0
217 213 214 0
219 282 215 0
219 287 282 0
284 286 217 0
286 289 221 0
286 221 218 0
217 286 218 0
216 217 218 0
221 220 218 0
222 287 219 0
222 291 287 0
221 289 225 0
225 289 294 0
225 224 220 0
225 220 221 0
297 292 223 0
297 223 230 0
222 223 291 0
291 223 292 0
294 295 225 0
295 300 232 0
295 232 226 0
225 295 226 0
224 225 226 0
233 227 226 0
233 226 232 0
235 228 227 0
235 227 233 0
235 234 228 0
305 296 229 0
305 229 237 0
229 298 231 0
296 298 229 0
230 231 297 0
297 231 298 0
300 301 232 0
232 301 233 0
233 301 302 0
233 302 235 0
235 302 303 0
235 303 234 0
303 236 234 0
303 304 236 0
236 306 238 0
304 306 236 0
237 238 305 0
305 238 306 0
308 314 247 0
245 239 247 0
239 308 247 0
239 309 308 0
310 239 240 0
310 309 239 0
311 240 241 0
311 310 240 0
312 241 242 0
312 311 241 0
313 242 243 0
313 312 242 0
317 313 249 0
313 244 249 0
313 243 244 0
248 249 244 0
315 319 252 0
315 252 314 0
314 252 247 0
252 251 247 0
251 246 247 0
247 246 245 0
318 317 249 0
322 318 254 0
254 318 250 0
318 249 250 0
249 248 250 0
253 254 250 0
320 324 256 0
320 256 319 0
256 252 319 0
256 258 252 0
258 257 251 0
258 251 252 0
323 322 254 0
327 323 260 0
260 323 255 0
323 254 255 0
254 253 255 0
259 260 255 0
324 326 256 0
329 262 326 0
262 256 326 0
262 258 256 0
262 261 257 0
262 257 258 0
327 260 264 0
327 264 331 0
263 264 259 0
259 264 260 0
262 329 267 0
267 329 333 0
267 266 261 0
267 261 262 0
332 331 264 0
335 332 269 0
269 332 265 0
332 264 265 0
264 263 265 0
268 269 265 0
267 333 271 0
271 333 337 0
271 270 266 0
271 266 267 0
335 269 273 0
335 273 338 0
272 273 268 0
268 273 269 0
271 337 276 0
276 337 340 0
276 275 270 0
276 270 271 0
339 338 273 0
342 339 279 0
279 339 274 0
339 273 274 0
273 272 274 0
278 279 274 0
340 341 276 0
341 344 281 0
341 281 277 0
276 341 277 0
275 276 277 0
281 280 277 0
342 279 283 0
342 283 346 0
282 283 278 0
278 283 279 0
281 344 285 0
285 344 348 0
285 284 280 0
285 280 281 0
346 283 288 0
346 288 351 0
287 288 282 0
282 288 283 0
348 350 285 0
350 353 290 0
350 290 286 0
285 350 286 0
284 285 286 0
290 289 286 0
351 288 293 0
351 293 356 0
291 293 287 0
287 293 288 0
353 355 290 0
289 290 355 0
359 289 355 0
294 289 359 0
363 357 299 0
299 357 356 0
299 356 293 0
297 299 293 0
292 297 293 0
292 293 291 0
359 361 294 0
294 361 295 0
300 295 361 0
300 361 366 0
371 362 307 0
296 305 307 0
362 296 307 0
364 296 362 0
299 298 363 0
298 364 363 0
298 296 364 0
298 299 297 0
366 368 300 0
300 368 301 0
301 369 302 0
368 369 301 0
302 370 303 0
369 370 302 0
303 372 304 0
370 372 303 0
307 306 371 0
306 372 371 0
306 304 372 0
306 307 305 0
376 383 316 0
314 308 316 0
308 376 316 0
308 377 376 0
378 308 309 0
378 377 308 0
379 309 310 0
379 378 309 0
380 310 311 0
380 379 310 0
381 311 312 0
381 380 311 0
382 312 313 0
382 381 312 0
313 317 382 0
382 317 386 0
384 389 321 0
384 321 383 0
383 321 316 0
321 319 316 0
319 315 316 0
316 315 314 0
388 386 317 0
388 317 318 0
318 322 388 0
388 322 392 0
390 394 325 0
390 325 389 0
389 325 321 0
325 324 321 0
324 320 321 0
321 320 319 0
322 323 328 0
396 322 328 0
392 322 396 0
327 328 323 0
394 395 325 0
395 398 330 0
395 330 326 0
325 395 326 0
324 325 326 0
330 329 326 0
397 396 328 0
328 327 397 0
327 400 397 0
327 331 400 0
330 398 334 0
334 398 402 0
334 333 329 0
334 329 330 0
331 332 336 0
405 331 336 0
400 331 405 0
335 336 332 0
402 404 334 0
333 334 404 0
408 333 404 0
337 333 408 0
407 405 336 0
336 335 407 0
335 410 407 0
335 338 410 0
408 340 337 0
412 340 408 0
338 339 343 0
414 338 343 0
410 338 414 0
342 343 339 0
341 340 345 0
340 416 345 0
340 412 416 0
345 344 341 0
414 343 347 0
414 347 417 0
346 347 342 0
342 347 343 0
345 416 349 0
349 416 419 0
349 348 344 0
349 344 345 0
417 347 352 0
417 352 421 0
351 352 346 0
346 352 347 0
419 420 349 0
420 423 354 0
420 354 350 0
349 420 350 0
348 349 350 0
354 353 350 0
421 352 358 0
421 358 425 0
356 358 351 0
351 358 352 0
423 424 354 0
424 428 360 0
424 360 355 0
354 424 355 0
353 354 355 0
360 359 355 0
431 426 365 0
365 426 425 0
365 425 358 0
363 365 358 0
357 363 358 0
357 358 356 0
428 430 360 0
430 434 367 0
430 367 361 0
360 430 361 0
359 360 361 0
367 366 361 0
437 432 362 0
437 362 371 0
365 364 431 0
364 432 431 0
364 362 432 0
364 365 363 0
434 436 367 0
436 440 373 0
436 373 368 0
367 436 368 0
366 367 368 0
374 369 368 0
374 368 373 0
375 370 369 0
375 369 374 0
370 375 444 0
438 370 444 0
372 370 438 0
371 372 437 0
437 372 438 0
440 442 373 0
373 442 374 0
374 442 443 0
374 443 375 0
375 443 445 0
375 445 444 0
447 454 385 0
383 376 385 0
376 447 385 0
376 448 447 0
449 376 377 0
449 448 376 0
450 377 378 0
450 449 377 0
451 378 379 0
451 450 378 0
452 379 380 0
452 451 379 0
453 380 381 0
453 452 380 0
460 453 387 0
453 382 387 0
453 381 382 0
386 387 382 0
455 463 391 0
455 391 454 0
454 391 385 0
391 389 385 0
389 384 385 0
385 384 383 0
462 460 387 0
464 462 393 0
393 462 388 0
462 387 388 0
387 386 388 0
392 393 388 0
391 463 390 0
463 394 390 0
463 467 394 0
391 390 389 0
466 464 393 0
393 392 466 0
392 468 466 0
392 396 468 0
395 394 399 0
394 470 399 0
394 467 470 0
399 398 395 0
396 397 401 0
471 396 401 0
468 396 471 0
400 401 397 0
399 470 403 0
403 470 473 0
403 402 398 0
403 398 399 0
471 401 406 0
471 406 475 0
405 406 400 0
400 406 401 0
473 474 403 0
474 478 409 0
474 409 404 0
403 474 404 0
402 403 404 0
409 408 404 0
477 475 406 0
480 477 411 0
411 477 407 0
477 406 407 0
406 405 407 0
410 411 407 0
409 478 413 0
413 478 482 0
413 412 408 0
413 408 409 0
480 411 415 0
480 415 484 0
414 415 410 0
410 415 411 0
482 483 413 0
412 413 483 0
486 412 483 0
416 412 486 0
484 415 418 0
484 418 488 0
417 418 414 0
414 418 415 0
486 419 416 0
490 419 486 0
488 418 422 0
488 422 492 0
421 422 417 0
417 422 418 0
490 491 419 0
419 491 420 0
423 420 491 0
423 491 494 0
492 422 427 0
492 427 495 0
425 427 421 0
421 427 422 0
424 423 429 0
423 498 429 0
423 494 498 0
429 428 424 0
500 496 433 0
433 496 495 0
433 495 427 0
431 433 427 0
426 431 427 0
426 427 425 0
498 499 429 0
499 503 435 0
499 435 430 0
429 499 430 0
428 429 430 0
435 434 430 0
505 501 439 0
439 501 500 0
439 500 433 0
437 439 433 0
432 437 433 0
432 433 431 0
503 504 435 0
504 508 441 0
504 441 436 0
435 504 436 0
434 435 436 0
441 440 436 0
511 506 446 0
446 506 505 0
446 505 439 0
444 446 439 0
438 444 439 0
438 439 437 0
508 509 441 0
441 509 440 0
509 442 440 0
509 510 442 0
442 512 443 0
510 512 442 0
446 445 511 0
445 512 511 0
445 443 512 0
445 446 444 0
514 516 447 0
447 516 454 0
515 447 448 0
515 514 447 0
519 515 456 0
515 449 456 0
515 448 449 0
450 457 449 0
449 457 456 0
451 458 450 0
450 458 457 0
452 459 451 0
451 459 458 0
453 461 452 0
452 461 459 0
460 461 453 0
517 526 455 0
455 526 463 0
455 454 516 0
455 516 517 0
521 519 456 0
521 456 457 0
521 457 522 0
522 457 458 0
522 458 523 0
523 458 459 0
523 459 524 0
524 459 461 0
524 461 525 0
530 525 465 0
465 525 462 0
525 461 462 0
461 460 462 0
464 465 462 0
526 467 463 0
533 467 526 0
532 530 465 0
536 532 469 0
469 532 466 0
532 465 466 0
465 464 466 0
468 469 466 0
533 470 467 0
538 470 533 0
536 469 472 0
536 472 541 0
471 472 468 0
468 472 469 0
538 473 470 0
543 473 538 0
541 472 476 0
541 476 546 0
475 476 471 0
471 476 472 0
543 544 473 0
473 544 474 0
478 474 544 0
478 544 548 0
546 476 479 0
546 479 550 0
477 481 475 0
481 476 475 0
481 479 476 0
480 481 477 0
548 482 478 0
553 482 548 0
552 550 479 0
485 555 552 0
479 485 552 0
481 485 479 0
484 485 480 0
480 485 481 0
483 482 487 0
482 557 487 0
482 553 557 0
487 486 483 0
555 485 489 0
555 489 560 0
488 489 484 0
484 489 485 0
557 558 487 0
486 487 558 0
562 486 558 0
490 486 562 0
560 489 493 0
560 493 565 0
492 493 488 0
488 493 489 0
562 563 490 0
490 563 491 0
494 491 563 0
494 563 567 0
565 493 497 0
565 497 570 0
495 497 492 0
492 497 493 0
567 498 494 0
573 498 567 0
575 571 502 0
502 571 570 0
502 570 497 0
500 502 497 0
496 500 497 0
496 497 495 0
573 574 498 0
498 574 499 0
503 499 574 0
503 574 578 0
580 576 507 0
507 576 575 0
507 575 502 0
505 507 502 0
501 505 502 0
501 502 500 0
578 579 503 0
503 579 504 0
508 504 579 0
508 579 583 0
586 581 513 0
513 581 580 0
513 580 507 0
511 513 507 0
506 511 507 0
506 507 505 0
583 584 508 0
508 584 509 0
509 587 510 0
584 587 509 0
513 512 586 0
512 587 586 0
512 510 587 0
512 513 511 0
518 516 514 0
515 520 514 0
514 520 518 0
519 520 515 0
527 526 517 0
593 527 517 0
593 517 516 0
589 593 516 0
518 589 516 0
589 518 520 0
589 520 590 0
590 520 519 0
521 590 519 0
591 590 521 0
592 521 522 0
592 591 521 0
598 592 528 0
592 523 528 0
592 522 523 0
524 529 523 0
523 529 528 0
525 531 524 0
524 531 529 0
530 531 525 0
594 601 527 0
601 526 527 0
601 533 526 0
594 527 593 0
600 598 528 0
534 603 600 0
528 534 600 0
529 534 528 0
535 529 531 0
534 529 535 0
532 537 530 0
537 531 530 0
537 535 531 0
536 537 532 0
601 538 533 0
605 538 601 0
603 534 539 0
603 539 606 0
540 534 535 0
539 534 540 0
542 535 537 0
540 535 542 0
541 542 536 0
536 542 537 0
605 543 538 0
609 543 605 0
608 606 539 0
545 610 608 0
539 545 608 0
540 545 539 0
547 540 542 0
545 540 547 0
546 547 541 0
541 547 542 0
544 543 549 0
543 613 549 0
543 609 613 0
549 548 544 0
612 610 545 0
551 615 612 0
545 551 612 0
547 551 545 0
550 551 546 0
546 551 547 0
613 614 549 0
548 549 614 0
617 548 614 0
553 548 617 0
615 551 554 0
615 554 618 0
552 556 550 0
556 551 550 0
556 554 551 0
555 556 552 0
617 557 553 0
620 557 617 0
618 554 559 0
618 559 622 0
561 554 556 0
559 554 561 0
560 561 555 0
555 561 556 0
620 621 557 0
557 621 558 0
562 558 621 0
562 621 624 0
622 559 564 0
622 564 625 0
566 559 561 0
564 559 566 0
565 566 560 0
560 566 561 0
563 562 568 0
562 627 568 0
562 624 627 0
568 567 563 0
625 564 569 0
625 569 630 0
572 564 566 0
569 564 572 0
570 572 565 0
565 572 566 0
627 628 568 0
567 568 628 0
632 567 628 0
573 567 632 0
630 569 577 0
630 577 636 0
575 577 571 0
577 572 571 0
577 569 572 0
571 572 570 0
632 633 573 0
573 633 574 0
578 574 633 0
578 633 639 0
644 637 582 0
582 637 636 0
582 636 577 0
580 582 577 0
576 580 577 0
576 577 575 0
639 640 578 0
578 640 579 0
642 585 583 0
579 642 583 0
640 642 579 0
645 588 585 0
645 585 642 0
588 645 644 0
588 644 582 0
586 588 582 0
581 586 582 0
581 582 580 0
585 584 583 0
584 585 587 0
587 585 588 0
587 588 586 0
595 593 589 0
590 596 589 0
589 596 595 0
591 597 590 0
590 597 596 0
592 599 591 0
591 599 597 0
598 599 592 0
602 601 594 0
651 602 594 0
651 594 593 0
647 651 593 0
595 647 593 0
647 595 596 0
647 596 648 0
648 596 597 0
648 597 649 0
649 597 599 0
649 599 650 0
656 650 604 0
604 650 600 0
650 599 600 0
599 598 600 0
603 604 600 0
652 658 602 0
658 601 602 0
658 605 601 0
652 602 651 0
656 604 607 0
656 607 661 0
606 607 603 0
603 607 604 0
658 609 605 0
664 609 658 0
663 661 607 0
665 663 611 0
611 663 608 0
663 607 608 0
607 606 608 0
610 611 608 0
664 613 609 0
668 613 664 0
667 665 611 0
670 667 616 0
616 667 612 0
667 611 612 0
611 610 612 0
615 616 612 0
668 669 613 0
613 669 614 0
617 614 669 0
617 669 672 0
670 616 619 0
670 619 673 0
618 619 615 0
615 619 616 0
672 620 617 0
675 620 672 0
673 619 623 0
673 623 678 0
622 623 618 0
618 623 619 0
675 676 620 0
620 676 621 0
624 621 676 0
624 676 680 0
678 623 626 0
678 626 684 0
625 626 622 0
622 626 623 0
629 627 681 0
627 680 681 0
627 624 680 0
686 629 681 0
684 626 631 0
684 631 691 0
630 631 625 0
625 631 626 0
629 628 627 0
687 634 632 0
687 632 628 0
686 687 628 0
629 686 628 0
694 634 687 0
697 692 635 0
635 692 691 0
631 635 691 0
638 635 631 0
636 638 630 0
630 638 631 0
634 633 632 0
695 641 639 0
695 639 633 0
694 695 633 0
634 694 633 0
698 643 641 0
698 641 695 0
643 698 697 0
635 643 697 0
646 643 635 0
644 646 637 0
646 638 637 0
646 635 638 0
637 638 636 0
641 640 639 0
640 641 642 0
642 641 643 0
642 643 645 0
645 643 646 0
645 646 644 0
653 651 647 0
648 654 647 0
647 654 653 0
649 655 648 0
648 655 654 0
650 657 649 0
649 657 655 0
656 657 650 0
659 658 652 0
702 659 652 0
702 652 651 0
700 702 651 0
653 700 651 0
700 653 654 0
700 654 701 0
660 705 701 0
654 660 701 0
655 660 654 0
662 655 657 0
660 655 662 0
661 662 656 0
656 662 657 0
703 709 659 0
709 658 659 0
709 664 658 0
703 659 702 0
707 705 660 0
707 660 662 0
707 662 708 0
712 708 666 0
666 708 663 0
708 662 663 0
662 661 663 0
665 666 663 0
709 668 664 0
715 668 709 0
714 712 666 0
719 714 671 0
671 714 667 0
714 666 667 0
666 665 667 0
670 671 667 0
715 716 668 0
668 716 669 0
672 669 716 0
672 716 721 0
719 671 674 0
719 674 725 0
673 674 670 0
670 674 671 0
677 675 722 0
675 721 722 0
675 672 721 0
727 677 722 0
725 674 679 0
725 679 732 0
678 679 673 0
673 679 674 0
677 676 675 0
728 682 680 0
728 680 676 0
727 728 676 0
677 727 676 0
735 682 728 0
738 733 683 0
683 733 732 0
679 683 732 0
685 683 679 0
684 685 678 0
678 685 679 0
682 681 680 0
736 688 686 0
736 686 681 0
735 736 681 0
682 735 681 0
739 689 688 0
739 688 736 0
689 739 738 0
683 689 738 0
690 689 683 0
693 683 685 0
690 683 693 0
691 693 684 0
684 693 685 0
688 687 686 0
687 688 694 0
688 696 694 0
688 689 696 0
699 689 690 0
696 689 699 0
697 699 692 0
699 693 692 0
699 690 693 0
692 693 691 0
696 695 694 0
695 696 698 0
698 696 699 0
698 699 697 0
704 702 700 0
701 706 700 0
700 706 704 0
705 706 701 0
710 709 703 0
743 710 703 0
743 703 702 0
741 743 702 0
704 741 702 0
741 704 706 0
741 706 742 0
745 742 711 0
711 742 707 0
742 706 707 0
706 705 707 0
708 713 707 0
707 713 711 0
712 713 708 0
717 715 710 0
710 715 709 0
710 743 748 0
710 748 717 0
747 745 711 0
718 752 747 0
711 718 747 0
713 718 711 0
714 720 712 0
720 713 712 0
720 718 713 0
719 720 714 0
717 716 715 0
749 723 721 0
749 721 716 0
748 749 716 0
717 748 716 0
754 723 749 0
752 718 724 0
752 724 757 0
726 718 720 0
724 718 726 0
725 726 719 0
719 726 720 0
723 722 721 0
755 729 727 0
755 727 722 0
754 755 722 0
723 754 722 0
758 730 729 0
758 729 755 0
730 758 757 0
724 730 757 0
731 730 724 0
734 724 726 0
731 724 734 0
