#!ascii version of /Users/gilles/git/nukkies/notebooks/data/RSIT_STh_R.asc
486 968
-6.732819  -54.232483  -31.849644  0
-7.232819  -54.232483  -31.849644  0
-7.732819  -54.232483  -31.849644  0
-8.232819  -54.232483  -31.849644  0
-7.232819  -54.732483  -31.849644  0
-7.732819  -54.732483  -31.849644  0
-8.232819  -54.732483  -31.849644  0
-7.732819  -55.232483  -31.849644  0
-8.232819  -55.232483  -31.849644  0
-7.232819  -55.732483  -31.849644  0
-7.732819  -55.732483  -31.849644  0
-8.232819  -55.732483  -31.849644  0
-9.232819  -52.732483  -31.349642  0
-8.732819  -53.232483  -31.349642  0
-9.232819  -53.232483  -31.349642  0
-9.732819  -53.232483  -31.349642  0
-6.732819  -53.982483  -31.599644  0
-7.232819  -53.982483  -31.599644  0
-7.732819  -53.982483  -31.599644  0
-7.732819  -53.732483  -31.349642  0
-8.232819  -53.982483  -31.599644  0
-8.232819  -53.732483  -31.349642  0
-8.732819  -53.732483  -31.349642  0
-9.232819  -53.732483  -31.349642  0
-9.732819  -53.732483  -31.349642  0
-6.482819  -54.232483  -31.599644  0
-6.732819  -54.482483  -31.599644  0
-8.482819  -54.232483  -31.599644  0
-8.732819  -54.232483  -31.349642  0
-9.232819  -54.232483  -31.349642  0
-9.732819  -54.232483  -31.349642  0
-6.982819  -54.732483  -31.599644  0
-6.732819  -54.732483  -31.349642  0
-7.232819  -54.982483  -31.599644  0
-8.482819  -54.732483  -31.599644  0
-8.732819  -54.732483  -31.349642  0
-9.232819  -54.732483  -31.349642  0
-9.732819  -54.732483  -31.349642  0
-7.482819  -55.232483  -31.599644  0
-7.232819  -55.482483  -31.599644  0
-7.232819  -55.232483  -31.349642  0
-8.482819  -55.232483  -31.599644  0
-8.732819  -55.232483  -31.349642  0
-9.232819  -55.232483  -31.349642  0
-6.982819  -55.732483  -31.599644  0
-7.232819  -55.982483  -31.599644  0
-7.732819  -55.982483  -31.599644  0
-8.482819  -55.732483  -31.599644  0
-8.232819  -55.982483  -31.599644  0
-8.732819  -55.732483  -31.349642  0
-9.232819  -55.732483  -31.349642  0
-8.732819  -52.232483  -30.849638  0
-9.232819  -52.482483  -31.099640  0
-9.232819  -52.232483  -30.849638  0
-9.732819  -52.232483  -30.849638  0
-10.232819  -52.232483  -30.849638  0
-8.232819  -52.732483  -30.849638  0
-8.982819  -52.732483  -31.099640  0
-8.732819  -52.982483  -31.099640  0
-8.732819  -52.732483  -30.849638  0
-9.482819  -52.732483  -31.099640  0
-9.732819  -52.982483  -31.099640  0
-9.732819  -52.732483  -30.849638  0
-10.232819  -52.732483  -30.849638  0
-7.732819  -53.482483  -31.099640  0
-7.732819  -53.232483  -30.849638  0
-8.482819  -53.232483  -31.099640  0
-8.232819  -53.482483  -31.099640  0
-8.232819  -53.232483  -30.849638  0
-9.982819  -53.232483  -31.099640  0
-10.232819  -53.232483  -30.849638  0
-6.732819  -53.982483  -31.099640  0
-7.482819  -53.732483  -31.099640  0
-7.232819  -53.982483  -31.099640  0
-9.982819  -53.732483  -31.099640  0
-10.232819  -53.732483  -30.849638  0
-6.482819  -54.232483  -31.099640  0
-6.732819  -54.232483  -30.849638  0
-9.982819  -54.232483  -31.099640  0
-10.232819  -54.232483  -30.849638  0
-6.482819  -54.732483  -31.099640  0
-6.732819  -54.982483  -31.099640  0
-6.732819  -54.732483  -30.849638  0
-9.982819  -54.732483  -31.099640  0
-9.732819  -54.982483  -31.099640  0
-10.232819  -54.732483  -30.849638  0
-6.982819  -55.232483  -31.099640  0
-9.482819  -55.232483  -31.099640  0
-9.732819  -55.232483  -30.849638  0
-10.232819  -55.232483  -30.849638  0
-6.982819  -55.732483  -31.099640  0
-7.232819  -55.982483  -31.099640  0
-7.232819  -55.732483  -30.849638  0
-7.732819  -55.982483  -31.099640  0
-8.232819  -55.982483  -31.099640  0
-8.732819  -55.982483  -31.099640  0
-9.482819  -55.732483  -31.099640  0
-9.232819  -55.982483  -31.099640  0
-9.732819  -55.732483  -30.849638  0
-10.232819  -55.732483  -30.849638  0
-9.732819  -56.232483  -30.849638  0
-8.732819  -51.982483  -30.599636  0
-9.232819  -51.982483  -30.599636  0
-9.232819  -51.732483  -30.349634  0
-9.732819  -51.982483  -30.599636  0
-9.732819  -51.732483  -30.349634  0
-10.232819  -51.982483  -30.599636  0
-10.232819  -51.732483  -30.349634  0
-8.482819  -52.232483  -30.599636  0
-8.232819  -52.482483  -30.599636  0
-10.482819  -52.232483  -30.599636  0
-10.732819  -52.232483  -30.349634  0
-7.982819  -52.732483  -30.599636  0
-7.732819  -52.982483  -30.599636  0
-8.232819  -52.732483  -30.349634  0
-10.482819  -52.732483  -30.599636  0
-10.732819  -52.732483  -30.349634  0
-7.482819  -53.232483  -30.599636  0
-10.482819  -53.232483  -30.599636  0
-10.732819  -53.232483  -30.349634  0
-7.482819  -53.732483  -30.599636  0
-7.232819  -53.982483  -30.599636  0
-10.482819  -53.732483  -30.599636  0
-10.732819  -53.732483  -30.349634  0
-6.982819  -54.232483  -30.599636  0
-7.232819  -54.232483  -30.349634  0
-10.482819  -54.232483  -30.599636  0
-10.732819  -54.232483  -30.349634  0
-6.982819  -54.732483  -30.599636  0
-7.232819  -54.732483  -30.349634  0
-10.482819  -54.732483  -30.599636  0
-10.732819  -54.732483  -30.349634  0
-6.982819  -55.232483  -30.599636  0
-7.232819  -55.482483  -30.599636  0
-7.232819  -55.232483  -30.349634  0
-10.482819  -55.232483  -30.599636  0
-10.732819  -55.232483  -30.349634  0
-7.482819  -55.732483  -30.599636  0
-7.732819  -55.982483  -30.599636  0
-7.732819  -55.732483  -30.349634  0
-8.232819  -55.982483  -30.599636  0
-8.732819  -55.982483  -30.599636  0
-9.232819  -55.982483  -30.599636  0
-10.482819  -55.732483  -30.599636  0
-10.232819  -55.982483  -30.599636  0
-10.732819  -55.732483  -30.349634  0
-9.482819  -56.232483  -30.599636  0
-9.232819  -56.232483  -30.349634  0
-9.982819  -56.232483  -30.599636  0
-9.732819  -56.482483  -30.599636  0
-10.232819  -56.232483  -30.349634  0
-10.732819  -56.232483  -30.349634  0
-9.232819  -51.482483  -30.099632  0
-9.732819  -51.482483  -30.099632  0
-9.732819  -51.232483  -29.849630  0
-10.232819  -51.482483  -30.099632  0
-10.232819  -51.232483  -29.849630  0
-8.982819  -51.732483  -30.099632  0
-8.732819  -51.982483  -30.099632  0
-10.482819  -51.732483  -30.099632  0
-10.732819  -51.982483  -30.099632  0
-10.732819  -51.732483  -29.849630  0
-8.482819  -52.232483  -30.099632  0
-8.732819  -52.232483  -29.849630  0
-10.982819  -52.232483  -30.099632  0
-7.732819  -52.982483  -30.099632  0
-8.482819  -52.732483  -30.099632  0
-8.232819  -52.982483  -30.099632  0
-10.982819  -52.732483  -30.099632  0
-11.232819  -52.732483  -29.849630  0
-7.482819  -53.232483  -30.099632  0
-7.732819  -53.232483  -29.849630  0
-8.232819  -53.232483  -29.849630  0
-10.982819  -53.232483  -30.099632  0
-11.232819  -53.232483  -29.849630  0
-7.482819  -53.732483  -30.099632  0
-7.732819  -53.732483  -29.849630  0
-8.232819  -53.732483  -29.849630  0
-10.982819  -53.732483  -30.099632  0
-11.232819  -53.732483  -29.849630  0
-7.482819  -54.232483  -30.099632  0
-7.732819  -54.232483  -29.849630  0
-10.982819  -54.232483  -30.099632  0
-11.232819  -54.232483  -29.849630  0
-7.482819  -54.732483  -30.099632  0
-7.732819  -54.732483  -29.849630  0
-10.982819  -54.732483  -30.099632  0
-11.232819  -54.732483  -29.849630  0
-7.482819  -55.232483  -30.099632  0
-7.732819  -55.482483  -30.099632  0
-7.732819  -55.232483  -29.849630  0
-10.982819  -55.232483  -30.099632  0
-7.982819  -55.732483  -30.099632  0
-8.232819  -55.982483  -30.099632  0
-8.732819  -55.982483  -30.099632  0
-10.982819  -55.732483  -30.099632  0
-8.982819  -56.232483  -30.099632  0
-9.232819  -56.482483  -30.099632  0
-9.732819  -56.482483  -30.099632  0
-10.232819  -56.482483  -30.099632  0
-10.982819  -56.232483  -30.099632  0
-10.732819  -56.482483  -30.099632  0
-9.732819  -50.982483  -29.599628  0
-10.232819  -50.982483  -29.599628  0
-9.482819  -51.232483  -29.599628  0
-9.232819  -51.482483  -29.599628  0
-9.732819  -51.232483  -29.349628  0
-10.482819  -51.232483  -29.599628  0
-10.732819  -51.482483  -29.599628  0
-10.732819  -51.232483  -29.349628  0
-8.982819  -51.732483  -29.599628  0
-9.232819  -51.732483  -29.349628  0
-10.982819  -51.732483  -29.599628  0
-11.232819  -51.732483  -29.349628  0
-8.982819  -52.232483  -29.599628  0
-8.732819  -52.482483  -29.599628  0
-9.232819  -52.232483  -29.349628  0
-10.982819  -52.232483  -29.599628  0
-11.232819  -52.482483  -29.599628  0
-11.232819  -52.232483  -29.349628  0
-8.482819  -52.732483  -29.599628  0
-8.732819  -52.732483  -29.349628  0
-11.482819  -52.732483  -29.599628  0
-11.732819  -52.732483  -29.349628  0
-8.482819  -53.232483  -29.599628  0
-8.732819  -53.232483  -29.349628  0
-11.482819  -53.232483  -29.599628  0
-11.732819  -53.232483  -29.349628  0
-8.482819  -53.732483  -29.599628  0
-8.232819  -53.982483  -29.599628  0
-8.732819  -53.732483  -29.349628  0
-11.482819  -53.732483  -29.599628  0
-11.732819  -53.732483  -29.349628  0
-7.982819  -54.232483  -29.599628  0
-8.232819  -54.232483  -29.349628  0
-11.482819  -54.232483  -29.599628  0
-11.732819  -54.232483  -29.349628  0
-7.982819  -54.732483  -29.599628  0
-8.232819  -54.732483  -29.349628  0
-11.482819  -54.732483  -29.599628  0
-11.232819  -54.982483  -29.599628  0
-7.982819  -55.232483  -29.599628  0
-8.232819  -55.232483  -29.349628  0
-10.982819  -55.232483  -29.599628  0
-11.232819  -55.232483  -29.349628  0
-7.982819  -55.732483  -29.599628  0
-8.232819  -55.982483  -29.599628  0
-8.232819  -55.732483  -29.349628  0
-8.732819  -55.982483  -29.599628  0
-8.732819  -55.732483  -29.349628  0
-10.982819  -55.732483  -29.599628  0
-11.232819  -55.732483  -29.349628  0
-8.982819  -56.232483  -29.599628  0
-9.232819  -56.482483  -29.599628  0
-9.232819  -56.232483  -29.349628  0
-9.732819  -56.482483  -29.599628  0
-10.232819  -56.482483  -29.599628  0
-10.982819  -56.232483  -29.599628  0
-10.732819  -56.482483  -29.599628  0
-10.232819  -50.982483  -29.099627  0
-10.732819  -50.982483  -29.099627  0
-9.982819  -51.232483  -29.099627  0
-9.732819  -51.482483  -29.099627  0
-10.232819  -51.232483  -28.849625  0
-10.982819  -51.232483  -29.099627  0
-10.732819  -51.232483  -28.849625  0
-11.232819  -51.482483  -29.099627  0
-9.482819  -51.732483  -29.099627  0
-9.732819  -51.732483  -28.849625  0
-11.482819  -51.732483  -29.099627  0
-9.482819  -52.232483  -29.099627  0
-9.232819  -52.482483  -29.099627  0
-11.482819  -52.232483  -29.099627  0
-11.732819  -52.482483  -29.099627  0
-11.732819  -52.232483  -28.849625  0
-8.982819  -52.732483  -29.099627  0
-9.232819  -52.732483  -28.849625  0
-11.982819  -52.732483  -29.099627  0
-12.232819  -52.732483  -28.849625  0
-8.982819  -53.232483  -29.099627  0
-9.232819  -53.232483  -28.849625  0
-11.982819  -53.232483  -29.099627  0
-12.232819  -53.232483  -28.849625  0
-8.982819  -53.732483  -29.099627  0
-8.732819  -53.982483  -29.099627  0
-9.232819  -53.732483  -28.849625  0
-11.982819  -53.732483  -29.099627  0
-12.233594  -53.732590  -28.849609  0
-8.482819  -54.232483  -29.099627  0
-8.732819  -54.232483  -28.849625  0
-9.232819  -54.232483  -28.849625  0
-11.984112  -54.232224  -29.099325  0
-11.733271  -54.482216  -29.099417  0
-12.235685  -54.232491  -28.849316  0
-8.482819  -54.732483  -29.099627  0
-8.732819  -54.732483  -28.849625  0
-9.232819  -54.732483  -28.849625  0
-11.482819  -54.732483  -29.099627  0
-11.733253  -54.730370  -28.848940  0
-8.482819  -55.232483  -29.099627  0
-8.732819  -55.482483  -29.099627  0
-8.732819  -55.232483  -28.849625  0
-9.232819  -55.232483  -28.849625  0
-11.482551  -55.232189  -29.099640  0
-11.730523  -55.226360  -28.848616  0
-8.982819  -55.732483  -29.099627  0
-9.232819  -55.982483  -29.099627  0
-9.232819  -55.732483  -28.849625  0
-11.481701  -55.731293  -29.099684  0
-11.232819  -55.982483  -29.099627  0
-11.728134  -55.725037  -28.848982  0
-9.482819  -56.232483  -29.099627  0
-9.732819  -56.482483  -29.099627  0
-9.732819  -56.232483  -28.849625  0
-10.232819  -56.482483  -29.099627  0
-10.982819  -56.232483  -29.099627  0
-10.732819  -56.482483  -29.099627  0
-11.232819  -56.232483  -28.849625  0
-10.232819  -51.482483  -28.599623  0
-10.732819  -51.482483  -28.599623  0
-11.232819  -51.482483  -28.599623  0
-9.982819  -51.732483  -28.599623  0
-9.732819  -51.982483  -28.599623  0
-10.232819  -51.732483  -28.349621  0
-10.732819  -51.732483  -28.349621  0
-11.482819  -51.732483  -28.599623  0
-11.732819  -51.982483  -28.599623  0
-9.482819  -52.232483  -28.599623  0
-9.732819  -52.232483  -28.349621  0
-10.232819  -52.232483  -28.349621  0
-10.732819  -52.232483  -28.349621  0
-11.982819  -52.232483  -28.599623  0
-12.232819  -52.482483  -28.599623  0
-12.232819  -52.232483  -28.349621  0
-9.482819  -52.732483  -28.599623  0
-9.732819  -52.732483  -28.349621  0
-10.232819  -52.732483  -28.349621  0
-12.482819  -52.732483  -28.599623  0
-9.482819  -53.232483  -28.599623  0
-9.732819  -53.232483  -28.349621  0
-12.482819  -53.232483  -28.599623  0
-9.482819  -53.732483  -28.599623  0
-12.483594  -53.732590  -28.599607  0
-9.482819  -54.232483  -28.599623  0
-12.488996  -54.235191  -28.602520  0
-12.240305  -54.483765  -28.601295  0
-9.482819  -54.732483  -28.599623  0
-11.986904  -54.729916  -28.598171  0
-12.236984  -54.730434  -28.353542  0
-9.482819  -55.232483  -28.599623  0
-9.732819  -55.232483  -28.349621  0
-11.982511  -55.222702  -28.596876  0
-12.214521  -55.212738  -28.351059  0
-9.482819  -55.732483  -28.599623  0
-9.732819  -55.982483  -28.599623  0
-9.732819  -55.732483  -28.349621  0
-11.966267  -55.711224  -28.597858  0
-11.726850  -55.974300  -28.599051  0
-12.191853  -55.694992  -28.349558  0
-9.982819  -56.232483  -28.599623  0
-10.232819  -56.482483  -28.599623  0
-10.232819  -56.232483  -28.349621  0
-10.732819  -56.482483  -28.599623  0
-11.481656  -56.231247  -28.599680  0
-11.231667  -56.481258  -28.599680  0
-11.727588  -56.226833  -28.349600  0
-11.232819  -51.482483  -28.099619  0
-10.982819  -51.732483  -28.099619  0
-11.482819  -51.732483  -28.099619  0
-11.232819  -51.732483  -27.849617  0
-11.732819  -51.982483  -28.099619  0
-12.232819  -51.982483  -28.099619  0
-10.982819  -52.232483  -28.099619  0
-10.732819  -52.482483  -28.099619  0
-11.232819  -52.232483  -27.849617  0
-11.732819  -52.232483  -27.849617  0
-12.482819  -52.232483  -28.099619  0
-10.482819  -52.732483  -28.099619  0
-10.232819  -52.982483  -28.099619  0
-10.732819  -52.732483  -27.849617  0
-11.232819  -52.732483  -27.849617  0
-12.482819  -52.732483  -28.099619  0
-9.982819  -53.232483  -28.099619  0
-9.732819  -53.482483  -28.099619  0
-10.232819  -53.232483  -27.849617  0
-10.732819  -53.232483  -27.849617  0
-12.482819  -53.232483  -28.099619  0
-9.482819  -53.732483  -28.099619  0
-9.732819  -53.732483  -27.849617  0
-10.232819  -53.732483  -27.849617  0
-12.486723  -53.734154  -28.102196  0
-9.482819  -54.232483  -28.099619  0
-9.732819  -54.232483  -27.849617  0
-10.232819  -54.232483  -27.849617  0
-12.494503  -54.239151  -28.115374  0
-9.482819  -54.732483  -28.099619  0
-9.732819  -54.982483  -28.099619  0
-9.732819  -54.732483  -27.849617  0
-10.232819  -54.732483  -27.849617  0
-12.488235  -54.741615  -28.126907  0
-9.982819  -55.232483  -28.099619  0
-10.232819  -55.232483  -27.849617  0
-12.436090  -55.232765  -28.139936  0
-9.982819  -55.732483  -28.099619  0
-10.232819  -55.982483  -28.099619  0
-10.232819  -55.732483  -27.849617  0
-10.730661  -55.730637  -27.851166  0
-12.385785  -55.700249  -28.130728  0
-12.157898  -55.935013  -28.114517  0
-10.482819  -56.232483  -28.099619  0
-10.732819  -56.482483  -28.099619  0
-10.731606  -56.231289  -27.849983  0
-11.230750  -56.480381  -28.100027  0
-11.220679  -56.221439  -27.853590  0
-11.962287  -56.212334  -28.100546  0
-11.724219  -56.473404  -28.100231  0
-11.702820  -56.206718  -27.855055  0
-12.232819  -51.982483  -27.599615  0
-11.982819  -52.232483  -27.599615  0
-11.732819  -52.482483  -27.599615  0
-12.482819  -52.232483  -27.599615  0
-12.232819  -52.232483  -27.349613  0
-11.482819  -52.732483  -27.599615  0
-11.232819  -52.982483  -27.599615  0
-11.732819  -52.732483  -27.349613  0
-12.483002  -52.732182  -27.600552  0
-12.232819  -52.732483  -27.349613  0
-10.982824  -53.231544  -27.600437  0
-10.732819  -53.482117  -27.599936  0
-11.232823  -53.231598  -27.350388  0
-11.732824  -53.231087  -27.350842  0
-12.484341  -53.232826  -27.602839  0
-10.482819  -53.732483  -27.599615  0
-10.732912  -53.730904  -27.351059  0
-12.490719  -53.734371  -27.620478  0
-10.482819  -54.232483  -27.599615  0
-10.732966  -54.229443  -27.353817  0
-12.484946  -54.238911  -27.663498  0
-10.482687  -54.732571  -27.600334  0
-10.729227  -54.727669  -27.362097  0
-12.411404  -54.735855  -27.710630  0
-10.482464  -55.232727  -27.601561  0
-10.732459  -55.482727  -27.601593  0
-10.725081  -55.227604  -27.360708  0
-11.192614  -55.198681  -27.394487  0
-12.247944  -55.198933  -27.729698  0
-12.282257  -55.118622  -27.538101  0
-10.976953  -55.728672  -27.606306  0
-11.217584  -55.970375  -27.608683  0
-11.199762  -55.709152  -27.373821  0
-11.676120  -55.941418  -27.621017  0
-11.604768  -55.650288  -27.415625  0
-12.251801  -55.646854  -27.681772  0
-12.091428  -55.901470  -27.647161  0
-12.022360  -55.618721  -27.430933  0
-12.233068  -52.981007  -27.101801  0
-11.232491  -53.474339  -27.109640  0
-11.982828  -53.230663  -27.101212  0
-11.732534  -53.475384  -27.108555  0
-12.485384  -53.228836  -27.115005  0
-12.232971  -53.224461  -26.862801  0
-10.982791  -53.726315  -27.106049  0
-11.226560  -53.700539  -26.890532  0
-11.726505  -53.702175  -26.897261  0
-12.481888  -53.719704  -27.168211  0
-12.231715  -53.712208  -26.896255  0
-10.981509  -54.216774  -27.117661  0
-11.208920  -54.169243  -26.925838  0
-11.685106  -54.149834  -26.973011  0
-12.418113  -54.200733  -27.252853  0
-12.198208  -54.179874  -26.970329  0
-10.977587  -54.709400  -27.130301  0
-11.218390  -54.955311  -27.141735  0
-11.188295  -54.656929  -26.940826  0
-11.614413  -54.596416  -27.020891  0
-12.236326  -54.677849  -27.318462  0
-12.052237  -54.612873  -27.071070  0
-12.278768  -54.895599  -27.337105  0
-11.425957  -55.165287  -27.183939  0
-11.605916  -55.385704  -27.201305  0
-11.577295  -55.092609  -27.001001  0
-11.938745  -55.334663  -27.251873  0
-11.918097  -55.045448  -27.086573  0
-12.410450  -55.088249  -27.361471  0
-12.229529  -55.297604  -27.346588  0
-12.291720  -55.083225  -27.127468  0
16 25 0 0
1 17 0 0
0 17 16 0
2 18 1 0
1 18 17 0
3 20 2 0
2 20 18 0
3 27 20 0
25 26 0 0
31 4 26 0
4 0 26 0
4 1 0 0
1 5 2 0
1 4 5 0
2 6 3 0
2 5 6 0
27 3 34 0
34 3 6 0
31 33 4 0
38 7 33 0
7 4 33 0
7 5 4 0
5 8 6 0
5 7 8 0
34 6 41 0
41 6 8 0
39 44 9 0
39 9 38 0
9 7 38 0
9 10 7 0
7 11 8 0
7 10 11 0
41 8 47 0
47 8 11 0
44 45 9 0
9 45 10 0
10 45 46 0
10 46 11 0
11 46 48 0
11 48 47 0
52 57 12 0
12 60 52 0
58 66 13 0
58 13 57 0
13 12 57 0
13 14 12 0
60 12 61 0
12 15 61 0
12 14 15 0
15 69 61 0
64 72 19 0
21 67 19 0
19 67 64 0
67 21 66 0
21 13 66 0
21 22 13 0
13 23 14 0
13 22 23 0
14 24 15 0
14 23 24 0
69 15 74 0
74 15 24 0
71 76 16 0
16 76 25 0
73 16 17 0
73 71 16 0
18 19 72 0
73 18 72 0
17 18 73 0
19 18 20 0
19 20 21 0
21 20 27 0
28 21 27 0
22 21 28 0
22 29 23 0
22 28 29 0
23 30 24 0
23 29 30 0
74 24 78 0
78 24 30 0
26 25 32 0
25 80 32 0
25 76 80 0
32 31 26 0
34 35 28 0
34 28 27 0
28 36 29 0
28 35 36 0
29 37 30 0
29 36 37 0
78 30 83 0
83 30 37 0
80 81 32 0
81 86 40 0
81 40 33 0
32 81 33 0
31 32 33 0
40 38 33 0
41 42 35 0
41 35 34 0
35 43 36 0
35 42 43 0
84 37 87 0
37 43 87 0
37 36 43 0
37 84 83 0
40 86 39 0
86 44 39 0
86 90 44 0
40 39 38 0
47 49 42 0
47 42 41 0
42 50 43 0
42 49 50 0
87 43 96 0
96 43 50 0
90 91 44 0
44 91 45 0
45 93 46 0
91 93 45 0
46 94 48 0
93 94 46 0
47 48 49 0
48 95 49 0
48 94 95 0
49 95 50 0
50 95 97 0
50 97 96 0
101 108 51 0
53 102 51 0
51 102 101 0
54 104 53 0
53 104 102 0
55 106 54 0
54 106 104 0
55 110 106 0
109 112 56 0
109 56 108 0
56 51 108 0
56 59 51 0
59 57 52 0
53 59 52 0
51 59 53 0
53 52 60 0
62 53 60 0
54 53 62 0
54 63 55 0
54 62 63 0
110 55 115 0
115 55 63 0
113 117 65 0
113 65 112 0
65 56 112 0
65 68 56 0
68 66 58 0
59 68 58 0
56 68 59 0
59 58 57 0
61 62 60 0
62 61 69 0
70 62 69 0
63 62 70 0
115 63 118 0
118 63 70 0
65 117 64 0
117 72 64 0
117 120 72 0
65 64 67 0
65 67 68 0
68 67 66 0
74 75 70 0
74 70 69 0
118 70 122 0
122 70 75 0
77 76 71 0
77 71 124 0
71 121 124 0
71 73 121 0
73 72 120 0
73 120 121 0
78 79 75 0
78 75 74 0
122 75 126 0
126 75 79 0
82 80 77 0
77 80 76 0
77 124 128 0
77 128 82 0
83 85 79 0
83 79 78 0
126 79 130 0
130 79 85 0
82 81 80 0
86 81 82 0
128 86 82 0
132 86 128 0
87 88 84 0
85 83 84 0
88 85 84 0
89 85 88 0
130 85 135 0
135 85 89 0
92 90 133 0
90 132 133 0
90 86 132 0
137 92 133 0
96 98 88 0
96 88 87 0
88 99 89 0
88 98 99 0
135 89 143 0
143 89 99 0
92 91 90 0
137 138 92 0
138 91 92 0
138 93 91 0
93 140 94 0
138 140 93 0
94 141 95 0
140 141 94 0
95 142 97 0
141 142 95 0
97 142 96 0
142 100 96 0
100 98 96 0
100 142 146 0
144 99 148 0
99 100 148 0
99 98 100 0
99 144 143 0
146 149 100 0
100 149 148 0
152 157 103 0
105 153 103 0
103 153 152 0
107 155 105 0
105 155 153 0
107 159 155 0
158 162 101 0
101 162 108 0
102 103 157 0
158 102 157 0
101 102 158 0
103 102 104 0
103 104 105 0
105 104 106 0
105 106 107 0
111 160 110 0
110 160 106 0
160 159 106 0
159 107 106 0
111 164 160 0
114 112 109 0
166 114 109 0
108 166 109 0
162 166 108 0
115 116 111 0
115 111 110 0
164 111 168 0
168 111 116 0
165 170 113 0
113 170 117 0
113 112 114 0
167 113 114 0
165 113 167 0
167 114 166 0
118 119 116 0
118 116 115 0
168 116 173 0
173 116 119 0
170 120 117 0
175 120 170 0
122 123 119 0
122 119 118 0
173 119 178 0
178 119 123 0
125 124 121 0
180 125 121 0
120 180 121 0
175 180 120 0
126 127 123 0
126 123 122 0
178 123 182 0
182 123 127 0
129 128 125 0
125 128 124 0
125 180 184 0
125 184 129 0
130 131 127 0
130 127 126 0
182 127 186 0
186 127 131 0
134 132 129 0
129 132 128 0
129 184 188 0
129 188 134 0
135 136 131 0
135 131 130 0
186 131 191 0
191 131 136 0
134 133 132 0
189 139 137 0
189 137 133 0
188 189 133 0
134 188 133 0
192 139 189 0
143 145 136 0
143 136 135 0
191 136 195 0
195 136 145 0
139 138 137 0
192 193 139 0
193 138 139 0
193 140 138 0
140 194 141 0
193 194 140 0
194 196 147 0
142 194 147 0
141 194 142 0
147 146 142 0
148 150 144 0
145 143 144 0
150 145 144 0
151 145 150 0
195 145 200 0
200 145 151 0
196 197 147 0
147 197 146 0
197 149 146 0
197 198 149 0
148 149 150 0
149 199 150 0
149 198 199 0
150 199 151 0
151 199 201 0
151 201 200 0
202 204 154 0
156 203 154 0
154 203 202 0
156 207 203 0
205 210 152 0
152 210 157 0
153 154 204 0
205 153 204 0
152 153 205 0
154 153 155 0
154 155 156 0
161 208 159 0
159 208 155 0
208 207 155 0
207 156 155 0
161 212 208 0
163 162 158 0
214 163 158 0
157 214 158 0
210 214 157 0
160 161 159 0
160 164 161 0
164 212 161 0
164 217 212 0
215 220 163 0
220 162 163 0
220 166 162 0
215 163 214 0
168 169 218 0
217 168 218 0
164 168 217 0
169 222 218 0
171 170 165 0
167 172 165 0
165 172 171 0
224 172 167 0
166 224 167 0
220 224 166 0
173 174 169 0
173 169 168 0
222 169 226 0
226 169 174 0
176 175 171 0
171 175 170 0
177 171 172 0
176 171 177 0
172 224 228 0
172 228 177 0
178 179 174 0
178 174 173 0
226 174 231 0
231 174 179 0
181 180 176 0
176 180 175 0
177 229 233 0
181 177 233 0
176 177 181 0
229 177 228 0
182 183 179 0
182 179 178 0
231 179 235 0
235 179 183 0
185 184 181 0
181 184 180 0
181 233 237 0
181 237 185 0
186 187 183 0
186 183 182 0
235 183 239 0
239 183 187 0
190 188 185 0
185 188 184 0
185 237 241 0
185 241 190 0
243 240 187 0
186 243 187 0
191 243 186 0
187 240 239 0
190 189 188 0
192 189 190 0
241 192 190 0
245 192 241 0
195 243 191 0
195 250 243 0
245 246 192 0
192 246 193 0
193 248 194 0
246 248 193 0
196 194 248 0
196 248 252 0
200 250 195 0
200 257 250 0
252 253 196 0
196 253 197 0
197 255 198 0
253 255 197 0
198 256 199 0
255 256 198 0
199 258 201 0
256 258 199 0
200 201 257 0
257 201 258 0
206 204 202 0
206 202 261 0
202 259 261 0
202 203 259 0
209 260 207 0
260 203 207 0
260 259 203 0
209 264 260 0
211 210 205 0
267 211 205 0
267 205 204 0
262 267 204 0
206 262 204 0
262 206 261 0
208 209 207 0
213 266 212 0
212 266 208 0
266 264 208 0
264 209 208 0
213 269 266 0
216 214 211 0
211 214 210 0
211 267 270 0
211 270 216 0
217 219 213 0
217 213 212 0
269 213 272 0
272 213 219 0
221 220 215 0
275 221 215 0
275 215 214 0
271 275 214 0
216 271 214 0
271 216 270 0
218 219 217 0
223 273 222 0
222 273 218 0
273 272 218 0
272 219 218 0
223 277 273 0
225 224 221 0
221 224 220 0
221 275 279 0
221 279 225 0
226 227 223 0
226 223 222 0
277 223 281 0
281 223 227 0
230 228 225 0
225 228 224 0
225 279 283 0
225 283 230 0
231 232 227 0
231 227 226 0
281 227 286 0
286 227 232 0
234 233 229 0
288 234 229 0
288 229 228 0
284 288 228 0
230 284 228 0
284 230 283 0
235 236 232 0
235 232 231 0
286 232 291 0
291 232 236 0
238 237 234 0
234 237 233 0
234 288 294 0
234 294 238 0
297 292 236 0
235 297 236 0
239 297 235 0
236 292 291 0
242 241 238 0
238 241 237 0
238 294 299 0
238 299 242 0
243 244 240 0
244 303 240 0
303 239 240 0
303 297 239 0
247 245 242 0
242 245 241 0
242 299 300 0
249 242 300 0
247 242 249 0
305 249 300 0
250 251 244 0
250 244 243 0
303 244 308 0
308 244 251 0
247 246 245 0
246 247 248 0
248 247 249 0
306 254 252 0
306 252 248 0
305 306 248 0
249 305 248 0
311 254 306 0
315 309 251 0
250 315 251 0
257 315 250 0
251 309 308 0
254 253 252 0
311 312 254 0
312 253 254 0
312 255 253 0
255 314 256 0
312 314 255 0
256 316 258 0
314 316 256 0
257 258 315 0
315 258 316 0
263 261 259 0
260 265 259 0
259 265 263 0
264 265 260 0
268 267 262 0
321 268 262 0
321 262 261 0
318 321 261 0
263 318 261 0
318 263 265 0
318 265 319 0
319 265 264 0
266 319 264 0
320 319 266 0
266 269 320 0
320 269 325 0
322 327 268 0
327 267 268 0
327 270 267 0
322 268 321 0
272 274 326 0
325 272 326 0
269 272 325 0
274 331 326 0
276 275 271 0
334 276 271 0
270 334 271 0
327 334 270 0
273 274 272 0
278 332 277 0
277 332 273 0
332 331 273 0
331 274 273 0
278 337 332 0
280 279 276 0
276 279 275 0
276 334 338 0
276 338 280 0
281 282 278 0
281 278 277 0
337 278 340 0
340 278 282 0
285 283 280 0
280 283 279 0
280 338 341 0
280 341 285 0
286 287 282 0
286 282 281 0
340 282 342 0
342 282 287 0
289 288 284 0
283 285 284 0
285 289 284 0
285 290 289 0
285 341 343 0
285 343 290 0
291 293 287 0
291 287 286 0
342 287 344 0
344 287 293 0
295 294 289 0
289 294 288 0
296 289 290 0
295 289 296 0
290 343 346 0
290 346 296 0
297 298 292 0
298 347 292 0
292 347 291 0
347 345 291 0
345 293 291 0
293 345 344 0
301 299 295 0
295 299 294 0
302 295 296 0
301 295 302 0
296 346 349 0
296 349 302 0
303 304 298 0
303 298 297 0
347 298 351 0
351 298 304 0
301 300 299 0
300 301 305 0
301 307 305 0
301 302 307 0
302 349 353 0
302 353 307 0
308 310 304 0
308 304 303 0
351 304 356 0
356 304 310 0
307 306 305 0
354 313 311 0
354 311 306 0
353 354 306 0
307 353 306 0
359 313 354 0
315 317 309 0
317 363 309 0
309 363 308 0
363 357 308 0
357 310 308 0
310 357 356 0
313 312 311 0
359 360 313 0
360 312 313 0
360 314 312 0
314 362 316 0
360 362 314 0
315 316 317 0
316 364 317 0
316 362 364 0
317 364 363 0
323 321 318 0
319 324 318 0
318 324 323 0
324 319 367 0
319 366 367 0
319 320 366 0
320 325 366 0
366 325 368 0
328 327 322 0
321 323 322 0
323 328 322 0
323 329 328 0
330 323 324 0
329 323 330 0
324 367 372 0
324 372 330 0
370 368 325 0
370 325 326 0
333 371 331 0
371 326 331 0
371 370 326 0
333 376 371 0
335 334 328 0
328 334 327 0
336 328 329 0
335 328 336 0
330 373 377 0
336 330 377 0
329 330 336 0
373 330 372 0
332 333 331 0
332 337 333 0
337 376 333 0
337 381 376 0
339 338 335 0
335 338 334 0
336 378 382 0
339 336 382 0
335 336 339 0
378 336 377 0
340 381 337 0
340 386 381 0
383 387 339 0
387 338 339 0
387 341 338 0
383 339 382 0
342 386 340 0
342 390 386 0
387 343 341 0
391 343 387 0
344 390 342 0
344 394 390 0
391 346 343 0
395 346 391 0
347 348 345 0
348 399 345 0
399 344 345 0
399 394 344 0
350 349 396 0
349 395 396 0
349 346 395 0
400 350 396 0
351 352 348 0
351 348 347 0
399 348 402 0
402 348 352 0
355 353 350 0
350 353 349 0
350 400 403 0
350 403 355 0
356 358 352 0
356 352 351 0
402 352 407 0
407 352 358 0
355 354 353 0
404 361 359 0
404 359 354 0
403 404 354 0
355 403 354 0
409 361 404 0
363 365 357 0
365 414 357 0
357 414 356 0
414 408 356 0
408 358 356 0
358 408 407 0
361 360 359 0
409 410 361 0
410 360 361 0
410 362 360 0
362 412 364 0
410 412 362 0
363 364 365 0
364 415 365 0
364 412 415 0
365 415 414 0
369 367 366 0
368 369 366 0
374 372 369 0
369 372 367 0
370 375 368 0
375 369 368 0
375 374 369 0
375 370 418 0
370 417 418 0
370 371 417 0
371 376 417 0
417 376 420 0
379 377 373 0
372 374 373 0
374 379 373 0
374 380 379 0
375 419 422 0
380 375 422 0
374 375 380 0
419 375 418 0
381 420 376 0
381 425 420 0
384 382 378 0
377 379 378 0
379 384 378 0
379 385 384 0
380 423 427 0
385 380 427 0
379 380 385 0
423 380 422 0
386 425 381 0
386 431 425 0
388 387 383 0
382 384 383 0
384 388 383 0
384 389 388 0
385 428 432 0
389 385 432 0
384 385 389 0
428 385 427 0
390 431 386 0
390 434 431 0
392 391 388 0
388 391 387 0
393 388 389 0
392 388 393 0
389 432 435 0
389 435 393 0
394 434 390 0
394 437 434 0
397 395 392 0
392 395 391 0
398 392 393 0
397 392 398 0
393 435 438 0
393 438 398 0
399 437 394 0
399 440 437 0
397 396 395 0
396 397 400 0
397 401 400 0
397 398 401 0
398 438 441 0
398 441 401 0
402 440 399 0
402 445 440 0
405 403 401 0
401 403 400 0
401 441 442 0
406 401 442 0
405 401 406 0
447 406 442 0
407 445 402 0
407 452 445 0
405 404 403 0
404 405 409 0
405 411 409 0
405 406 411 0
406 447 448 0
413 406 448 0
411 406 413 0
450 416 413 0
450 413 448 0
408 414 416 0
450 408 416 0
453 408 450 0
407 408 452 0
452 408 453 0
411 410 409 0
410 411 412 0
412 411 413 0
412 413 415 0
415 413 416 0
415 416 414 0
421 418 417 0
420 421 417 0
424 422 419 0
418 421 419 0
421 424 419 0
421 426 424 0
425 426 420 0
420 426 421 0
429 427 423 0
422 424 423 0
424 429 423 0
424 430 429 0
426 455 457 0
430 426 457 0
424 426 430 0
426 425 455 0
425 459 455 0
425 431 459 0
433 432 428 0
461 433 428 0
461 428 427 0
456 461 427 0
429 456 427 0
456 429 430 0
456 430 458 0
458 430 457 0
434 459 431 0
434 464 459 0
436 435 433 0
433 435 432 0
433 461 466 0
433 466 436 0
437 464 434 0
437 469 464 0
439 438 436 0
436 438 435 0
436 466 471 0
436 471 439 0
440 469 437 0
440 475 469 0
443 441 439 0
439 441 438 0
439 471 472 0
444 439 472 0
443 439 444 0
478 444 472 0
445 446 477 0
475 445 477 0
440 445 475 0
446 483 477 0
443 442 441 0
442 443 447 0
443 449 447 0
443 444 449 0
444 478 479 0
451 444 479 0
449 444 451 0
481 454 451 0
481 451 479 0
481 484 446 0
452 481 446 0
445 452 446 0
454 481 452 0
446 484 483 0
449 448 447 0
448 449 450 0
450 449 451 0
450 451 453 0
453 451 454 0
453 454 452 0
460 457 455 0
459 460 455 0
462 461 456 0
458 463 456 0
456 463 462 0
457 460 458 0
460 463 458 0
460 465 463 0
464 465 459 0
459 465 460 0
467 466 462 0
462 466 461 0
468 462 463 0
467 462 468 0
470 463 465 0
468 463 470 0
469 470 464 0
464 470 465 0
473 471 467 0
467 471 466 0
474 467 468 0
473 467 474 0
476 468 470 0
474 468 476 0
475 476 469 0
469 476 470 0
473 472 471 0
472 473 478 0
473 480 478 0
473 474 480 0
482 474 476 0
480 474 482 0
477 485 475 0
485 476 475 0
485 482 476 0
483 485 477 0
480 479 478 0
479 480 481 0
481 480 482 0
481 482 484 0
484 482 485 0
484 485 483 0
