#!ascii version of /Users/gilles/git/nukkies/notebooks/data/RSIT_STh_L.asc
422 842
5.267181  -53.232483  -31.349642  0
5.767181  -54.232483  -31.349642  0
5.267181  -54.232483  -31.349642  0
6.767181  -52.232483  -30.849638  0
6.267181  -52.232483  -30.849638  0
5.767181  -52.232483  -30.849638  0
5.267181  -52.232483  -30.849638  0
6.767181  -52.732483  -30.849638  0
6.267181  -52.732483  -30.849638  0
5.767181  -52.732483  -30.849638  0
5.267181  -52.982483  -31.099640  0
6.267181  -53.232483  -30.849638  0
5.517181  -53.232483  -31.099640  0
5.767181  -53.232483  -30.849638  0
5.017181  -53.232483  -31.099640  0
5.267181  -53.482483  -31.099640  0
4.767181  -53.232483  -30.849638  0
6.767181  -53.732483  -30.849638  0
6.267181  -53.732483  -30.849638  0
5.767181  -53.982483  -31.099640  0
5.767181  -53.732483  -30.849638  0
5.267181  -53.982483  -31.099640  0
5.267181  -53.732483  -30.849638  0
4.767181  -53.732483  -30.849638  0
6.767181  -54.232483  -30.849638  0
6.017181  -54.232483  -31.099640  0
6.267181  -54.232483  -30.849638  0
5.767181  -54.482483  -31.099640  0
5.017181  -54.232483  -31.099640  0
5.267181  -54.482483  -31.099640  0
4.767181  -54.232483  -30.849638  0
6.267181  -54.732483  -30.849638  0
5.767181  -54.732483  -30.849638  0
5.267181  -54.732483  -30.849638  0
6.767181  -51.982483  -30.599636  0
6.267181  -51.982483  -30.599636  0
6.267181  -51.732483  -30.349634  0
5.767181  -51.982483  -30.599636  0
5.767181  -51.732483  -30.349634  0
5.267181  -51.982483  -30.599636  0
7.017181  -52.232483  -30.599636  0
5.017181  -52.232483  -30.599636  0
5.267181  -52.482483  -30.599636  0
7.017181  -52.732483  -30.599636  0
7.267181  -52.732483  -30.349634  0
6.767181  -52.982483  -30.599636  0
5.517181  -52.732483  -30.599636  0
5.267181  -52.982483  -30.599636  0
4.767181  -52.982483  -30.599636  0
7.267181  -53.232483  -30.349634  0
6.517181  -53.232483  -30.599636  0
6.767181  -53.482483  -30.599636  0
6.767181  -53.232483  -30.349634  0
4.517181  -53.232483  -30.599636  0
7.017181  -53.732483  -30.599636  0
7.267181  -53.732483  -30.349634  0
4.517181  -53.732483  -30.599636  0
7.017181  -54.232483  -30.599636  0
7.267181  -54.232483  -30.349634  0
6.767181  -54.482483  -30.599636  0
4.517181  -54.232483  -30.599636  0
4.767181  -54.482483  -30.599636  0
4.767181  -54.232483  -30.349634  0
7.267181  -54.732483  -30.349634  0
6.517181  -54.732483  -30.599636  0
6.767181  -54.732483  -30.349634  0
6.267181  -54.982483  -30.599636  0
5.767181  -54.982483  -30.599636  0
5.017181  -54.732483  -30.599636  0
5.267181  -54.982483  -30.599636  0
6.767181  -55.232483  -30.349634  0
6.267181  -55.232483  -30.349634  0
5.767181  -55.232483  -30.349634  0
6.267181  -55.732483  -30.349634  0
6.267181  -51.482483  -30.099632  0
5.767181  -51.482483  -30.099632  0
7.267181  -51.732483  -29.849630  0
6.517181  -51.732483  -30.099632  0
6.767181  -51.982483  -30.099632  0
6.767181  -51.732483  -29.849630  0
5.517181  -51.732483  -30.099632  0
5.267181  -51.982483  -30.099632  0
7.017181  -52.232483  -30.099632  0
7.267181  -52.482483  -30.099632  0
7.267181  -52.232483  -29.849630  0
5.017181  -52.232483  -30.099632  0
5.267181  -52.482483  -30.099632  0
7.517181  -52.732483  -30.099632  0
7.767181  -52.732483  -29.849630  0
5.517181  -52.732483  -30.099632  0
5.267181  -52.982483  -30.099632  0
5.267181  -52.732483  -29.849630  0
4.767181  -52.982483  -30.099632  0
7.517181  -53.232483  -30.099632  0
7.767181  -53.232483  -29.849630  0
4.517181  -53.232483  -30.099632  0
4.767181  -53.232483  -29.849630  0
7.517181  -53.732483  -30.099632  0
7.767181  -53.732483  -29.849630  0
4.517181  -53.732483  -30.099632  0
4.767181  -53.982483  -30.099632  0
4.767181  -53.732483  -29.849630  0
7.517181  -54.232483  -30.099632  0
7.767181  -54.232483  -29.849630  0
5.017181  -54.232483  -30.099632  0
7.517181  -54.732483  -30.099632  0
7.767181  -54.732483  -29.849630  0
7.267181  -54.982483  -30.099632  0
5.017181  -54.732483  -30.099632  0
5.267181  -54.982483  -30.099632  0
7.017181  -55.232483  -30.099632  0
7.267181  -55.232483  -29.849630  0
6.767181  -55.482483  -30.099632  0
5.517181  -55.232483  -30.099632  0
5.767181  -55.482483  -30.099632  0
6.517181  -55.732483  -30.099632  0
6.767181  -55.732483  -29.849630  0
6.017181  -55.732483  -30.099632  0
6.267181  -55.982483  -30.099632  0
7.267181  -51.482483  -29.599628  0
7.267181  -51.232483  -29.349628  0
6.767181  -51.482483  -29.599628  0
6.267181  -51.482483  -29.599628  0
5.767181  -51.482483  -29.599628  0
7.517181  -51.732483  -29.599628  0
7.767181  -51.732483  -29.349628  0
5.517181  -51.732483  -29.599628  0
5.267181  -51.982483  -29.599628  0
8.267181  -52.232483  -29.349628  0
7.517181  -52.232483  -29.599628  0
7.767181  -52.482483  -29.599628  0
7.767181  -52.232483  -29.349628  0
5.017181  -52.232483  -29.599628  0
5.267181  -52.232483  -29.349628  0
8.017181  -52.732483  -29.599628  0
8.267181  -52.732483  -29.349628  0
5.017181  -52.732483  -29.599628  0
5.267181  -52.732483  -29.349628  0
8.017181  -53.232483  -29.599628  0
8.267181  -53.232483  -29.349628  0
5.017181  -53.232483  -29.599628  0
5.267181  -53.232483  -29.349628  0
8.017181  -53.732483  -29.599628  0
8.267181  -53.732483  -29.349628  0
5.017181  -53.732483  -29.599628  0
5.267181  -53.732483  -29.349628  0
8.017181  -54.232483  -29.599628  0
8.267181  -54.232483  -29.349628  0
5.017181  -54.232483  -29.599628  0
5.267181  -54.232483  -29.349628  0
8.017181  -54.732483  -29.599628  0
8.267181  -54.732483  -29.349628  0
7.767181  -54.982483  -29.599628  0
5.017181  -54.732483  -29.599628  0
5.267181  -54.982483  -29.599628  0
5.267181  -54.732483  -29.349628  0
7.517181  -55.232483  -29.599628  0
7.767181  -55.232483  -29.349628  0
7.267181  -55.482483  -29.599628  0
5.517181  -55.232483  -29.599628  0
5.767181  -55.482483  -29.599628  0
5.767181  -55.232483  -29.349628  0
7.017181  -55.732483  -29.599628  0
7.267181  -55.732483  -29.349628  0
6.767181  -55.982483  -29.599628  0
6.017181  -55.732483  -29.599628  0
6.267181  -55.982483  -29.599628  0
7.267181  -50.982483  -29.099627  0
8.267181  -51.232483  -28.849625  0
7.517181  -51.232483  -29.099627  0
7.767181  -51.482483  -29.099627  0
7.767181  -51.232483  -28.849625  0
7.017181  -51.232483  -29.099627  0
7.267181  -51.232483  -28.849625  0
6.767181  -51.482483  -29.099627  0
6.267181  -51.482483  -29.099627  0
5.767181  -51.482483  -29.099627  0
8.017181  -51.732483  -29.099627  0
8.267181  -51.982483  -29.099627  0
8.267181  -51.732483  -28.849625  0
6.767181  -51.732483  -28.849625  0
6.267181  -51.732483  -28.849625  0
5.517181  -51.732483  -29.099627  0
5.767181  -51.732483  -28.849625  0
8.517181  -52.232483  -29.099627  0
8.767181  -52.232483  -28.849625  0
5.517181  -52.232483  -29.099627  0
5.767181  -52.232483  -28.849625  0
8.517181  -52.732483  -29.099627  0
8.767181  -52.732483  -28.849625  0
5.517181  -52.732483  -29.099627  0
5.767181  -52.732483  -28.849625  0
8.517181  -53.232483  -29.099627  0
8.767181  -53.232483  -28.849625  0
5.517181  -53.232483  -29.099627  0
5.767181  -53.232483  -28.849625  0
8.517181  -53.732483  -29.099627  0
8.767181  -53.732483  -28.849625  0
5.517181  -53.732483  -29.099627  0
5.767181  -53.732483  -28.849625  0
8.517181  -54.232483  -29.099627  0
8.767181  -54.232483  -28.849625  0
5.517181  -54.232483  -29.099627  0
5.767181  -54.232483  -28.849625  0
8.517181  -54.732483  -29.099627  0
8.767222  -54.732635  -28.849625  0
8.267181  -54.982483  -29.099627  0
5.517181  -54.732483  -29.099627  0
5.767181  -54.982483  -29.099627  0
5.767181  -54.732483  -28.849625  0
8.017181  -55.232483  -29.099627  0
8.267181  -55.232483  -28.849625  0
7.767181  -55.482483  -29.099627  0
6.017181  -55.232483  -29.099627  0
7.517181  -55.732483  -29.099627  0
7.767181  -55.732483  -28.849625  0
7.267181  -55.982483  -29.099627  0
6.767181  -55.982483  -29.099627  0
6.017181  -55.732483  -29.099627  0
6.267181  -55.982483  -29.099627  0
6.267181  -55.732483  -28.849625  0
8.267181  -50.982483  -28.599623  0
7.767181  -50.982483  -28.599623  0
8.517181  -51.232483  -28.599623  0
8.267181  -51.232483  -28.349621  0
7.517181  -51.232483  -28.599623  0
7.767181  -51.232483  -28.349621  0
7.267181  -51.482483  -28.599623  0
8.517181  -51.732483  -28.599623  0
8.767181  -51.982483  -28.599623  0
7.017181  -51.732483  -28.599623  0
7.267181  -51.732483  -28.349621  0
6.767181  -51.982483  -28.599623  0
6.267181  -51.982483  -28.599623  0
9.017181  -52.232483  -28.599623  0
8.767181  -52.232483  -28.349621  0
6.767181  -52.232483  -28.349621  0
6.017181  -52.232483  -28.599623  0
6.267181  -52.232483  -28.349621  0
9.017181  -52.732483  -28.599623  0
6.017181  -52.732483  -28.599623  0
6.267181  -52.732483  -28.349621  0
9.017181  -53.232483  -28.599623  0
6.017181  -53.232483  -28.599623  0
6.267181  -53.232483  -28.349621  0
9.017181  -53.732483  -28.599623  0
6.017181  -53.732483  -28.599623  0
6.267181  -53.732483  -28.349621  0
9.017534  -54.232552  -28.599041  0
6.017181  -54.232483  -28.599623  0
6.267181  -54.232483  -28.349621  0
9.018544  -54.730061  -28.598358  0
8.767244  -54.982716  -28.599623  0
6.017181  -54.732483  -28.599623  0
6.267181  -54.732483  -28.349621  0
8.517205  -55.232563  -28.599623  0
8.767508  -55.232292  -28.349751  0
8.267219  -55.482620  -28.599623  0
6.017181  -55.232483  -28.599623  0
6.267181  -55.482483  -28.599623  0
6.267181  -55.232483  -28.349621  0
8.017181  -55.732483  -28.599623  0
8.267238  -55.732685  -28.349621  0
7.767181  -55.982483  -28.599623  0
7.267181  -55.982483  -28.599623  0
6.517181  -55.732483  -28.599623  0
6.767181  -55.982483  -28.599623  0
6.767181  -55.732483  -28.349621  0
8.267181  -51.482483  -28.099619  0
7.767181  -51.482483  -28.099619  0
8.517181  -51.732483  -28.099619  0
8.267181  -51.732483  -27.849617  0
7.517181  -51.732483  -28.099619  0
7.767181  -51.732483  -27.849617  0
7.267181  -51.982483  -28.099619  0
8.517181  -52.232483  -28.099619  0
8.767181  -52.482483  -28.099619  0
7.017181  -52.232483  -28.099619  0
7.267181  -52.232483  -27.849617  0
6.767181  -52.482483  -28.099619  0
9.017181  -52.732483  -28.099619  0
6.517181  -52.732483  -28.099619  0
6.767181  -52.732483  -27.849617  0
9.017181  -53.232483  -28.099619  0
6.517181  -53.232483  -28.099619  0
6.767181  -53.232483  -27.849617  0
9.018361  -53.732044  -28.097332  0
9.270266  -53.732689  -27.844271  0
6.517181  -53.732483  -28.099619  0
9.021761  -54.225826  -28.091417  0
9.275928  -54.225914  -27.831923  0
6.517181  -54.232483  -28.099619  0
9.021662  -54.719833  -28.091747  0
9.279836  -54.700813  -27.807474  0
6.517181  -54.732483  -28.099619  0
9.018552  -55.227253  -28.099432  0
8.767704  -55.481640  -28.099867  0
6.517181  -55.232483  -28.099619  0
6.767181  -55.482483  -28.099619  0
6.767181  -55.232483  -27.849617  0
8.517514  -55.732315  -28.099749  0
8.267195  -55.982536  -28.099619  0
7.767181  -55.982483  -28.099619  0
7.017181  -55.732483  -28.099619  0
7.267181  -55.982483  -28.099619  0
7.267181  -55.732483  -27.849617  0
8.267181  -51.982483  -27.599615  0
7.767181  -51.982483  -27.599615  0
8.517181  -52.232483  -27.599615  0
8.767181  -52.482483  -27.599615  0
8.267181  -52.232483  -27.349613  0
7.517181  -52.232483  -27.599615  0
7.767181  -52.232483  -27.349613  0
7.267181  -52.482483  -27.599615  0
9.017181  -52.732483  -27.599615  0
8.767385  -52.732861  -27.349432  0
8.267181  -52.732483  -27.349613  0
7.767181  -52.732483  -27.349613  0
7.017181  -52.732483  -27.599615  0
7.267181  -52.732483  -27.349613  0
9.017359  -53.232819  -27.599455  0
9.270361  -53.484631  -27.595011  0
9.269079  -53.234859  -27.347382  0
7.017181  -53.232483  -27.599615  0
7.267181  -53.232483  -27.349613  0
6.767181  -53.482483  -27.599615  0
9.528801  -53.732590  -27.578550  0
6.517181  -53.732483  -27.599615  0
6.767181  -53.732483  -27.349613  0
9.546030  -54.207130  -27.517918  0
6.517181  -54.232483  -27.599615  0
6.767181  -54.232483  -27.349613  0
9.507671  -54.600555  -27.509670  0
9.267016  -54.887119  -27.570549  0
6.517181  -54.732483  -27.599615  0
6.767181  -54.982483  -27.599615  0
6.767181  -54.732483  -27.349613  0
9.008140  -55.170101  -27.606026  0
8.767637  -55.476570  -27.600428  0
7.767181  -55.232483  -27.349613  0
7.017181  -55.232483  -27.599615  0
7.267181  -55.482483  -27.599615  0
7.267181  -55.232483  -27.349613  0
8.517389  -55.728683  -27.599627  0
8.267263  -55.982780  -27.599617  0
7.517181  -55.732483  -27.599615  0
7.767181  -55.982483  -27.599615  0
7.767181  -55.732483  -27.349613  0
9.271314  -52.987747  -27.094988  0
8.767410  -52.982906  -27.099405  0
8.267181  -52.982483  -27.099613  0
7.767181  -52.982483  -27.099613  0
9.527482  -53.239506  -27.084730  0
7.517181  -53.232483  -27.099613  0
7.767181  -53.232483  -26.849611  0
7.267181  -53.482483  -27.099613  0
9.555710  -53.752872  -27.029104  0
7.017181  -53.732483  -27.099613  0
7.267181  -53.732483  -26.849611  0
9.524767  -54.157814  -26.982632  0
7.764428  -54.230984  -26.849369  0
7.017181  -54.232483  -27.099613  0
7.267181  -54.232483  -26.849611  0
9.338094  -54.460804  -27.003519  0
9.266189  -54.419552  -26.832054  0
9.089150  -54.712292  -27.115412  0
7.767181  -54.982483  -27.099613  0
7.761645  -54.728146  -26.848862  0
7.017181  -54.732483  -27.099613  0
7.267181  -54.982483  -27.099613  0
7.267181  -54.732483  -26.849611  0
8.977973  -55.106331  -27.109333  0
8.758467  -55.461189  -27.105505  0
8.735291  -55.172325  -26.852701  0
8.015892  -55.230503  -27.099228  0
8.249204  -55.209053  -26.852812  0
8.512312  -55.719257  -27.101227  0
8.017012  -55.731869  -27.099480  0
8.266961  -55.981701  -27.099373  0
8.261592  -55.722279  -26.850645  0
9.276962  -52.994419  -26.590887  0
8.768497  -52.984913  -26.598433  0
8.266739  -52.982239  -26.599571  0
9.543714  -53.263241  -26.569166  0
8.015853  -53.231754  -26.599491  0
8.261066  -53.226532  -26.351074  0
7.766611  -53.482174  -26.599560  0
9.563815  -53.755058  -26.523211  0
8.725572  -53.686440  -26.364326  0
8.252085  -53.717991  -26.353210  0
7.515630  -53.731636  -26.599476  0
7.757532  -53.975483  -26.600199  0
7.759939  -53.727230  -26.350048  0
9.349132  -54.111855  -26.592682  0
9.218678  -54.233109  -26.670753  0
8.629607  -54.046196  -26.422380  0
7.997532  -54.215416  -26.601322  0
8.217068  -54.189590  -26.355392  0
9.351205  -54.386681  -26.690979  0
9.265332  -54.550907  -26.713369  0
9.262084  -54.363991  -26.536608  0
8.900876  -54.538239  -26.778116  0
8.949109  -54.385159  -26.534193  0
8.577459  -54.716423  -26.690029  0
8.588439  -54.513718  -26.397005  0
7.988279  -54.702644  -26.603209  0
8.175516  -54.877228  -26.601233  0
8.155528  -54.639313  -26.356968  0
9.283710  -52.997124  -26.093399  0
8.769692  -52.985863  -26.098249  0
9.558861  -53.283855  -26.068195  0
9.305724  -53.263458  -25.840761  0
8.515665  -53.224419  -26.104656  0
8.770127  -53.458637  -26.121595  0
8.781866  -53.233864  -25.855268  0
9.589302  -53.750095  -26.091492  0
8.984854  -53.601536  -26.184061  0
9.339306  -53.710133  -25.903784  0
9.552044  -54.143372  -26.197683  0
8.886051  -53.968685  -26.277479  0
9.147280  -54.221832  -26.302864  0
9.264435  -54.071911  -26.009569  0
10 12 0 0
0 14 10 0
12 15 0 0
0 15 14 0
19 25 1 0
2 21 1 0
1 21 19 0
2 28 21 0
25 27 1 0
1 27 2 0
2 27 29 0
2 29 28 0
34 40 3 0
4 35 3 0
3 35 34 0
5 37 4 0
4 37 35 0
6 39 5 0
5 39 37 0
6 41 39 0
3 40 7 0
7 40 43 0
3 8 4 0
3 7 8 0
4 9 5 0
4 8 9 0
42 6 46 0
6 9 46 0
6 5 9 0
6 42 41 0
43 45 7 0
50 11 45 0
11 7 45 0
11 8 7 0
8 13 9 0
8 11 13 0
10 47 12 0
47 9 12 0
9 13 12 0
9 47 46 0
16 48 14 0
48 10 14 0
48 47 10 0
16 53 48 0
51 54 17 0
51 17 50 0
17 11 50 0
17 18 11 0
11 20 13 0
11 18 20 0
22 15 12 0
13 22 12 0
20 22 13 0
16 14 15 0
22 16 15 0
23 16 22 0
53 16 56 0
56 16 23 0
17 54 24 0
24 54 57 0
17 26 18 0
17 24 26 0
26 25 19 0
20 26 19 0
18 26 20 0
20 19 21 0
20 21 22 0
22 21 28 0
30 22 28 0
23 22 30 0
56 23 60 0
60 23 30 0
57 59 24 0
64 31 59 0
31 24 59 0
31 26 24 0
32 27 25 0
26 32 25 0
31 32 26 0
33 29 27 0
33 27 32 0
33 68 29 0
29 68 28 0
68 61 28 0
61 30 28 0
30 61 60 0
64 66 31 0
31 66 32 0
32 66 67 0
32 67 33 0
33 67 69 0
33 69 68 0
74 77 36 0
38 75 36 0
36 75 74 0
38 80 75 0
78 82 34 0
34 82 40 0
35 36 77 0
78 35 77 0
34 35 78 0
36 35 37 0
36 37 38 0
81 80 38 0
37 81 38 0
39 81 37 0
39 41 81 0
81 41 85 0
83 87 44 0
82 83 44 0
43 82 44 0
40 82 43 0
89 86 42 0
89 42 46 0
41 42 85 0
85 42 86 0
44 87 49 0
49 87 93 0
52 45 43 0
44 52 43 0
49 52 44 0
52 50 45 0
90 89 46 0
90 46 47 0
92 47 48 0
92 90 47 0
48 53 92 0
92 53 95 0
49 93 55 0
55 93 97 0
55 54 51 0
52 55 51 0
49 55 52 0
52 51 50 0
56 95 53 0
56 99 95 0
55 97 58 0
58 97 102 0
58 57 54 0
58 54 55 0
104 100 62 0
100 99 62 0
99 60 62 0
99 56 60 0
58 102 63 0
63 102 105 0
65 59 57 0
58 65 57 0
63 65 58 0
65 64 59 0
104 62 61 0
68 104 61 0
108 104 68 0
61 62 60 0
105 107 63 0
110 70 107 0
70 63 107 0
70 65 63 0
71 66 64 0
65 71 64 0
70 71 65 0
72 67 66 0
72 66 71 0
67 72 113 0
109 67 113 0
69 67 109 0
68 69 108 0
108 69 109 0
110 112 70 0
115 73 112 0
73 70 112 0
73 71 70 0
114 72 117 0
72 73 117 0
72 71 73 0
72 114 113 0
115 118 73 0
73 118 117 0
119 124 76 0
79 121 76 0
76 121 119 0
77 74 79 0
74 121 79 0
74 122 121 0
123 74 75 0
123 122 74 0
75 80 123 0
123 80 126 0
76 124 84 0
84 124 129 0
84 82 78 0
79 84 78 0
76 84 79 0
79 78 77 0
127 126 80 0
127 80 81 0
81 85 127 0
127 85 132 0
130 134 88 0
130 88 129 0
129 88 84 0
88 87 84 0
87 83 84 0
84 83 82 0
89 91 86 0
91 136 86 0
136 85 86 0
136 132 85 0
88 134 94 0
94 134 138 0
94 93 87 0
94 87 88 0
90 91 89 0
90 92 91 0
92 140 91 0
140 136 91 0
92 96 140 0
95 96 92 0
94 138 98 0
98 138 142 0
98 97 93 0
98 93 94 0
140 96 101 0
140 101 144 0
99 101 95 0
95 101 96 0
98 142 103 0
103 142 146 0
103 102 97 0
103 97 98 0
144 101 100 0
104 144 100 0
148 144 104 0
100 101 99 0
103 146 106 0
106 146 150 0
106 105 102 0
106 102 103 0
108 148 104 0
108 153 148 0
150 152 106 0
152 156 111 0
152 111 107 0
106 152 107 0
105 106 107 0
111 110 107 0
159 154 109 0
159 109 113 0
108 109 153 0
153 109 154 0
156 158 111 0
158 162 116 0
158 116 112 0
111 158 112 0
110 111 112 0
116 115 112 0
165 160 114 0
165 114 117 0
113 114 159 0
159 114 160 0
162 164 116 0
116 164 115 0
164 118 115 0
164 166 118 0
117 118 165 0
165 118 166 0
167 169 120 0
120 172 167 0
170 177 125 0
170 125 169 0
169 125 120 0
125 124 120 0
124 119 120 0
174 172 120 0
119 174 120 0
121 174 119 0
175 121 122 0
175 174 121 0
176 122 123 0
176 175 122 0
123 126 176 0
176 126 182 0
178 184 128 0
178 128 177 0
128 125 177 0
128 131 125 0
131 129 124 0
131 124 125 0
126 127 133 0
186 126 133 0
182 126 186 0
132 133 127 0
128 184 135 0
135 184 188 0
135 134 130 0
131 135 130 0
128 135 131 0
131 130 129 0
186 133 137 0
186 137 190 0
136 137 132 0
132 137 133 0
135 188 139 0
139 188 192 0
139 138 134 0
139 134 135 0
190 137 141 0
190 141 194 0
140 141 136 0
136 141 137 0
139 192 143 0
143 192 196 0
143 142 138 0
143 138 139 0
194 141 145 0
194 145 198 0
144 145 140 0
140 145 141 0
143 196 147 0
147 196 200 0
147 146 142 0
147 142 143 0
198 145 149 0
198 149 202 0
148 149 144 0
144 149 145 0
147 200 151 0
151 200 204 0
151 150 146 0
151 146 147 0
202 149 155 0
202 155 207 0
153 155 148 0
148 155 149 0
204 206 151 0
206 210 157 0
206 157 152 0
151 206 152 0
150 151 152 0
157 156 152 0
213 208 161 0
161 208 207 0
161 207 155 0
159 161 155 0
154 159 155 0
154 155 153 0
210 212 157 0
212 214 163 0
212 163 158 0
157 212 158 0
156 157 158 0
163 162 158 0
213 161 160 0
165 213 160 0
218 213 165 0
160 161 159 0
214 216 163 0
163 216 162 0
216 164 162 0
216 217 164 0
164 219 166 0
217 219 164 0
165 166 218 0
218 166 219 0
221 223 168 0
171 222 168 0
168 222 221 0
222 169 171 0
222 167 169 0
222 225 173 0
167 222 173 0
172 173 167 0
168 223 179 0
179 223 228 0
179 177 170 0
171 179 170 0
168 179 171 0
170 225 171 0
170 227 225 0
170 169 173 0
227 170 173 0
230 227 180 0
180 227 174 0
227 173 174 0
173 172 174 0
175 181 174 0
174 181 180 0
176 183 175 0
175 183 181 0
182 183 176 0
229 234 185 0
229 185 228 0
228 185 179 0
185 184 179 0
184 178 179 0
179 178 177 0
232 230 180 0
232 180 181 0
232 181 233 0
187 237 233 0
181 187 233 0
183 187 181 0
186 187 182 0
182 187 183 0
185 234 189 0
189 234 239 0
189 188 184 0
189 184 185 0
237 187 191 0
237 191 240 0
190 191 186 0
186 191 187 0
189 239 193 0
193 239 242 0
193 192 188 0
193 188 189 0
240 191 195 0
240 195 243 0
194 195 190 0
190 195 191 0
193 242 197 0
197 242 245 0
197 196 192 0
197 192 193 0
243 195 199 0
243 199 246 0
198 199 194 0
194 199 195 0
197 245 201 0
201 245 248 0
201 200 196 0
201 196 197 0
246 199 203 0
246 203 249 0
202 203 198 0
198 203 199 0
201 248 205 0
205 248 251 0
205 204 200 0
205 200 201 0
249 203 209 0
249 209 253 0
207 209 202 0
202 209 203 0
251 252 205 0
252 255 211 0
252 211 206 0
205 252 206 0
204 205 206 0
211 210 206 0
253 209 208 0
213 253 208 0
258 253 213 0
208 209 207 0
255 257 211 0
257 261 215 0
257 215 212 0
211 257 212 0
210 211 212 0
215 214 212 0
265 259 220 0
259 258 220 0
258 218 220 0
258 213 218 0
261 263 215 0
215 263 214 0
263 216 214 0
263 264 216 0
216 266 217 0
264 266 216 0
220 219 265 0
219 266 265 0
219 217 266 0
219 220 218 0
224 223 221 0
222 226 221 0
221 226 224 0
225 226 222 0
268 270 224 0
270 223 224 0
270 228 223 0
268 224 226 0
268 226 269 0
272 269 231 0
231 269 227 0
269 226 227 0
226 225 227 0
230 231 227 0
235 234 229 0
275 235 229 0
228 275 229 0
270 275 228 0
274 272 231 0
277 274 236 0
236 274 232 0
274 231 232 0
231 230 232 0
233 238 232 0
232 238 236 0
237 238 233 0
276 280 235 0
280 234 235 0
280 239 234 0
276 235 275 0
279 277 236 0
241 281 279 0
236 241 279 0
238 241 236 0
240 241 237 0
237 241 238 0
280 242 239 0
283 242 280 0
281 241 244 0
281 244 284 0
243 244 240 0
240 244 241 0
283 245 242 0
286 245 283 0
284 244 247 0
284 247 288 0
246 247 243 0
243 247 244 0
286 248 245 0
289 248 286 0
288 247 250 0
288 250 291 0
249 250 246 0
246 250 247 0
289 251 248 0
292 251 289 0
291 250 254 0
291 254 294 0
253 254 249 0
249 254 250 0
252 251 256 0
251 295 256 0
251 292 295 0
256 255 252 0
294 254 260 0
294 260 297 0
258 260 253 0
253 260 254 0
295 296 256 0
296 300 262 0
296 262 257 0
256 296 257 0
255 256 257 0
262 261 257 0
303 298 267 0
267 298 297 0
267 297 260 0
265 267 260 0
259 265 260 0
259 260 258 0
300 301 262 0
262 301 261 0
301 263 261 0
301 302 263 0
263 304 264 0
302 304 263 0
267 266 303 0
266 304 303 0
266 264 304 0
266 267 265 0
271 270 268 0
269 273 268 0
268 273 271 0
272 273 269 0
306 308 271 0
308 270 271 0
308 275 270 0
306 271 273 0
306 273 307 0
311 307 278 0
278 307 274 0
307 273 274 0
273 272 274 0
277 278 274 0
309 314 276 0
276 314 280 0
276 275 308 0
276 308 309 0
313 311 278 0
318 313 282 0
282 313 279 0
313 278 279 0
278 277 279 0
281 282 279 0
314 283 280 0
320 283 314 0
318 282 285 0
318 285 323 0
284 285 281 0
281 285 282 0
321 326 287 0
320 321 287 0
286 320 287 0
283 320 286 0
325 323 285 0
285 284 325 0
284 327 325 0
284 288 327 0
287 326 290 0
290 326 329 0
290 289 286 0
290 286 287 0
291 327 288 0
291 330 327 0
290 329 293 0
293 329 332 0
293 292 289 0
293 289 290 0
294 330 291 0
294 334 330 0
332 333 293 0
292 293 333 0
337 292 333 0
295 292 337 0
340 335 299 0
335 334 299 0
334 297 299 0
334 294 297 0
337 338 295 0
295 338 296 0
300 296 338 0
300 338 343 0
345 341 305 0
305 341 340 0
305 340 299 0
303 305 299 0
298 303 299 0
298 299 297 0
343 344 300 0
300 344 301 0
301 346 302 0
344 346 301 0
305 304 345 0
304 346 345 0
304 302 346 0
304 305 303 0
310 308 306 0
307 312 306 0
306 312 310 0
311 312 307 0
315 314 309 0
308 310 309 0
310 315 309 0
310 316 315 0
317 310 312 0
316 310 317 0
313 319 311 0
319 312 311 0
319 317 312 0
318 319 313 0
348 352 322 0
349 348 315 0
348 320 315 0
320 314 315 0
348 322 320 0
349 315 316 0
349 316 350 0
350 316 317 0
350 317 351 0
324 353 351 0
317 324 351 0
319 324 317 0
323 324 318 0
318 324 319 0
322 352 321 0
352 326 321 0
352 356 326 0
322 321 320 0
355 353 324 0
357 355 328 0
328 355 325 0
355 324 325 0
324 323 325 0
327 328 325 0
356 329 326 0
359 329 356 0
357 328 331 0
357 331 361 0
330 331 327 0
327 331 328 0
359 332 329 0
363 332 359 0
361 331 336 0
361 336 368 0
334 336 330 0
330 336 331 0
363 365 332 0
332 365 333 0
337 333 365 0
337 365 371 0
374 366 339 0
369 342 339 0
369 339 366 0
342 369 368 0
342 368 336 0
340 342 336 0
335 340 336 0
335 336 334 0
371 372 337 0
337 372 338 0
343 338 372 0
343 372 376 0
374 339 347 0
374 347 377 0
345 347 341 0
347 342 341 0
347 339 342 0
341 342 340 0
376 378 343 0
343 378 344 0
347 346 377 0
346 378 377 0
346 344 378 0
346 347 345 0
380 383 348 0
348 383 352 0
381 348 349 0
381 380 348 0
382 349 350 0
382 381 349 0
384 382 354 0
382 351 354 0
382 350 351 0
353 354 351 0
383 356 352 0
387 356 383 0
386 384 354 0
390 386 358 0
358 386 355 0
386 354 355 0
354 353 355 0
357 358 355 0
387 359 356 0
393 359 387 0
396 391 360 0
360 391 390 0
358 360 390 0
362 360 358 0
361 362 357 0
357 362 358 0
394 398 364 0
393 394 364 0
363 393 364 0
359 393 363 0
396 360 367 0
396 367 405 0
370 360 362 0
367 360 370 0
368 370 361 0
361 370 362 0
398 399 364 0
364 399 363 0
399 365 363 0
399 401 365 0
403 373 371 0
365 403 371 0
401 403 365 0
406 375 373 0
406 373 403 0
375 406 405 0
375 405 367 0
374 375 367 0
366 374 367 0
366 367 369 0
369 367 370 0
369 370 368 0
373 372 371 0
372 373 376 0
373 379 376 0
373 375 379 0
377 379 374 0
374 379 375 0
379 378 376 0
378 379 377 0
408 410 380 0
380 410 383 0
409 380 381 0
409 408 380 0
412 409 385 0
409 382 385 0
409 381 382 0
384 385 382 0
410 387 383 0
415 387 410 0
416 413 388 0
388 413 412 0
385 388 412 0
389 388 385 0
386 392 384 0
392 385 384 0
392 389 385 0
390 392 386 0
415 393 387 0
418 393 415 0
416 388 395 0
416 395 419 0
397 388 389 0
395 388 397 0
396 397 391 0
397 392 391 0
397 389 392 0
391 392 390 0
400 398 394 0
393 418 420 0
400 393 420 0
402 400 420 0
394 393 400 0
402 420 419 0
395 402 419 0
404 402 395 0
407 395 397 0
404 395 407 0
405 407 396 0
396 407 397 0
400 399 398 0
399 400 401 0
401 400 402 0
401 402 403 0
403 402 404 0
403 404 406 0
406 404 407 0
406 407 405 0
411 410 408 0
409 414 408 0
408 414 411 0
412 414 409 0
417 415 411 0
411 415 410 0
416 417 413 0
417 414 413 0
417 411 414 0
413 414 412 0
421 418 417 0
417 418 415 0
419 421 416 0
416 421 417 0
421 420 418 0
420 421 419 0
