#!ascii version of /Users/gilles/git/nukkies/notebooks/data/RSIT_STh_R_dil.asc
690 1376
-6.908837  -54.212154  -32.253822  0
-7.379641  -54.297699  -32.330975  0
-7.862959  -54.334351  -32.317192  0
-8.207365  -54.351242  -32.246464  0
-7.170982  -54.660442  -32.291981  0
-7.739482  -54.747501  -32.381821  0
-8.182281  -54.720741  -32.314587  0
-7.582649  -55.281391  -32.338009  0
-8.122076  -55.230789  -32.311256  0
-7.396178  -55.621391  -32.280720  0
-7.636128  -55.762325  -32.297298  0
-8.000063  -55.717567  -32.269043  0
-9.293817  -52.942051  -31.731573  0
-8.895572  -53.305721  -31.791307  0
-9.368646  -53.352112  -31.815786  0
-9.654706  -53.230289  -31.750080  0
-6.777043  -53.992329  -32.170696  0
-6.729644  -53.829422  -31.899380  0
-7.068831  -53.976772  -32.185429  0
-7.258379  -53.723274  -31.939043  0
-7.559786  -53.984177  -32.180149  0
-7.790231  -53.692554  -31.918287  0
-8.037900  -54.024254  -32.140968  0
-8.400223  -53.728748  -31.910505  0
-8.912413  -53.845840  -31.903484  0
-9.289434  -53.749962  -31.854408  0
-9.671389  -53.676357  -31.778963  0
-6.625130  -54.080463  -32.089420  0
-6.365510  -54.106468  -31.764299  0
-6.662031  -54.408962  -32.069221  0
-8.388534  -54.180508  -32.111946  0
-8.775729  -54.299507  -31.998123  0
-9.222910  -54.243305  -31.885801  0
-9.630427  -54.173672  -31.779457  0
-6.871061  -54.702663  -32.138527  0
-6.633952  -54.725582  -31.918806  0
-7.036723  -55.029507  -32.123280  0
-8.500690  -54.586079  -32.168552  0
-8.851454  -54.892838  -32.016941  0
-9.137342  -54.680084  -31.906628  0
-9.543938  -54.732048  -31.765676  0
-7.287735  -55.385147  -32.241570  0
-7.244410  -55.534611  -32.215290  0
-7.002570  -55.402908  -32.016388  0
-8.525002  -55.110096  -32.169865  0
-8.862958  -55.423321  -31.964632  0
-9.243872  -55.192955  -31.822720  0
-7.173836  -55.668457  -32.134399  0
-6.882470  -55.694599  -31.820612  0
-7.297471  -55.966961  -32.077602  0
-7.788525  -56.062973  -32.149704  0
-8.508260  -55.722225  -32.056969  0
-8.175286  -56.045292  -32.079655  0
-8.856288  -55.752476  -31.885958  0
-9.112054  -55.682457  -31.771002  0
-7.171555  -56.256947  -31.804466  0
-7.552775  -56.302841  -31.896702  0
-8.025829  -56.302334  -31.873581  0
-8.756792  -52.256454  -31.295185  0
-9.133322  -52.631996  -31.605040  0
-9.303982  -52.346722  -31.424345  0
-9.903181  -52.306118  -31.315229  0
-10.267442  -52.333588  -31.199711  0
-8.311277  -52.587296  -31.303200  0
-8.924319  -52.850964  -31.663115  0
-8.637899  -52.977360  -31.633844  0
-8.747905  -52.629826  -31.497559  0
-9.438652  -52.657845  -31.620026  0
-9.629781  -52.896652  -31.684404  0
-9.803715  -52.721050  -31.520788  0
-10.201038  -52.690243  -31.322947  0
-6.714535  -53.623684  -31.453259  0
-7.033280  -53.573147  -31.668043  0
-7.498078  -53.409081  -31.592192  0
-7.886393  -53.015511  -31.369028  0
-8.434525  -53.256058  -31.699795  0
-8.036457  -53.351505  -31.664238  0
-8.315827  -52.970901  -31.521383  0
-9.871983  -53.109112  -31.635178  0
-10.178078  -53.223072  -31.426451  0
-6.419019  -53.836739  -31.544460  0
-6.177605  -54.023697  -31.350677  0
-9.966263  -53.527901  -31.633263  0
-10.261764  -53.834148  -31.406338  0
-6.130262  -54.312489  -31.435122  0
-6.349835  -54.477585  -31.729555  0
-9.985129  -54.041370  -31.623825  0
-10.262692  -54.370132  -31.391441  0
-6.417926  -54.720364  -31.689610  0
-6.255001  -54.656456  -31.471378  0
-6.589836  -55.015350  -31.690323  0
-9.941991  -54.554279  -31.607925  0
-9.866176  -54.978512  -31.595238  0
-10.198434  -54.925957  -31.388313  0
-6.703751  -55.383820  -31.693563  0
-6.600207  -55.474113  -31.486694  0
-6.497256  -55.219913  -31.425234  0
-9.625863  -55.196941  -31.668259  0
-9.892191  -55.405025  -31.482969  0
-10.242516  -55.370426  -31.296223  0
-6.650254  -55.703617  -31.379360  0
-6.911949  -56.028622  -31.671680  0
-8.891785  -56.012051  -31.723032  0
-9.476907  -55.572403  -31.633837  0
-9.272733  -55.908520  -31.593689  0
-9.614753  -55.878777  -31.442610  0
-10.066063  -55.822971  -31.265902  0
-7.025786  -56.279865  -31.459206  0
-7.375742  -56.428829  -31.556019  0
-7.848166  -56.472019  -31.549858  0
-8.460321  -56.185795  -31.812950  0
-8.349579  -56.430313  -31.517744  0
-8.748616  -56.309502  -31.521881  0
-9.200349  -56.212666  -31.398294  0
-9.670949  -56.215145  -31.221701  0
-8.740024  -52.013458  -31.148853  0
-8.724334  -51.807751  -30.900181  0
-9.066056  -51.962143  -31.176094  0
-9.307705  -51.658112  -30.942938  0
-9.606246  -51.948521  -31.171347  0
-9.849529  -51.654858  -30.915176  0
-10.201619  -51.957657  -31.013367  0
-10.191019  -51.670616  -30.831259  0
-8.466890  -52.188457  -31.129784  0
-8.208179  -52.403690  -31.129257  0
-8.180852  -52.207058  -30.871819  0
-10.501219  -52.229118  -31.007608  0
-10.754772  -52.398502  -30.844444  0
-7.974361  -52.644966  -31.131380  0
-7.734290  -52.888130  -31.153837  0
-7.677618  -52.696762  -30.854053  0
-10.501302  -52.577694  -31.109013  0
-10.754228  -52.840908  -30.901619  0
-6.802748  -53.502403  -31.020840  0
-7.492403  -53.102142  -31.198023  0
-7.098683  -53.382233  -31.312609  0
-7.180407  -53.146061  -30.809322  0
-10.491460  -53.047443  -31.155157  0
-10.754193  -53.344849  -30.897793  0
-6.439951  -53.817963  -31.084782  0
-6.159829  -54.092075  -31.045078  0
-6.661102  -53.664001  -30.817749  0
-10.507039  -53.588535  -31.153238  0
-10.761381  -53.863369  -30.875546  0
-6.053101  -54.234985  -31.166531  0
-6.140918  -54.395447  -30.929876  0
-10.525912  -54.124138  -31.135199  0
-10.769315  -54.367859  -30.868780  0
-6.103452  -54.528027  -31.170488  0
-6.298206  -54.905704  -31.265940  0
-6.210342  -54.751232  -30.980534  0
-10.518959  -54.632210  -31.133944  0
-10.772276  -54.864723  -30.884565  0
-6.427476  -55.218014  -31.078379  0
-10.505321  -55.119553  -31.132401  0
-10.757199  -55.372540  -30.900446  0
-6.595920  -55.592827  -30.932615  0
-6.810293  -55.977627  -31.110451  0
-6.709632  -55.752552  -30.817053  0
-10.453999  -55.589096  -31.119686  0
-10.367561  -55.970352  -31.085131  0
-10.691631  -55.912888  -30.881199  0
-7.047004  -56.255856  -31.079159  0
-7.289295  -56.420059  -31.168451  0
-7.273361  -56.328571  -30.840342  0
-7.720231  -56.520584  -31.152546  0
-8.231780  -56.548794  -31.145882  0
-8.801520  -56.489571  -31.172194  0
-9.304981  -56.443703  -31.109484  0
-10.094010  -56.296890  -31.035389  0
-9.639739  -56.525459  -30.961168  0
-10.458811  -56.221622  -30.942045  0
-10.672450  -56.313740  -30.760721  0
-9.592241  -56.745499  -30.712389  0
-8.670813  -51.584053  -30.494106  0
-9.048148  -51.413506  -30.560865  0
-9.364009  -51.150017  -30.361282  0
-9.590278  -51.379822  -30.674316  0
-9.842460  -51.129135  -30.383659  0
-10.188008  -51.402573  -30.555357  0
-10.186048  -51.137051  -30.322252  0
-8.431507  -51.815636  -30.603174  0
-8.198066  -52.010487  -30.415792  0
-10.495750  -51.680424  -30.644253  0
-10.745582  -51.973576  -30.655073  0
-10.781650  -51.685917  -30.434689  0
-7.932296  -52.307121  -30.553946  0
-7.693714  -52.529148  -30.376894  0
-10.978361  -52.256405  -30.573179  0
-11.211816  -52.378384  -30.328171  0
-7.425210  -52.810684  -30.520428  0
-7.215724  -53.030304  -30.376968  0
-10.996152  -52.620358  -30.630760  0
-11.238809  -52.834652  -30.369360  0
-7.057008  -53.227428  -30.498707  0
-10.997424  -53.093502  -30.646452  0
-11.237030  -53.337708  -30.389042  0
-6.892771  -53.528229  -30.531509  0
-6.622382  -53.914265  -30.609034  0
-10.996996  -53.600044  -30.630333  0
-11.239424  -53.846424  -30.373550  0
-6.351217  -54.193970  -30.763371  0
-6.626139  -54.385361  -30.395359  0
-11.003381  -54.106876  -30.612621  0
-11.247307  -54.365170  -30.355669  0
-6.384866  -54.717930  -30.687408  0
-6.670244  -54.888268  -30.340237  0
-11.013577  -54.611671  -30.618694  0
-11.247122  -54.880238  -30.372314  0
-6.553228  -55.205151  -30.630007  0
-6.743207  -55.493622  -30.530634  0
-6.704447  -55.202229  -30.379242  0
-11.020785  -55.124245  -30.641502  0
-11.246718  -55.381817  -30.385811  0
-6.889928  -55.806957  -30.624838  0
-7.151357  -56.068954  -30.602831  0
-7.091636  -55.814095  -30.368889  0
-11.014037  -55.655739  -30.631874  0
-11.244678  -55.864639  -30.338644  0
-7.446567  -56.289520  -30.523825  0
-7.648088  -56.449238  -30.699804  0
-7.723076  -56.346680  -30.283978  0
-8.152027  -56.565914  -30.709103  0
-8.597711  -56.604565  -30.810207  0
-9.142996  -56.657597  -30.752106  0
-10.394994  -56.552570  -30.747173  0
-10.989342  -56.220577  -30.488346  0
-10.723783  -56.543175  -30.553875  0
-11.237909  -56.168629  -30.246424  0
-9.405924  -56.836178  -30.494246  0
-9.116371  -56.795547  -30.342934  0
-9.961679  -56.670189  -30.770882  0
-9.811757  -56.900860  -30.418953  0
-10.205244  -56.821068  -30.518543  0
-10.549953  -56.786114  -30.387918  0
-9.223704  -51.069649  -30.020170  0
-9.605415  -50.920422  -30.017807  0
-9.938443  -50.678436  -29.771210  0
-10.187310  -50.872772  -30.006588  0
-10.201906  -50.637272  -29.785318  0
-9.049855  -51.217869  -30.175684  0
-8.779849  -51.441196  -30.081196  0
-10.503249  -51.144604  -30.126995  0
-10.787781  -51.419449  -30.156849  0
-10.801353  -51.149567  -29.895035  0
-8.472794  -51.749813  -30.160244  0
-8.264012  -52.009533  -30.033449  0
-11.020759  -51.708046  -30.198931  0
-11.120351  -52.014481  -30.297447  0
-11.280847  -51.796761  -29.957380  0
-8.009251  -52.269707  -30.096077  0
-7.748637  -52.514553  -30.040649  0
-8.229074  -52.156067  -29.842684  0
-11.384221  -52.097240  -29.995861  0
-7.508070  -52.786770  -30.086422  0
-7.264970  -53.094818  -30.063383  0
-7.711606  -52.636375  -29.884161  0
-11.502847  -52.537205  -30.000267  0
-11.748508  -52.865498  -29.815241  0
-7.078710  -53.289207  -30.240131  0
-7.225008  -53.395214  -29.909956  0
-11.483082  -53.080029  -30.121811  0
-11.725294  -53.342247  -29.896646  0
-7.036459  -53.598389  -30.108295  0
-7.200883  -53.820652  -29.820902  0
-11.478767  -53.587795  -30.140377  0
-11.719733  -53.849335  -29.876516  0
-6.914788  -54.022850  -30.156404  0
-7.192073  -54.336319  -29.787371  0
-11.480386  -54.106838  -30.110100  0
-11.700127  -54.359871  -29.823713  0
-6.919707  -54.616272  -30.064640  0
-7.198257  -54.883545  -29.813070  0
-11.485834  -54.682121  -30.059958  0
-11.683122  -54.772362  -29.764334  0
-6.920634  -55.152702  -30.153643  0
-7.025957  -55.570728  -30.253666  0
-7.196886  -55.322815  -29.937357  0
-11.412169  -55.145058  -30.152187  0
-7.352998  -55.728195  -29.995008  0
-7.549383  -56.130886  -30.145639  0
-11.425871  -55.583996  -30.078207  0
-7.907357  -56.270859  -29.896116  0
-8.132340  -56.474861  -30.169245  0
-8.678848  -56.646988  -30.332556  0
-11.377571  -56.039368  -30.021330  0
-11.201681  -56.414341  -30.006235  0
-9.018619  -56.781559  -29.947248  0
-9.438087  -56.936321  -30.097406  0
-9.879176  -57.034451  -29.993353  0
-10.292240  -56.977100  -30.101160  0
-10.887836  -56.648098  -30.226954  0
-10.698539  -56.882881  -30.033840  0
-9.934485  -50.607662  -29.429502  0
-10.216356  -50.554592  -29.550821  0
-9.620317  -50.807957  -29.519709  0
-9.298810  -51.025703  -29.652960  0
-9.767785  -50.706364  -29.295998  0
-10.450039  -50.652283  -29.636438  0
-10.732154  -50.895161  -29.626682  0
-10.669575  -50.668201  -29.423429  0
-9.014219  -51.282555  -29.662323  0
-8.784556  -51.551769  -29.605536  0
-9.183403  -51.188526  -29.388359  0
-11.031624  -51.162346  -29.622406  0
-11.271015  -51.459061  -29.632740  0
-11.248947  -51.176540  -29.323942  0
-8.622200  -51.690990  -29.763706  0
-8.706813  -51.851505  -29.379726  0
-11.503206  -51.805374  -29.641199  0
-11.749381  -51.879154  -29.342253  0
-8.474097  -52.081821  -29.595079  0
-8.199680  -52.397457  -29.654085  0
-8.674388  -52.102226  -29.248425  0
-11.630397  -52.135174  -29.677734  0
-11.851330  -52.405220  -29.543198  0
-11.810542  -52.110367  -29.427427  0
-7.914048  -52.553753  -29.782276  0
-7.746332  -52.846348  -29.706621  0
-8.119693  -52.860336  -29.425468  0
-12.014534  -52.739174  -29.523842  0
-12.262154  -52.908039  -29.353079  0
-7.481190  -53.134209  -29.777290  0
-7.818834  -53.303730  -29.448574  0
-8.192601  -53.330269  -29.199911  0
-11.986409  -53.122677  -29.638756  0
-12.251007  -53.360203  -29.417383  0
-7.467492  -53.562901  -29.618900  0
-7.706867  -53.776409  -29.399012  0
-8.038348  -53.778820  -29.184357  0
-11.976020  -53.602451  -29.648533  0
-12.238044  -53.861622  -29.367691  0
-7.460789  -54.054588  -29.548378  0
-7.767906  -54.262810  -29.291658  0
-11.966888  -54.159283  -29.555662  0
-12.216790  -54.267944  -29.273745  0
-7.464873  -54.606876  -29.533493  0
-7.716979  -54.872860  -29.296902  0
-11.862668  -54.655117  -29.541414  0
-11.776517  -55.020664  -29.561371  0
-7.463167  -55.213409  -29.610727  0
-7.732341  -55.375225  -29.321690  0
-11.593909  -55.202290  -29.818848  0
-11.780359  -55.444828  -29.419138  0
-7.605985  -55.608475  -29.556498  0
-7.791368  -55.934868  -29.597475  0
-7.759218  -55.667171  -29.384350  0
-11.573008  -55.816319  -29.636690  0
-11.760937  -55.872406  -29.229012  0
-8.090800  -56.200615  -29.548018  0
-8.229967  -56.372086  -29.708641  0
-8.404219  -56.262787  -29.377354  0
-8.686131  -56.511978  -29.609751  0
-8.657682  -56.295940  -29.249670  0
-11.427035  -56.248257  -29.666332  0
-11.290845  -56.568142  -29.483881  0
-9.072309  -56.736145  -29.542971  0
-9.329975  -56.908604  -29.647612  0
-9.316221  -56.806545  -29.318495  0
-9.753906  -57.038231  -29.626247  0
-10.244093  -57.068710  -29.592897  0
-10.993353  -56.764462  -29.778399  0
-10.683278  -56.974789  -29.635765  0
-10.245989  -50.564140  -29.202364  0
-10.515024  -50.579517  -29.311529  0
-10.010380  -50.726898  -29.028149  0
-9.699656  -50.909729  -29.073639  0
-10.282953  -50.650867  -28.937742  0
-10.782653  -50.738895  -29.146524  0
-10.531738  -50.666145  -28.946196  0
-11.095127  -50.984329  -29.112661  0
-9.426846  -51.169437  -29.092804  0
-9.162211  -51.441051  -29.094278  0
-9.658125  -51.134357  -28.827457  0
-11.429959  -51.220032  -28.971985  0
-11.621095  -51.557541  -29.194164  0
-8.938087  -51.707371  -29.158655  0
-9.154445  -51.778713  -28.772001  0
-11.870338  -51.695580  -28.964449  0
-8.833804  -52.115677  -29.019243  0
-8.694078  -52.393993  -29.095598  0
-12.045283  -52.021027  -29.056929  0
-12.283683  -52.442200  -29.121950  0
-12.322179  -52.123386  -28.840221  0
-8.457571  -52.613689  -29.271221  0
-8.725252  -52.882820  -28.889500  0
-12.519547  -52.752872  -29.076822  0
-12.768956  -52.875343  -28.838150  0
-8.463952  -53.116161  -29.073048  0
-8.713929  -53.371979  -28.773584  0
-12.531307  -53.130577  -29.155418  0
-12.784610  -53.344055  -28.877737  0
-8.456187  -53.670982  -28.913752  0
-8.250812  -54.031475  -28.969593  0
-8.699693  -53.668713  -28.710644  0
-12.522537  -53.623680  -29.150749  0
-12.764915  -53.849068  -28.843271  0
-8.047924  -54.202812  -29.082993  0
-8.235948  -54.412086  -28.884132  0
-12.512797  -54.201900  -29.020678  0
-12.314426  -54.543789  -29.088243  0
-12.753747  -54.180378  -28.777472  0
-7.979945  -54.619274  -29.067162  0
-8.238478  -54.883167  -28.827688  0
-12.093692  -54.598713  -29.285906  0
-12.277356  -54.927246  -29.004530  0
-7.972454  -55.137543  -29.065470  0
-8.307405  -55.396564  -28.836466  0
-12.000101  -55.100159  -29.240931  0
-12.270815  -55.405396  -28.870281  0
-7.991335  -55.636356  -29.175797  0
-8.193290  -56.001900  -29.251181  0
-8.325135  -55.772552  -28.975874  0
-8.636635  -56.022728  -28.971334  0
-8.546881  -55.689217  -28.781046  0
-12.028064  -55.737892  -28.962469  0
-11.849167  -56.099892  -28.942966  0
-12.283156  -55.728088  -28.746637  0
-8.929861  -56.292618  -29.056965  0
-9.219151  -56.544323  -29.077177  0
-9.204205  -56.287357  -28.832111  0
-11.602026  -56.320171  -29.124887  0
-11.346128  -56.680534  -29.074831  0
-11.823077  -56.313061  -28.805611  0
-9.513144  -56.755768  -29.001472  0
-9.683714  -56.942329  -29.181330  0
-9.798783  -56.816704  -28.775173  0
-10.197873  -57.054600  -29.111559  0
-11.062383  -56.844784  -29.295288  0
-10.765845  -57.013294  -29.059835  0
-11.200340  -56.868202  -28.890345  0
-10.368210  -50.875626  -28.639591  0
-10.889429  -50.926994  -28.589676  0
-11.261889  -51.028996  -28.638247  0
-9.977563  -51.133297  -28.586216  0
-9.666131  -51.388103  -28.581291  0
-10.315991  -51.134483  -28.356789  0
-10.616824  -51.150631  -28.235249  0
-11.511045  -51.169788  -28.395609  0
-11.790171  -51.428875  -28.595276  0
-9.436774  -51.685085  -28.561262  0
-9.264743  -52.024498  -28.493382  0
-9.690666  -51.644760  -28.342386  0
-12.095879  -51.683716  -28.594975  0
-12.367320  -51.893673  -28.508200  0
-12.282883  -51.675335  -28.298359  0
-9.055743  -52.096222  -28.717850  0
-9.237231  -52.403957  -28.381712  0
-12.547791  -52.187244  -28.643072  0
-12.672756  -52.499245  -28.774349  0
-12.793224  -52.281788  -28.418793  0
-8.961357  -52.574745  -28.676788  0
-9.207456  -52.895321  -28.273952  0
-12.913551  -52.584496  -28.451820  0
-8.963303  -53.201416  -28.497208  0
-9.179521  -53.309956  -28.167555  0
-12.974455  -53.030876  -28.502947  0
-8.858599  -53.663059  -28.504158  0
-8.703465  -53.947609  -28.588207  0
-12.970190  -53.543991  -28.518259  0
-8.477465  -54.176414  -28.735985  0
-8.744276  -54.391457  -28.412348  0
-12.927214  -54.080994  -28.462694  0
-12.752838  -54.474411  -28.639898  0
-8.503097  -54.643631  -28.616083  0
-8.865474  -54.902000  -28.300440  0
-12.523935  -54.727715  -28.829361  0
-12.766511  -54.941162  -28.463659  0
-8.555505  -55.112461  -28.587603  0
-8.623537  -55.463459  -28.627855  0
-8.869454  -55.355728  -28.430046  0
-9.179703  -55.281410  -28.163143  0
-12.529113  -55.205421  -28.683453  0
-12.777277  -55.413704  -28.343313  0
-8.842800  -55.701801  -28.612316  0
-9.189425  -55.981434  -28.574474  0
-9.126367  -55.598175  -28.369184  0
-12.533503  -55.726780  -28.484127  0
-12.280972  -56.007740  -28.569862  0
-12.780976  -55.710186  -28.236824  0
-9.470418  -56.274258  -28.576899  0
-9.732361  -56.540932  -28.539009  0
-9.728315  -56.267136  -28.313929  0
-12.023820  -56.282536  -28.556627  0
-11.766177  -56.533340  -28.613163  0
-12.255979  -56.271141  -28.342066  0
-10.036222  -56.754837  -28.441330  0
-10.177860  -56.944740  -28.641651  0
-10.322062  -56.813164  -28.235960  0
-10.693762  -57.021034  -28.575920  0
-11.489180  -56.711426  -28.726650  0
-11.235258  -56.934204  -28.503227  0
-11.623733  -56.783382  -28.386810  0
-11.269420  -51.077736  -28.255466  0
-10.344185  -51.442627  -28.113094  0
-11.051155  -51.241302  -28.023924  0
-10.741292  -51.427616  -27.937422  0
-11.482688  -51.165001  -28.111534  0
-11.391753  -51.229073  -27.976032  0
-11.758701  -51.390419  -27.941622  0
-12.124398  -51.538208  -28.170172  0
-9.932797  -51.579887  -28.242893  0
-9.764504  -51.903339  -28.161552  0
-10.188462  -51.949245  -27.921850  0
-10.641455  -51.778225  -27.793516  0
-11.728291  -51.609570  -27.564489  0
-12.442558  -51.718269  -27.995892  0
-12.668040  -52.014145  -28.189396  0
-9.498961  -52.172531  -28.230274  0
-9.856906  -52.360703  -27.934736  0
-10.187331  -52.318569  -27.786543  0
-10.509453  -52.256863  -27.680285  0
-12.896262  -52.275784  -28.047609  0
-9.488983  -52.643810  -28.077721  0
-9.740088  -52.799820  -27.862328  0
-10.129674  -52.690376  -27.708580  0
-13.025772  -52.692101  -28.047474  0
-9.471771  -53.182190  -27.922670  0
-9.258788  -53.564529  -27.973873  0
-9.816275  -53.049328  -27.743572  0
-13.070714  -53.188759  -28.091326  0
-9.063339  -53.638992  -28.203552  0
-9.216518  -53.925392  -27.913040  0
-13.063791  -53.679977  -28.092337  0
-8.962355  -54.080597  -28.208958  0
-9.204784  -54.340279  -27.858047  0
-13.040733  -54.080891  -28.001604  0
-9.024666  -54.554966  -28.069908  0
-9.251160  -54.909019  -27.926535  0
-9.218349  -54.620945  -27.846872  0
-12.960688  -54.552029  -28.134733  0
-9.451152  -55.255169  -27.914396  0
-9.704198  -55.406536  -27.773266  0
-12.967793  -55.117268  -28.026791  0
-9.465900  -55.598614  -28.099749  0
-9.724196  -55.966526  -28.097391  0
-9.742039  -55.651669  -27.883663  0
-12.934671  -55.578564  -27.985643  0
-12.736281  -55.944290  -27.993605  0
-9.959008  -56.270218  -28.069580  0
-10.232047  -56.535263  -28.025726  0
-10.182433  -56.270084  -27.832882  0
-12.441412  -56.165756  -28.208923  0
-12.136811  -56.477890  -28.007002  0
-10.564734  -56.751701  -27.963530  0
-10.639139  -56.924011  -28.197933  0
-10.942995  -56.796215  -27.839563  0
-11.107512  -56.945740  -28.119833  0
-11.415989  -56.799564  -27.796804  0
-11.861479  -56.659016  -28.224380  0
-11.552218  -56.866554  -28.101118  0
-11.788510  -56.732082  -27.898127  0
-11.407035  -51.503735  -27.715651  0
-12.242509  -51.578121  -27.744066  0
-11.023515  -51.623070  -27.728811  0
-11.563328  -51.783657  -27.465694  0
-11.279567  -51.893955  -27.510702  0
-12.064146  -51.704807  -27.470959  0
-11.790114  -51.843872  -27.369511  0
-12.482877  -51.689468  -27.667431  0
-12.408345  -51.733349  -27.502544  0
-12.667770  -51.949299  -27.653429  0
-10.920817  -52.037567  -27.588177  0
-10.779912  -52.411095  -27.527231  0
-11.084013  -52.344769  -27.410894  0
-11.532309  -52.197025  -27.272577  0
-12.911835  -52.366959  -27.611523  0
-12.708610  -52.188824  -27.315094  0
-10.512010  -52.624084  -27.574320  0
-10.323646  -52.919479  -27.555023  0
-10.684279  -52.813850  -27.418165  0
-11.123650  -52.769043  -27.185431  0
-12.985500  -52.866825  -27.544674  0
-12.788454  -52.495148  -27.216076  0
-10.042530  -53.090157  -27.617989  0
-9.786050  -53.379757  -27.646574  0
-10.213688  -53.308933  -27.450584  0
-10.637646  -53.300999  -27.192202  0
-13.070089  -53.352299  -27.716984  0
-9.478797  -53.689198  -27.738760  0
-9.846547  -53.847916  -27.465939  0
-10.263555  -53.736607  -27.246971  0
-13.053956  -53.755596  -27.631746  0
-9.472832  -54.148796  -27.642859  0
-9.788850  -54.409855  -27.416637  0
-10.113550  -54.217407  -27.227007  0
-13.040536  -54.239418  -27.616644  0
-9.465918  -54.629330  -27.655907  0
-9.600792  -55.055882  -27.683647  0
-9.843820  -54.895435  -27.440964  0
-10.130079  -54.734734  -27.222162  0
-13.060546  -54.750961  -27.611326  0
-9.882838  -55.256760  -27.540318  0
-10.258967  -55.334900  -27.298775  0
-13.117537  -55.290951  -27.491484  0
-13.259542  -55.371429  -27.161129  0
-9.985820  -55.640308  -27.651756  0
-10.116528  -56.039413  -27.750731  0
-10.387641  -55.880371  -27.450083  0
-10.774386  -55.823677  -27.196850  0
-12.970113  -55.740471  -27.642607  0
-12.707206  -56.033535  -27.457645  0
-10.400448  -56.248211  -27.647985  0
-10.683916  -56.539291  -27.694822  0
-10.787105  -56.225967  -27.421247  0
-11.160826  -56.561932  -27.552835  0
-11.318780  -56.237728  -27.275824  0
-11.735073  -56.563133  -27.593164  0
-11.934994  -56.325058  -27.313574  0
-12.469745  -56.287045  -27.779757  0
-12.165008  -56.447613  -27.600334  0
-12.348008  -56.292477  -27.434006  0
-12.388766  -52.010086  -27.266066  0
-11.970469  -52.060150  -27.208740  0
-11.784737  -52.383682  -27.070494  0
-12.511782  -52.361416  -27.056198  0
-12.123298  -52.363766  -27.013733  0
-11.506058  -52.596718  -27.073940  0
-11.348655  -52.890694  -26.976213  0
-11.728627  -52.734146  -26.897331  0
-12.595857  -52.581036  -26.981430  0
-12.237246  -52.750172  -26.814566  0
-12.693612  -52.865791  -26.995550  0
-11.054447  -53.243641  -26.922918  0
-10.729132  -53.554607  -26.964809  0
-11.417862  -53.079865  -26.802114  0
-11.737209  -53.070190  -26.665001  0
-12.924100  -53.328995  -27.210957  0
-12.668176  -53.217030  -26.793579  0
-10.509561  -53.699234  -27.075140  0
-10.660480  -53.898243  -26.868986  0
-12.956220  -53.877583  -27.173206  0
-12.740810  -53.589199  -26.787153  0
-10.404889  -54.062523  -27.043234  0
-10.662700  -54.344372  -26.804596  0
-13.002712  -54.397671  -27.175102  0
-12.798127  -54.087711  -26.774786  0
-10.405763  -54.543808  -27.015253  0
-10.803740  -54.893204  -26.786705  0
-13.090158  -54.844074  -27.208158  0
-12.921397  -54.654316  -26.796562  0
-13.168596  -55.136948  -27.023659  0
-10.495665  -55.052124  -27.039686  0
-10.645823  -55.452106  -27.074982  0
-10.877097  -55.364586  -26.909781  0
-11.268023  -55.350216  -26.694914  0
-13.290609  -55.332642  -27.030327  0
-13.274529  -55.436909  -27.067045  0
-13.145155  -55.385784  -26.901915  0
-10.927800  -55.666611  -27.014837  0
-11.173615  -55.916992  -27.066010  0
-11.269185  -55.705547  -26.905165  0
-11.633503  -56.037598  -27.051003  0
-11.812864  -55.737499  -26.779339  0
-12.260025  -56.066021  -27.104633  0
-12.427382  -55.766457  -26.778378  0
-13.076714  -55.626942  -27.197300  0
-12.723118  -55.877392  -27.056532  0
-12.866158  -55.623352  -26.825724  0
-12.376446  -53.088524  -26.646133  0
-11.388845  -53.432095  -26.604177  0
-12.032829  -53.105312  -26.567156  0
-11.775217  -53.327961  -26.486214  0
-12.441673  -53.420471  -26.537071  0
-12.090597  -53.362026  -26.443960  0
-10.964408  -53.687210  -26.723324  0
-11.304325  -53.929504  -26.454338  0
-11.776117  -53.705700  -26.371801  0
-12.491347  -53.828190  -26.491266  0
-12.187868  -53.651554  -26.374832  0
-10.935686  -54.133568  -26.606770  0
-11.309036  -54.421131  -26.387978  0
-11.730479  -54.252369  -26.298527  0
-12.559318  -54.329147  -26.478786  0
-12.157017  -54.057690  -26.326883  0
-10.997250  -54.602257  -26.562925  0
-11.142331  -54.986752  -26.562555  0
-11.368463  -54.865566  -26.406622  0
-11.750876  -54.765656  -26.303715  0
-12.682845  -54.767982  -26.491522  0
-12.245291  -54.642876  -26.324888  0
-12.951666  -55.078663  -26.676897  0
-11.422512  -55.182880  -26.489992  0
-11.668466  -55.426239  -26.548370  0
-11.746463  -55.178055  -26.395567  0
-12.089793  -55.500309  -26.530785  0
-12.187023  -55.144375  -26.369768  0
-12.886793  -55.361973  -26.639032  0
-12.558698  -55.463295  -26.552809  0
-12.620825  -55.103928  -26.452826  0
16 27 0 0
1 18 0 0
0 18 16 0
2 20 1 0
1 20 18 0
3 22 2 0
2 22 20 0
3 30 22 0
27 29 0 0
34 4 29 0
4 0 29 0
4 1 0 0
1 5 2 0
1 4 5 0
2 6 3 0
2 5 6 0
30 3 37 0
37 3 6 0
34 36 4 0
41 7 36 0
7 4 36 0
7 5 4 0
5 8 6 0
5 7 8 0
37 6 44 0
44 6 8 0
42 47 9 0
42 9 41 0
9 7 41 0
9 10 7 0
7 11 8 0
7 10 11 0
44 8 51 0
51 8 11 0
47 49 9 0
9 49 10 0
10 49 50 0
10 50 11 0
11 50 52 0
11 52 51 0
59 64 12 0
12 67 59 0
65 75 13 0
65 13 64 0
13 12 64 0
13 14 12 0
67 12 68 0
12 15 68 0
12 14 15 0
15 78 68 0
71 80 17 0
19 72 17 0
17 72 71 0
21 73 19 0
19 73 72 0
23 76 21 0
21 76 73 0
76 23 75 0
23 13 75 0
23 24 13 0
13 25 14 0
13 24 25 0
14 26 15 0
14 25 26 0
78 15 82 0
82 15 26 0
81 84 28 0
81 28 80 0
80 28 17 0
28 27 17 0
27 16 17 0
17 16 18 0
17 18 19 0
19 18 20 0
19 20 21 0
21 20 22 0
21 22 23 0
23 22 30 0
31 23 30 0
24 23 31 0
24 32 25 0
24 31 32 0
25 33 26 0
25 32 33 0
82 26 86 0
86 26 33 0
84 85 28 0
85 88 35 0
85 35 29 0
28 85 29 0
27 28 29 0
35 34 29 0
37 38 31 0
37 31 30 0
31 39 32 0
31 38 39 0
32 40 33 0
32 39 40 0
86 33 91 0
91 33 40 0
88 90 35 0
90 94 43 0
90 43 36 0
35 90 36 0
34 35 36 0
43 41 36 0
44 45 38 0
44 38 37 0
38 46 39 0
38 45 46 0
92 40 97 0
40 46 97 0
40 39 46 0
40 92 91 0
95 100 48 0
95 48 94 0
94 48 43 0
48 47 43 0
47 42 43 0
43 42 41 0
51 53 45 0
51 45 44 0
45 54 46 0
45 53 54 0
97 46 103 0
103 46 54 0
100 101 48 0
101 107 55 0
101 55 49 0
48 101 49 0
47 48 49 0
56 50 49 0
56 49 55 0
57 52 50 0
57 50 56 0
57 110 52 0
52 110 51 0
110 102 51 0
102 53 51 0
53 102 54 0
54 102 104 0
54 104 103 0
107 108 55 0
55 108 56 0
56 108 109 0
56 109 57 0
57 109 111 0
57 111 110 0
115 123 58 0
60 117 58 0
58 117 115 0
61 119 60 0
60 119 117 0
62 121 61 0
61 121 119 0
62 126 121 0
124 128 63 0
124 63 123 0
63 58 123 0
63 66 58 0
66 64 59 0
60 66 59 0
58 66 60 0
60 59 67 0
69 60 67 0
61 60 69 0
61 70 62 0
61 69 70 0
126 62 131 0
131 62 70 0
129 134 74 0
129 74 128 0
74 63 128 0
74 77 63 0
77 75 65 0
66 77 65 0
63 77 66 0
66 65 64 0
68 69 67 0
69 68 78 0
79 69 78 0
70 69 79 0
131 70 137 0
137 70 79 0
133 139 71 0
71 139 80 0
135 71 72 0
135 133 71 0
73 74 134 0
135 73 134 0
72 73 135 0
74 73 76 0
74 76 77 0
77 76 75 0
82 83 79 0
82 79 78 0
137 79 142 0
142 79 83 0
140 144 81 0
81 144 84 0
81 80 139 0
81 139 140 0
86 87 83 0
86 83 82 0
142 83 146 0
146 83 87 0
85 84 89 0
84 148 89 0
84 144 148 0
89 88 85 0
91 93 87 0
91 87 86 0
146 87 151 0
151 87 93 0
148 149 89 0
149 153 96 0
149 96 90 0
89 149 90 0
88 89 90 0
96 94 90 0
97 98 92 0
93 91 92 0
98 93 92 0
99 93 98 0
151 93 154 0
154 93 99 0
96 153 95 0
153 100 95 0
153 156 100 0
96 95 94 0
103 105 98 0
103 98 97 0
98 106 99 0
98 105 106 0
154 99 159 0
159 99 106 0
156 157 100 0
100 157 101 0
107 101 157 0
107 157 162 0
110 112 102 0
113 104 102 0
113 102 112 0
105 103 104 0
113 105 104 0
114 105 113 0
160 106 169 0
106 114 169 0
106 105 114 0
106 160 159 0
162 163 107 0
107 163 108 0
108 165 109 0
163 165 108 0
109 166 111 0
165 166 109 0
110 111 112 0
111 167 112 0
111 166 167 0
112 167 113 0
113 167 168 0
113 168 114 0
114 168 170 0
114 170 169 0
174 181 116 0
118 175 116 0
116 175 174 0
120 177 118 0
118 177 175 0
122 179 120 0
120 179 177 0
122 183 179 0
182 186 125 0
182 125 181 0
181 125 116 0
125 123 116 0
123 115 116 0
116 115 117 0
116 117 118 0
118 117 119 0
118 119 120 0
120 119 121 0
120 121 122 0
127 184 126 0
126 184 121 0
184 183 121 0
183 122 121 0
127 188 184 0
187 190 130 0
187 130 186 0
186 130 125 0
130 128 125 0
128 124 125 0
125 124 123 0
131 132 127 0
131 127 126 0
188 127 192 0
192 127 132 0
191 194 136 0
191 136 190 0
190 136 130 0
136 134 130 0
134 129 130 0
130 129 128 0
137 138 132 0
137 132 131 0
192 132 195 0
195 132 138 0
141 139 133 0
194 197 136 0
197 133 136 0
133 135 136 0
133 197 141 0
136 135 134 0
142 143 138 0
142 138 137 0
195 138 199 0
199 138 143 0
145 144 140 0
201 145 140 0
201 140 139 0
198 201 139 0
141 198 139 0
198 141 197 0
146 147 143 0
146 143 142 0
199 143 203 0
203 143 147 0
150 148 145 0
145 148 144 0
145 201 205 0
145 205 150 0
151 152 147 0
151 147 146 0
203 147 207 0
207 147 152 0
150 149 148 0
153 149 150 0
205 153 150 0
209 153 205 0
154 155 152 0
154 152 151 0
207 152 212 0
212 152 155 0
158 156 210 0
156 209 210 0
156 153 209 0
214 158 210 0
159 161 155 0
159 155 154 0
212 155 217 0
217 155 161 0
158 157 156 0
215 164 162 0
215 162 157 0
214 215 157 0
158 214 157 0
219 164 215 0
169 171 160 0
161 159 160 0
171 161 160 0
172 161 171 0
217 161 226 0
226 161 172 0
164 163 162 0
219 220 164 0
220 163 164 0
220 165 163 0
165 222 166 0
220 222 165 0
166 223 167 0
222 223 166 0
167 224 168 0
223 224 167 0
224 229 173 0
170 224 173 0
168 224 170 0
173 231 170 0
170 231 169 0
231 225 169 0
225 171 169 0
171 225 172 0
172 225 227 0
172 227 226 0
229 232 173 0
173 232 231 0
235 240 176 0
178 236 176 0
176 236 235 0
180 238 178 0
178 238 236 0
180 242 238 0
241 245 174 0
174 245 181 0
175 176 240 0
241 175 240 0
174 175 241 0
176 175 177 0
176 177 178 0
178 177 179 0
178 179 180 0
185 243 183 0
183 243 179 0
243 242 179 0
242 180 179 0
185 247 243 0
246 250 182 0
182 250 186 0
182 181 245 0
182 245 246 0
184 185 183 0
189 248 188 0
188 248 184 0
248 247 184 0
247 185 184 0
189 253 248 0
251 254 187 0
187 254 190 0
187 186 250 0
187 250 251 0
192 193 189 0
192 189 188 0
253 189 257 0
257 189 193 0
255 259 191 0
191 259 194 0
191 190 254 0
191 254 255 0
195 196 193 0
195 193 192 0
257 193 261 0
261 193 196 0
259 197 194 0
263 197 259 0
199 200 196 0
199 196 195 0
261 196 265 0
265 196 200 0
202 201 198 0
267 202 198 0
197 267 198 0
263 267 197 0
203 204 200 0
203 200 199 0
265 200 269 0
269 200 204 0
206 205 202 0
202 205 201 0
202 267 271 0
202 271 206 0
207 208 204 0
207 204 203 0
269 204 273 0
273 204 208 0
211 209 206 0
206 209 205 0
206 271 275 0
206 275 211 0
212 213 208 0
212 208 207 0
273 208 278 0
278 208 213 0
211 210 209 0
276 216 214 0
276 214 210 0
275 276 210 0
211 275 210 0
279 216 276 0
217 218 213 0
217 213 212 0
278 213 281 0
281 213 218 0
216 215 214 0
280 221 219 0
280 219 215 0
279 280 215 0
216 279 215 0
282 221 280 0
226 228 218 0
226 218 217 0
281 218 285 0
285 218 228 0
221 220 219 0
282 283 221 0
283 220 221 0
283 222 220 0
222 284 223 0
283 284 222 0
284 287 230 0
224 284 230 0
223 284 224 0
230 229 224 0
231 233 225 0
234 227 225 0
234 225 233 0
234 291 227 0
227 291 226 0
291 286 226 0
286 228 226 0
228 286 285 0
287 288 230 0
230 288 229 0
288 232 229 0
288 289 232 0
231 232 233 0
232 290 233 0
232 289 290 0
233 290 234 0
234 290 292 0
234 292 291 0
293 295 237 0
239 294 237 0
237 294 293 0
239 298 294 0
296 301 235 0
235 301 240 0
236 237 295 0
296 236 295 0
235 236 296 0
237 236 238 0
237 238 239 0
244 299 242 0
242 299 238 0
299 298 238 0
298 239 238 0
244 304 299 0
302 307 241 0
241 307 245 0
241 240 301 0
241 301 302 0
243 244 242 0
249 305 247 0
247 305 243 0
305 304 243 0
304 244 243 0
249 309 305 0
252 250 246 0
311 252 246 0
245 311 246 0
307 311 245 0
248 249 247 0
248 253 249 0
253 309 249 0
253 314 309 0
256 254 251 0
317 256 251 0
317 251 250 0
312 317 250 0
252 312 250 0
312 252 311 0
257 258 315 0
314 257 315 0
253 257 314 0
258 320 315 0
260 259 255 0
322 260 255 0
322 255 254 0
318 322 254 0
256 318 254 0
318 256 317 0
261 262 258 0
261 258 257 0
320 258 325 0
325 258 262 0
264 263 260 0
260 263 259 0
260 322 327 0
260 327 264 0
265 266 262 0
265 262 261 0
325 262 330 0
330 262 266 0
268 267 264 0
264 267 263 0
264 327 332 0
264 332 268 0
269 270 266 0
269 266 265 0
330 266 334 0
334 266 270 0
272 271 268 0
268 271 267 0
268 332 336 0
268 336 272 0
273 274 270 0
273 270 269 0
334 270 338 0
338 270 274 0
277 275 272 0
272 275 271 0
272 336 340 0
272 340 277 0
342 339 274 0
273 342 274 0
278 342 273 0
274 339 338 0
277 276 275 0
279 276 277 0
340 279 277 0
344 279 340 0
281 342 278 0
281 347 342 0
344 345 279 0
279 345 280 0
282 280 345 0
282 345 349 0
285 347 281 0
285 354 347 0
349 350 282 0
282 350 283 0
283 352 284 0
350 352 283 0
287 284 352 0
287 352 356 0
361 355 286 0
361 286 291 0
285 286 354 0
354 286 355 0
356 357 287 0
287 357 288 0
288 359 289 0
357 359 288 0
289 360 290 0
359 360 289 0
290 362 292 0
360 362 290 0
291 292 361 0
361 292 362 0
297 295 293 0
297 293 365 0
293 363 365 0
293 294 363 0
300 364 298 0
364 294 298 0
364 363 294 0
300 368 364 0
303 301 296 0
371 303 296 0
371 296 295 0
366 371 295 0
297 366 295 0
366 297 365 0
299 300 298 0
306 370 304 0
304 370 299 0
370 368 299 0
368 300 299 0
306 374 370 0
308 307 302 0
376 308 302 0
376 302 301 0
372 376 301 0
303 372 301 0
372 303 371 0
305 306 304 0
310 375 309 0
309 375 305 0
375 374 305 0
374 306 305 0
310 378 375 0
313 311 308 0
308 311 307 0
308 376 379 0
308 379 313 0
314 316 310 0
314 310 309 0
378 310 381 0
381 310 316 0
319 317 312 0
384 319 312 0
384 312 311 0
380 384 311 0
313 380 311 0
380 313 379 0
315 316 314 0
321 382 320 0
320 382 315 0
382 381 315 0
381 316 315 0
321 386 382 0
323 322 318 0
317 319 318 0
319 323 318 0
319 324 323 0
319 384 388 0
319 388 324 0
325 326 321 0
325 321 320 0
386 321 390 0
390 321 326 0
328 327 323 0
323 327 322 0
329 323 324 0
328 323 329 0
324 388 392 0
324 392 329 0
330 331 326 0
330 326 325 0
390 326 395 0
395 326 331 0
333 332 328 0
328 332 327 0
329 393 397 0
333 329 397 0
328 329 333 0
393 329 392 0
334 335 331 0
334 331 330 0
395 331 399 0
399 331 335 0
337 336 333 0
333 336 332 0
333 397 402 0
333 402 337 0
404 400 335 0
334 404 335 0
338 404 334 0
335 400 399 0
341 340 337 0
337 340 336 0
337 402 406 0
337 406 341 0
342 343 339 0
343 408 339 0
408 338 339 0
408 404 338 0
346 344 341 0
341 344 340 0
341 406 410 0
341 410 346 0
347 348 343 0
347 343 342 0
408 343 415 0
415 343 348 0
346 345 344 0
411 351 349 0
411 349 345 0
410 411 345 0
346 410 345 0
413 353 351 0
413 351 411 0
418 353 413 0
421 416 348 0
347 421 348 0
354 421 347 0
348 416 415 0
351 350 349 0
350 351 352 0
352 351 353 0
419 358 356 0
419 356 352 0
418 419 352 0
353 418 352 0
424 358 419 0
428 422 355 0
428 355 361 0
354 355 421 0
421 355 422 0
358 357 356 0
424 425 358 0
425 357 358 0
425 359 357 0
359 427 360 0
425 427 359 0
360 429 362 0
427 429 360 0
361 362 428 0
428 362 429 0
367 365 363 0
364 369 363 0
363 369 367 0
368 369 364 0
373 371 366 0
434 373 366 0
434 366 365 0
431 434 365 0
367 431 365 0
431 367 369 0
431 369 432 0
432 369 368 0
370 432 368 0
433 432 370 0
370 374 433 0
433 374 438 0
377 376 372 0
440 377 372 0
440 372 371 0
435 440 371 0
373 435 371 0
435 373 434 0
439 438 374 0
439 374 375 0
375 378 439 0
439 378 443 0
441 446 377 0
446 376 377 0
446 379 376 0
441 377 440 0
381 383 444 0
443 381 444 0
378 381 443 0
383 448 444 0
385 384 380 0
451 385 380 0
379 451 380 0
446 451 379 0
382 383 381 0
387 449 386 0
386 449 382 0
449 448 382 0
448 383 382 0
387 453 449 0
389 388 385 0
385 388 384 0
385 451 454 0
385 454 389 0
390 391 387 0
390 387 386 0
453 387 456 0
456 387 391 0
394 392 389 0
389 392 388 0
389 454 457 0
389 457 394 0
395 396 391 0
395 391 390 0
456 391 459 0
459 391 396 0
398 397 393 0
460 398 393 0
460 393 392 0
458 460 392 0
394 458 392 0
458 394 457 0
399 401 396 0
399 396 395 0
459 396 462 0
462 396 401 0
403 402 398 0
398 402 397 0
398 460 464 0
398 464 403 0
404 405 400 0
405 466 400 0
400 466 399 0
466 463 399 0
463 401 399 0
401 463 462 0
407 406 403 0
403 406 402 0
403 464 468 0
403 468 407 0
408 409 405 0
408 405 404 0
466 405 472 0
472 405 409 0
412 410 407 0
407 410 406 0
407 468 469 0
414 407 469 0
412 407 414 0
474 414 469 0
415 417 409 0
415 409 408 0
472 409 477 0
477 409 417 0
412 411 410 0
411 412 413 0
413 412 414 0
475 420 418 0
475 418 413 0
474 475 413 0
414 474 413 0
480 420 475 0
421 423 416 0
423 483 416 0
416 483 415 0
483 478 415 0
478 417 415 0
417 478 477 0
420 419 418 0
481 426 424 0
481 424 419 0
480 481 419 0
420 480 419 0
486 426 481 0
428 430 422 0
430 490 422 0
422 490 421 0
490 484 421 0
484 423 421 0
423 484 483 0
426 425 424 0
486 487 426 0
487 425 426 0
487 427 425 0
427 489 429 0
487 489 427 0
428 429 430 0
429 491 430 0
429 489 491 0
430 491 490 0
436 434 431 0
432 437 431 0
431 437 436 0
437 432 495 0
432 493 495 0
432 433 493 0
433 438 493 0
493 438 497 0
442 440 435 0
501 442 435 0
501 435 434 0
494 501 434 0
436 494 434 0
494 436 437 0
494 437 496 0
496 437 495 0
499 497 438 0
499 438 439 0
445 500 443 0
500 439 443 0
500 499 439 0
445 506 500 0
447 446 441 0
508 447 441 0
508 441 440 0
502 508 440 0
442 502 440 0
502 442 501 0
444 445 443 0
450 507 448 0
448 507 444 0
507 506 444 0
506 445 444 0
450 512 507 0
452 451 447 0
447 451 446 0
447 508 513 0
447 513 452 0
449 450 448 0
449 453 450 0
453 512 450 0
453 516 512 0
455 454 452 0
452 454 451 0
452 513 517 0
452 517 455 0
456 516 453 0
456 520 516 0
518 521 455 0
521 454 455 0
521 457 454 0
518 455 517 0
459 520 456 0
459 523 520 0
461 460 458 0
524 461 458 0
457 524 458 0
521 524 457 0
462 523 459 0
462 526 523 0
465 464 461 0
461 464 460 0
461 524 527 0
461 527 465 0
466 467 463 0
467 530 463 0
530 462 463 0
530 526 462 0
470 468 465 0
465 468 464 0
465 527 528 0
471 465 528 0
470 465 471 0
531 471 528 0
472 473 467 0
472 467 466 0
530 467 533 0
533 467 473 0
470 469 468 0
469 470 474 0
470 476 474 0
470 471 476 0
471 531 534 0
471 534 476 0
477 479 473 0
477 473 472 0
533 473 537 0
537 473 479 0
476 475 474 0
535 482 480 0
535 480 475 0
534 535 475 0
476 534 475 0
539 482 535 0
483 485 478 0
485 542 478 0
478 542 477 0
542 538 477 0
538 479 477 0
479 538 537 0
482 481 480 0
540 488 486 0
540 486 481 0
539 540 481 0
482 539 481 0
544 488 540 0
490 492 484 0
492 549 484 0
484 549 483 0
549 543 483 0
543 485 483 0
485 543 542 0
488 487 486 0
544 545 488 0
545 487 488 0
545 489 487 0
489 547 491 0
545 547 489 0
490 491 492 0
491 550 492 0
491 547 550 0
492 550 549 0
498 495 493 0
497 498 493 0
503 501 494 0
496 504 494 0
494 504 503 0
554 504 496 0
554 496 495 0
552 554 495 0
498 552 495 0
555 552 505 0
505 552 499 0
552 498 499 0
498 497 499 0
505 499 557 0
499 553 557 0
499 500 553 0
500 506 553 0
553 506 559 0
509 508 502 0
501 503 502 0
503 509 502 0
503 510 509 0
511 503 504 0
510 503 511 0
504 554 562 0
504 562 511 0
558 555 505 0
558 505 557 0
561 559 506 0
561 506 507 0
507 512 561 0
561 512 566 0
514 513 509 0
509 513 508 0
515 509 510 0
514 509 515 0
511 563 568 0
515 511 568 0
510 511 515 0
563 511 562 0
516 566 512 0
516 572 566 0
519 517 514 0
514 517 513 0
515 569 574 0
519 515 574 0
514 515 519 0
569 515 568 0
520 572 516 0
520 578 572 0
522 521 518 0
579 522 518 0
579 518 517 0
575 579 517 0
519 575 517 0
575 519 574 0
523 578 520 0
523 582 578 0
525 524 522 0
522 524 521 0
522 579 583 0
522 583 525 0
526 582 523 0
526 586 582 0
529 527 525 0
525 527 524 0
525 583 587 0
525 587 529 0
530 586 526 0
530 591 586 0
529 528 527 0
588 532 531 0
588 531 528 0
587 588 528 0
529 587 528 0
592 532 588 0
533 591 530 0
533 594 591 0
536 534 532 0
532 534 531 0
532 592 596 0
532 596 536 0
537 594 533 0
537 600 594 0
536 535 534 0
597 541 539 0
597 539 535 0
596 597 535 0
536 596 535 0
602 541 597 0
609 601 538 0
609 538 542 0
537 538 600 0
600 538 601 0
541 540 539 0
603 546 544 0
603 544 540 0
602 603 540 0
541 602 540 0
605 548 546 0
605 546 603 0
607 551 548 0
607 548 605 0
543 549 551 0
607 543 551 0
610 543 607 0
542 543 609 0
609 543 610 0
546 545 544 0
545 546 547 0
547 546 548 0
547 548 550 0
550 548 551 0
550 551 549 0
556 554 552 0
555 556 552 0
560 557 553 0
559 560 553 0
564 562 556 0
556 562 554 0
558 565 555 0
565 556 555 0
565 564 556 0
613 565 558 0
613 558 557 0
612 613 557 0
560 612 557 0
615 612 567 0
567 612 561 0
612 560 561 0
560 559 561 0
566 567 561 0
570 568 563 0
562 564 563 0
564 570 563 0
564 571 570 0
565 614 617 0
571 565 617 0
564 565 571 0
614 565 613 0
615 567 573 0
615 573 620 0
572 573 566 0
566 573 567 0
576 574 569 0
568 570 569 0
570 576 569 0
570 577 576 0
571 618 623 0
577 571 623 0
570 571 577 0
618 571 617 0
622 620 573 0
573 572 622 0
572 627 622 0
572 578 627 0
580 579 575 0
574 576 575 0
576 580 575 0
576 581 580 0
577 624 629 0
581 577 629 0
576 577 581 0
624 577 623 0
582 627 578 0
582 631 627 0
584 583 580 0
580 583 579 0
585 580 581 0
584 580 585 0
581 629 633 0
581 633 585 0
586 631 582 0
586 635 631 0
589 587 584 0
584 587 583 0
590 584 585 0
589 584 590 0
585 633 637 0
585 637 590 0
591 635 586 0
591 639 635 0
589 588 587 0
588 589 592 0
589 593 592 0
589 590 593 0
590 637 642 0
590 642 593 0
594 595 641 0
639 594 641 0
591 594 639 0
595 646 641 0
598 596 593 0
593 596 592 0
593 642 643 0
599 593 643 0
598 593 599 0
649 599 643 0
656 647 595 0
594 656 595 0
600 656 594 0
595 647 646 0
598 597 596 0
597 598 602 0
598 604 602 0
598 599 604 0
599 649 650 0
606 599 650 0
604 599 606 0
652 608 606 0
652 606 650 0
654 611 608 0
654 608 652 0
601 609 611 0
654 601 611 0
657 601 654 0
600 601 656 0
656 601 657 0
604 603 602 0
603 604 605 0
605 604 606 0
605 606 607 0
607 606 608 0
607 608 610 0
610 608 611 0
610 611 609 0
616 613 612 0
615 616 612 0
619 617 614 0
613 616 614 0
616 619 614 0
616 621 619 0
620 621 615 0
615 621 616 0
625 623 618 0
617 619 618 0
619 625 618 0
619 626 625 0
621 659 661 0
626 621 661 0
619 621 626 0
663 659 628 0
628 659 622 0
659 621 622 0
621 620 622 0
627 628 622 0
630 629 624 0
665 630 624 0
665 624 623 0
660 665 623 0
625 660 623 0
660 625 626 0
660 626 662 0
662 626 661 0
663 628 632 0
663 632 668 0
631 632 627 0
627 632 628 0
634 633 630 0
630 633 629 0
630 665 670 0
630 670 634 0
668 632 636 0
668 636 673 0
635 636 631 0
631 636 632 0
638 637 634 0
634 637 633 0
634 670 675 0
634 675 638 0
673 636 640 0
673 640 679 0
639 640 635 0
635 640 636 0
644 642 638 0
638 642 637 0
638 675 676 0
645 638 676 0
644 638 645 0
682 645 676 0
681 679 640 0
687 681 648 0
648 681 641 0
681 640 641 0
640 639 641 0
646 648 641 0
644 643 642 0
643 644 649 0
644 651 649 0
644 645 651 0
645 682 683 0
653 645 683 0
651 645 653 0
685 655 653 0
685 653 683 0
688 658 655 0
688 655 685 0
658 688 687 0
658 687 648 0
656 658 648 0
647 656 648 0
647 648 646 0
651 650 649 0
650 651 652 0
652 651 653 0
652 653 654 0
654 653 655 0
654 655 657 0
657 655 658 0
657 658 656 0
664 661 659 0
663 664 659 0
666 665 660 0
662 667 660 0
660 667 666 0
661 664 662 0
664 667 662 0
664 669 667 0
668 669 663 0
663 669 664 0
671 670 666 0
666 670 665 0
672 666 667 0
671 666 672 0
674 667 669 0
672 667 674 0
673 674 668 0
668 674 669 0
677 675 671 0
671 675 670 0
678 671 672 0
677 671 678 0
680 672 674 0
678 672 680 0
679 680 673 0
673 680 674 0
677 676 675 0
676 677 682 0
677 684 682 0
677 678 684 0
686 678 680 0
684 678 686 0
681 689 679 0
689 680 679 0
689 686 680 0
687 689 681 0
684 683 682 0
683 684 685 0
685 684 686 0
685 686 688 0
688 686 689 0
688 689 687 0
