#!ascii version of /Users/gilles/git/nukkies/notebooks/data/RSIT_STh_L_dil.asc
600 1198
5.190244  -53.214184  -31.630775  0
5.608392  -54.258194  -31.714016  0
5.390865  -54.335022  -31.677452  0
6.563244  -52.304790  -31.273766  0
6.131844  -52.270832  -31.342588  0
5.645909  -52.267071  -31.321278  0
5.251112  -52.313637  -31.248642  0
6.682228  -52.699013  -31.268370  0
6.258382  -52.690121  -31.410347  0
5.860719  -52.586227  -31.451078  0
5.209439  -52.991974  -31.497915  0
5.447932  -52.634758  -31.425201  0
6.398097  -53.247311  -31.383101  0
5.311800  -53.284634  -31.629818  0
5.716397  -53.109421  -31.534639  0
5.022603  -53.188557  -31.519207  0
5.126153  -53.368145  -31.613701  0
4.807065  -53.428249  -31.397207  0
6.619000  -53.732082  -31.287025  0
6.289109  -53.710564  -31.441442  0
5.803998  -54.100601  -31.657015  0
5.884154  -53.726513  -31.566818  0
5.497783  -54.072525  -31.672522  0
5.219830  -53.704018  -31.571033  0
4.720949  -53.837353  -31.348413  0
6.645822  -54.224033  -31.251469  0
5.808532  -54.321911  -31.630487  0
6.178448  -54.132935  -31.471878  0
5.549695  -54.481926  -31.625076  0
5.106083  -54.312550  -31.504826  0
5.266816  -54.550159  -31.532215  0
4.814651  -54.129791  -31.370808  0
6.351511  -54.575481  -31.305099  0
5.865890  -54.630394  -31.440771  0
5.410333  -54.777836  -31.390575  0
6.713212  -52.061901  -31.140158  0
6.774194  -51.809658  -30.878626  0
6.406728  -51.973663  -31.164799  0
6.161764  -51.661400  -30.916433  0
5.879287  -51.936501  -31.158789  0
5.607845  -51.663143  -30.903952  0
5.289007  -51.950996  -31.013317  0
5.289790  -51.683281  -30.822361  0
6.911427  -52.299206  -31.073771  0
7.167145  -52.069920  -30.773909  0
4.980464  -52.216900  -31.045671  0
4.718394  -52.338921  -30.855366  0
6.959919  -52.732632  -31.107679  0
7.224914  -52.597748  -30.854134  0
6.792884  -53.016788  -31.212318  0
4.982950  -52.563000  -31.210974  0
4.725468  -52.948265  -31.157688  0
4.691065  -52.590401  -30.970175  0
7.335233  -53.073669  -30.793594  0
6.774832  -53.326641  -31.209812  0
6.942550  -53.538918  -31.107462  0
7.052284  -53.118507  -31.034327  0
4.463858  -53.297283  -31.079529  0
4.210629  -53.461704  -30.817434  0
6.950042  -53.946369  -31.095264  0
7.238099  -53.588570  -30.888828  0
4.435176  -53.682076  -31.122398  0
4.188985  -53.875904  -30.828362  0
6.895345  -54.351189  -31.098759  0
7.192312  -54.241459  -30.889925  0
6.677489  -54.560528  -31.181005  0
4.436157  -54.168159  -31.016056  0
4.719821  -54.497425  -31.140343  0
4.193016  -54.137142  -30.773870  0
7.209600  -54.729744  -30.769712  0
6.493564  -54.825031  -31.162365  0
6.836277  -54.739483  -31.008970  0
6.107257  -54.967098  -31.199047  0
5.638977  -55.051933  -31.189268  0
4.999244  -54.790588  -31.150547  0
5.272531  -55.052319  -31.107483  0
4.696655  -54.754765  -30.896973  0
6.848264  -55.170975  -30.792873  0
6.412864  -55.147038  -31.005770  0
5.885783  -55.398533  -30.905769  0
5.406780  -55.320862  -30.862202  0
6.357405  -55.579346  -30.755384  0
6.961755  -51.533112  -30.512915  0
6.451737  -51.393890  -30.547159  0
6.071252  -51.163837  -30.288330  0
5.791245  -51.395138  -30.584431  0
5.682228  -51.194988  -30.247795  0
5.372411  -51.535702  -30.661282  0
7.128409  -51.759914  -30.640619  0
7.321135  -51.882034  -30.530901  0
7.241420  -51.665630  -30.436512  0
5.058078  -51.706085  -30.557951  0
4.843551  -52.025028  -30.726627  0
7.430101  -52.229347  -30.541691  0
4.601161  -52.198181  -30.503374  0
7.556055  -52.763058  -30.533487  0
7.797997  -52.719543  -30.270201  0
4.473903  -52.611546  -30.565689  0
4.316669  -53.069523  -30.742292  0
7.552168  -53.333923  -30.601576  0
7.796813  -53.107700  -30.333948  0
4.116104  -53.290943  -30.506910  0
7.532621  -53.887394  -30.636734  0
7.806281  -53.616795  -30.369379  0
4.069285  -53.646519  -30.523232  0
7.505752  -54.401123  -30.625111  0
7.793559  -54.137749  -30.381983  0
4.099482  -54.021366  -30.549637  0
4.238636  -54.285904  -30.581497  0
4.143408  -54.132717  -30.293140  0
7.457642  -54.709637  -30.601255  0
7.711334  -54.630615  -30.373814  0
7.333211  -54.996761  -30.550112  0
4.489398  -54.586514  -30.642105  0
4.743915  -54.950089  -30.543665  0
7.051068  -55.273361  -30.615625  0
7.273618  -55.292603  -30.392599  0
6.826498  -55.516335  -30.582699  0
5.528178  -55.628246  -30.513035  0
5.065480  -55.169598  -30.758486  0
5.216632  -55.417137  -30.504908  0
6.518466  -55.749634  -30.619955  0
6.729388  -55.800343  -30.421547  0
5.909228  -55.843113  -30.526083  0
6.339138  -55.963230  -30.485718  0
5.655631  -55.853638  -30.354727  0
6.348431  -56.240723  -30.239248  0
6.223648  -51.018681  -29.918587  0
5.841138  -51.063877  -30.036827  0
7.161010  -51.487129  -30.263422  0
7.153515  -51.288227  -29.901320  0
6.464240  -51.154945  -30.213354  0
6.833798  -51.290794  -30.244354  0
6.672617  -51.107471  -29.980057  0
5.517997  -51.155384  -29.912691  0
5.320783  -51.395393  -30.257420  0
7.479147  -51.821648  -30.223577  0
7.758950  -51.676304  -29.823921  0
4.933544  -51.659771  -29.997299  0
4.717566  -51.936028  -30.275751  0
8.134521  -52.079411  -29.766201  0
7.690756  -52.357815  -30.280775  0
7.920816  -52.531887  -30.101097  0
7.880233  -52.165733  -30.009027  0
4.520205  -52.273067  -30.100292  0
8.007558  -52.894932  -30.089790  0
8.185310  -52.563492  -29.860783  0
4.378739  -52.751408  -29.927496  0
4.209139  -53.014137  -30.292810  0
8.047010  -53.371117  -30.107128  0
8.279954  -53.119255  -29.857971  0
4.088462  -53.404800  -30.208582  0
4.212908  -53.176933  -29.952393  0
8.060169  -53.881874  -30.118319  0
8.311175  -53.637669  -29.860319  0
4.079031  -53.813702  -30.232517  0
4.193979  -53.985477  -30.019360  0
4.194664  -53.590458  -29.913166  0
8.027439  -54.364948  -30.122021  0
8.303169  -54.144432  -29.860109  0
4.331876  -54.346046  -30.124193  0
7.952901  -54.675861  -30.124355  0
8.214911  -54.624615  -29.860830  0
7.767349  -54.992809  -30.125963  0
4.543529  -54.744518  -30.093069  0
4.730206  -55.028465  -29.970106  0
7.507117  -55.293049  -30.156115  0
7.770790  -55.277229  -29.885605  0
7.235425  -55.549255  -30.175667  0
4.962275  -55.252834  -30.252457  0
5.249292  -55.520554  -30.047714  0
6.950082  -55.813709  -30.210606  0
7.217323  -55.797375  -29.942074  0
6.738502  -56.065388  -30.156267  0
5.516205  -55.783081  -30.149773  0
5.740257  -56.002007  -30.062599  0
6.526437  -56.346527  -30.019733  0
6.808243  -56.296837  -29.846254  0
6.062408  -56.175243  -30.235895  0
6.264950  -56.390923  -29.961859  0
7.085029  -50.999283  -29.483496  0
7.319049  -50.838879  -29.236570  0
6.617986  -50.992329  -29.586292  0
6.114583  -50.961151  -29.538269  0
5.802698  -51.013149  -29.700163  0
8.120195  -51.116119  -29.196281  0
7.502249  -51.196976  -29.571804  0
7.908938  -51.467167  -29.578266  0
7.784109  -51.078033  -29.308983  0
5.485724  -51.148891  -29.472050  0
5.202797  -51.385937  -29.691351  0
8.105557  -51.774666  -29.658962  0
8.278620  -51.959652  -29.622154  0
8.309510  -51.638874  -29.422792  0
4.944790  -51.775940  -29.431353  0
4.686408  -51.994186  -29.794701  0
8.447127  -52.271049  -29.579464  0
8.721605  -52.083382  -29.329372  0
4.560738  -52.386650  -29.656471  0
4.737899  -52.159203  -29.436882  0
8.531608  -52.857269  -29.611885  0
8.796638  -52.594044  -29.363148  0
4.535948  -52.776875  -29.532246  0
4.722965  -52.549580  -29.323610  0
8.568338  -53.392769  -29.614204  0
8.835031  -53.136600  -29.372417  0
4.424906  -53.253693  -29.620037  0
4.710611  -53.046364  -29.292326  0
8.574696  -53.906464  -29.609968  0
8.843858  -53.659489  -29.369173  0
4.421262  -53.929207  -29.677691  0
4.700791  -53.603054  -29.308678  0
8.541123  -54.378056  -29.604458  0
8.826100  -54.160179  -29.362267  0
4.554077  -54.486156  -29.687160  0
4.736090  -54.179810  -29.329763  0
8.470532  -54.678391  -29.600914  0
8.737873  -54.628544  -29.354975  0
8.286144  -54.981491  -29.605543  0
4.646266  -54.828514  -29.722343  0
4.755724  -54.979164  -29.660582  0
4.830361  -54.756134  -29.400457  0
8.044611  -55.265511  -29.610371  0
8.316680  -55.255848  -29.350164  0
7.765894  -55.520161  -29.641596  0
4.952506  -55.179852  -29.707264  0
5.216542  -55.400482  -29.536388  0
5.100829  -55.087463  -29.267439  0
7.487006  -55.775913  -29.670584  0
7.771429  -55.764511  -29.396341  0
7.254952  -56.054764  -29.658878  0
5.476980  -55.725201  -29.647404  0
5.735518  -56.041458  -29.508198  0
7.018836  -56.357746  -29.547159  0
7.345955  -56.281479  -29.326572  0
6.629186  -56.475620  -29.580709  0
5.976651  -56.273140  -29.794611  0
6.233574  -56.431309  -29.568661  0
7.406959  -50.643990  -29.019979  0
8.160540  -50.946266  -29.047079  0
8.171739  -50.791523  -28.831579  0
7.572139  -50.697773  -29.029753  0
7.769782  -50.784592  -28.971684  0
7.768447  -50.646420  -28.884731  0
7.210231  -50.705750  -29.071430  0
7.412672  -50.677498  -28.926056  0
6.901421  -50.883553  -29.074108  0
6.234236  -50.997665  -29.200607  0
5.792753  -51.034348  -29.320372  0
8.475495  -51.255009  -29.086855  0
8.671567  -51.112759  -28.739416  0
6.831572  -51.066643  -28.692656  0
6.378745  -51.142414  -28.813152  0
5.550734  -51.161709  -29.187317  0
5.798958  -51.215519  -28.965836  0
5.321905  -51.431301  -29.132051  0
8.697504  -51.714844  -29.218073  0
8.875861  -51.936108  -29.170547  0
8.921737  -51.674389  -28.929983  0
5.107394  -51.814449  -29.026878  0
5.303053  -51.718838  -28.822163  0
9.019120  -52.267700  -29.097383  0
9.212920  -52.128780  -28.772568  0
4.957563  -52.227257  -29.106428  0
5.223874  -52.068707  -28.799751  0
9.084989  -52.852650  -29.122690  0
9.278368  -52.591377  -28.855501  0
4.959463  -52.797619  -29.057369  0
5.203903  -52.552765  -28.815529  0
9.102785  -53.381744  -29.122911  0
9.313385  -53.076065  -28.865128  0
4.975658  -53.339684  -29.048410  0
5.227902  -53.086975  -28.820736  0
9.096952  -53.895012  -29.117094  0
9.324773  -53.576912  -28.849360  0
4.988789  -53.875984  -29.046751  0
5.248604  -53.609779  -28.817093  0
9.057730  -54.372604  -29.111250  0
9.309689  -54.098286  -28.842091  0
5.015386  -54.386932  -29.058420  0
5.253848  -54.113880  -28.811310  0
8.987656  -54.677269  -29.107571  0
9.212996  -54.630341  -28.844469  0
8.795938  -54.980358  -29.112549  0
5.077188  -54.766273  -29.075031  0
5.250695  -54.952343  -28.965347  0
5.258250  -54.587006  -28.839872  0
8.588841  -55.252506  -29.097546  0
8.820682  -55.255615  -28.879967  0
8.318644  -55.500832  -29.117374  0
5.381989  -55.344891  -29.114445  0
8.052856  -55.753983  -29.131643  0
8.329381  -55.756176  -28.881878  0
7.811949  -56.036232  -29.125294  0
5.611528  -55.762943  -29.149094  0
5.761799  -56.009220  -29.169390  0
5.817505  -55.875729  -28.869644  0
7.569558  -56.345947  -29.019398  0
7.900248  -56.273949  -28.799637  0
7.143025  -56.494965  -29.097019  0
6.765504  -56.539654  -29.139750  0
5.987707  -56.225368  -29.255695  0
6.424256  -56.427364  -29.104708  0
6.121041  -56.138840  -28.813068  0
8.118210  -50.648472  -28.580154  0
7.734587  -50.614502  -28.810568  0
8.437162  -50.841152  -28.449684  0
8.756082  -51.095024  -28.423166  0
8.198631  -50.695560  -28.396677  0
7.635502  -50.659550  -28.779749  0
7.861770  -50.706013  -28.492426  0
7.353471  -50.866360  -28.656269  0
8.943480  -51.387024  -28.544022  0
8.866785  -51.304226  -28.245588  0
7.005902  -51.117161  -28.515553  0
7.250075  -51.162292  -28.313417  0
6.702331  -51.351166  -28.423958  0
6.049815  -51.441238  -28.601765  0
5.584520  -51.542587  -28.733742  0
9.139913  -51.799656  -28.551222  0
9.301422  -52.118553  -28.502691  0
6.781287  -51.635677  -28.150415  0
6.271730  -51.747036  -28.305466  0
5.498150  -51.892239  -28.603481  0
5.807331  -51.727985  -28.498121  0
9.382151  -52.434021  -28.570526  0
9.372233  -52.321301  -28.315945  0
5.468415  -52.331150  -28.574713  0
5.831013  -52.100643  -28.366365  0
9.422108  -52.803314  -28.633528  0
5.468153  -52.839188  -28.584084  0
5.734509  -52.602093  -28.350565  0
9.466934  -53.197777  -28.562666  0
5.488411  -53.353535  -28.586735  0
5.723944  -53.106003  -28.333416  0
9.500500  -53.716309  -28.528975  0
5.493674  -53.849586  -28.576694  0
5.713704  -53.593616  -28.324030  0
9.496245  -54.273777  -28.516590  0
5.487560  -54.348869  -28.578541  0
5.694752  -54.057014  -28.311007  0
9.439951  -54.831974  -28.425274  0
9.135505  -55.038372  -28.729086  0
5.497107  -54.927864  -28.680466  0
5.709544  -54.570942  -28.309084  0
9.045061  -55.253860  -28.668627  0
9.213790  -55.226402  -28.465500  0
8.814569  -55.497517  -28.649521  0
5.634204  -55.460133  -28.762960  0
5.793343  -55.594105  -28.605738  0
5.837553  -55.248001  -28.378557  0
8.590397  -55.759026  -28.636368  0
8.788253  -55.774338  -28.378641  0
8.335129  -56.040810  -28.615517  0
5.979529  -55.789772  -28.560934  0
6.178330  -56.015022  -28.558947  0
6.226584  -55.761772  -28.305410  0
8.097068  -56.343193  -28.507179  0
8.371330  -56.276043  -28.281631  0
7.677382  -56.490170  -28.584114  0
7.288953  -56.548073  -28.645582  0
6.410498  -56.213387  -28.622387  0
6.883930  -56.454983  -28.664949  0
6.619246  -56.130131  -28.311201  0
8.172727  -50.907845  -28.174025  0
7.689179  -50.983223  -28.245039  0
8.559795  -51.180248  -28.032089  0
8.812126  -51.477856  -27.958693  0
8.250659  -51.138969  -27.908258  0
7.532229  -51.196487  -28.102335  0
7.864323  -51.210953  -27.934235  0
7.268424  -51.440083  -28.037106  0
9.019612  -51.653732  -28.171806  0
8.872853  -51.747623  -27.787931  0
7.008173  -51.681053  -27.990713  0
7.262367  -51.706768  -27.790216  0
6.728868  -51.908611  -27.961987  0
6.223044  -52.075123  -28.156029  0
9.228637  -52.032196  -28.224564  0
9.326593  -52.379871  -27.967659  0
6.748504  -52.225544  -27.728292  0
6.057670  -52.405159  -28.138245  0
6.395226  -52.236404  -27.977911  0
9.467072  -52.731533  -28.289803  0
5.994821  -52.854614  -28.088079  0
6.371027  -52.587605  -27.842155  0
9.576043  -53.251411  -28.178785  0
5.977596  -53.375931  -27.994118  0
6.243537  -53.037785  -27.789240  0
9.673660  -53.821003  -28.136318  0
9.813372  -53.662758  -27.784571  0
5.862592  -53.807800  -28.073360  0
9.673729  -54.432926  -28.172335  0
9.828069  -54.082985  -27.873186  0
5.872110  -54.208897  -28.004732  0
9.660140  -54.889782  -27.997862  0
9.836868  -54.550175  -27.825958  0
5.923111  -54.721371  -28.000755  0
9.430090  -55.216053  -28.090424  0
9.130047  -55.506908  -28.218534  0
6.094088  -55.225647  -28.026749  0
6.268438  -55.525467  -28.040136  0
6.330256  -55.333797  -27.821743  0
8.986222  -55.799908  -27.939487  0
8.661385  -56.062405  -28.147850  0
6.480517  -55.780899  -28.056648  0
6.706079  -56.023357  -28.080820  0
6.727884  -55.778294  -27.818068  0
8.498114  -56.316952  -27.895460  0
8.121614  -56.466743  -28.119675  0
7.802983  -56.537708  -28.139545  0
6.935351  -56.225224  -28.141943  0
7.409853  -56.458469  -28.162809  0
7.145300  -56.138214  -27.807837  0
8.187799  -51.426823  -27.659678  0
7.693621  -51.532162  -27.699345  0
8.555770  -51.672005  -27.560036  0
8.806687  -51.944168  -27.517347  0
8.222424  -51.687077  -27.398836  0
7.541932  -51.726421  -27.579649  0
7.845858  -51.751446  -27.416676  0
7.259501  -51.968204  -27.542755  0
9.064194  -52.044987  -27.773615  0
9.206583  -52.420853  -27.416523  0
8.894825  -52.168255  -27.361156  0
7.009323  -52.217571  -27.513136  0
7.219349  -52.256226  -27.314777  0
6.817903  -52.490353  -27.501303  0
9.496570  -52.792469  -27.798573  0
6.529693  -52.860577  -27.577671  0
6.812083  -52.780781  -27.343828  0
9.704620  -53.252819  -27.720606  0
9.859479  -53.410675  -27.529270  0
9.806262  -53.125916  -27.325039  0
6.412122  -53.109013  -27.579548  0
6.650167  -53.093586  -27.335798  0
6.318868  -53.377773  -27.554037  0
9.927851  -53.736687  -27.537928  0
6.071177  -53.839638  -27.712580  0
6.334371  -53.717884  -27.345169  0
9.970820  -54.175571  -27.522024  0
6.058024  -54.377407  -27.684496  0
6.248299  -54.118107  -27.365463  0
9.993394  -54.607738  -27.413404  0
9.833651  -54.895077  -27.636713  0
6.129110  -54.862183  -27.735605  0
6.279429  -55.006989  -27.612694  0
6.326538  -54.712975  -27.414232  0
9.631532  -55.227505  -27.563852  0
9.292132  -55.529316  -27.734978  0
6.493810  -55.249340  -27.573238  0
6.723586  -55.515266  -27.555922  0
6.734967  -55.246048  -27.317646  0
9.041806  -55.807117  -27.416832  0
8.774628  -56.077126  -27.656101  0
6.976269  -55.777340  -27.554468  0
7.230456  -56.034733  -27.565992  0
7.259641  -55.808697  -27.301188  0
8.532115  -56.297829  -27.425877  0
8.299202  -56.448494  -27.671833  0
7.462536  -56.236729  -27.624702  0
7.902850  -56.439751  -27.668543  0
7.675257  -56.174229  -27.296104  0
8.150152  -51.969212  -27.184811  0
7.636454  -52.080189  -27.203691  0
9.219956  -52.502064  -26.861515  0
8.585060  -52.066528  -27.216106  0
8.783353  -52.335918  -26.974335  0
8.261212  -52.295876  -26.904011  0
7.442142  -52.346619  -27.085190  0
7.795976  -52.310238  -26.961351  0
7.115757  -52.553570  -27.197548  0
9.569887  -52.791145  -27.233664  0
9.819170  -52.981739  -26.916002  0
7.847965  -52.613457  -26.710463  0
7.013215  -52.874046  -27.108488  0
7.409097  -52.617542  -26.949055  0
9.939322  -53.352188  -27.208227  0
6.893337  -53.119339  -27.075649  0
7.276211  -53.024055  -26.794752  0
6.715227  -53.429226  -27.064106  0
10.036935  -53.740791  -27.140408  0
6.498590  -53.891804  -27.064362  0
6.785236  -53.746933  -26.802416  0
10.099768  -54.211388  -27.070869  0
6.473668  -54.351723  -27.088919  0
6.709499  -54.127117  -26.816387  0
10.132726  -54.603191  -27.002377  0
10.230468  -54.749008  -26.721407  0
9.981026  -54.985859  -27.122955  0
6.567349  -54.765858  -27.133863  0
6.737667  -54.968426  -27.078678  0
6.813179  -54.689884  -26.882771  0
9.731930  -55.308640  -27.067163  0
9.915971  -55.210503  -26.794907  0
9.351942  -55.537445  -27.089140  0
7.587470  -55.285904  -26.622576  0
7.005867  -55.246540  -27.049725  0
7.369028  -55.603333  -27.000870  0
7.274343  -55.179501  -26.787270  0
8.990993  -55.776966  -26.992798  0
8.721322  -56.003220  -27.073690  0
8.832527  -55.812786  -26.811962  0
7.575820  -55.923012  -27.083858  0
7.758243  -56.073082  -27.067286  0
7.750351  -55.769241  -26.841537  0
8.441074  -56.216328  -27.055969  0
7.945380  -56.223309  -27.148394  0
8.249625  -56.367298  -27.284840  0
8.171611  -56.121868  -26.917057  0
9.197344  -52.526844  -26.376957  0
8.883838  -52.450123  -26.596493  0
8.405772  -52.498596  -26.586119  0
9.553662  -52.688843  -26.619535  0
9.813677  -52.941391  -26.396860  0
8.070068  -52.664764  -26.495159  0
8.293261  -52.680374  -26.296906  0
7.820706  -52.888844  -26.436733  0
9.992007  -53.298424  -26.751060  0
7.473022  -53.141064  -26.514980  0
7.691688  -53.193401  -26.284639  0
7.204642  -53.462749  -26.561535  0
10.097238  -53.751282  -26.641937  0
6.996042  -53.914413  -26.571981  0
7.330166  -53.819748  -26.332773  0
10.176309  -54.329384  -26.537493  0
10.291943  -54.677822  -26.490995  0
7.536126  -54.199379  -26.226419  0
6.980158  -54.327446  -26.609966  0
7.194353  -54.133972  -26.417255  0
10.312197  -54.810936  -26.553211  0
10.129549  -54.958195  -26.569014  0
10.283741  -54.790928  -26.448206  0
7.645626  -55.110851  -26.487284  0
7.731244  -54.815678  -26.313643  0
7.121777  -54.715908  -26.641068  0
7.421148  -54.933746  -26.542471  0
7.299333  -54.508854  -26.443869  0
9.877289  -55.206314  -26.513821  0
9.665320  -55.371655  -26.720062  0
9.590183  -55.272594  -26.366846  0
9.364639  -55.453495  -26.593884  0
9.168062  -55.327976  -26.291571  0
8.995516  -55.603336  -26.646442  0
8.658051  -55.380112  -26.305031  0
7.894428  -55.388000  -26.502563  0
8.176547  -55.176487  -26.265333  0
8.646026  -55.761112  -26.643391  0
8.111531  -55.813335  -26.661381  0
8.407343  -55.969540  -26.762358  0
8.307443  -55.611679  -26.484062  0
9.120131  -52.570484  -26.036940  0
8.761614  -52.543533  -26.243797  0
9.465821  -52.735104  -26.026270  0
9.778239  -53.030510  -25.982220  0
9.183314  -52.662209  -25.845613  0
8.533551  -52.676975  -26.087620  0
8.833981  -52.706699  -25.891863  0
8.254393  -52.944347  -26.031622  0
9.974405  -53.311218  -26.253592  0
9.832628  -53.391396  -25.824722  0
7.939786  -53.299053  -26.027254  0
8.315278  -53.343369  -25.769211  0
7.597870  -53.516563  -26.198557  0
10.033468  -53.780113  -26.136501  0
9.819074  -53.862850  -25.744102  0
8.556503  -53.721882  -25.614368  0
8.234728  -53.660069  -25.770027  0
7.622235  -53.814354  -26.126755  0
7.824371  -54.001926  -26.020920  0
7.941217  -53.641644  -25.945835  0
10.015286  -54.196888  -26.046078  0
9.715856  -54.362331  -25.781372  0
8.723700  -54.283081  -25.686445  0
7.933787  -54.397163  -26.052858  0
8.202282  -54.029263  -25.838717  0
10.083861  -54.654526  -26.232456  0
9.854288  -55.017139  -26.248322  0
9.705704  -54.771969  -25.972502  0
9.438607  -55.043961  -26.064613  0
9.231277  -54.632526  -25.767088  0
8.944095  -55.041290  -26.016405  0
8.729668  -54.720642  -25.856211  0
8.107338  -54.792297  -26.099609  0
8.471858  -54.964897  -26.047955  0
8.340317  -54.545876  -25.910671  0
9.177875  -52.906666  -25.650833  0
8.709952  -53.035969  -25.671074  0
9.561657  -53.089634  -25.674288  0
9.326438  -53.251060  -25.464882  0
8.682683  -53.347664  -25.542189  0
8.878338  -53.563263  -25.446375  0
9.002871  -53.256100  -25.461443  0
9.573601  -53.518364  -25.529150  0
8.955311  -53.934071  -25.478642  0
9.223146  -53.646229  -25.408569  0
9.516530  -53.972374  -25.512583  0
9.114042  -54.272377  -25.543982  0
9.383103  -54.293926  -25.557493  0
9.248600  -54.051323  -25.444914  0
10 13 0 0
0 15 10 0
13 16 0 0
0 16 15 0
20 26 1 0
2 22 1 0
1 22 20 0
2 29 22 0
26 28 1 0
1 28 2 0
2 28 30 0
2 30 29 0
35 43 3 0
4 37 3 0
3 37 35 0
5 39 4 0
4 39 37 0
6 41 5 0
5 41 39 0
6 45 41 0
3 43 7 0
7 43 47 0
3 8 4 0
3 7 8 0
4 9 5 0
4 8 9 0
5 11 6 0
5 9 11 0
45 6 50 0
50 6 11 0
47 49 7 0
54 12 49 0
12 7 49 0
12 8 7 0
8 14 9 0
8 12 14 0
14 13 10 0
11 14 10 0
9 14 11 0
17 51 15 0
15 51 10 0
51 50 10 0
50 11 10 0
17 57 51 0
55 59 18 0
55 18 54 0
18 12 54 0
18 19 12 0
12 21 14 0
12 19 21 0
23 16 13 0
14 23 13 0
21 23 14 0
17 15 16 0
23 17 16 0
24 17 23 0
57 17 61 0
61 17 24 0
18 59 25 0
25 59 63 0
18 27 19 0
18 25 27 0
27 26 20 0
21 27 20 0
19 27 21 0
21 20 22 0
21 22 23 0
23 22 29 0
31 23 29 0
24 23 31 0
61 24 66 0
66 24 31 0
63 65 25 0
70 32 65 0
32 25 65 0
32 27 25 0
33 28 26 0
27 33 26 0
32 33 27 0
34 30 28 0
34 28 33 0
34 74 30 0
30 74 29 0
74 67 29 0
67 31 29 0
31 67 66 0
70 72 32 0
32 72 33 0
33 72 73 0
33 73 34 0
34 73 75 0
34 75 74 0
82 88 36 0
38 83 36 0
36 83 82 0
40 85 38 0
38 85 83 0
42 87 40 0
40 87 85 0
42 91 87 0
89 93 44 0
89 44 88 0
88 44 36 0
44 43 36 0
43 35 36 0
36 35 37 0
36 37 38 0
38 37 39 0
38 39 40 0
40 39 41 0
40 41 42 0
46 92 45 0
45 92 41 0
92 91 41 0
91 42 41 0
46 94 92 0
44 93 48 0
48 93 95 0
48 47 43 0
48 43 44 0
50 52 46 0
50 46 45 0
94 46 97 0
97 46 52 0
48 95 53 0
53 95 99 0
56 49 47 0
48 56 47 0
53 56 48 0
56 54 49 0
51 52 50 0
58 98 57 0
57 98 51 0
98 97 51 0
97 52 51 0
58 101 98 0
53 99 60 0
60 99 102 0
60 59 55 0
56 60 55 0
53 60 56 0
56 55 54 0
61 62 58 0
61 58 57 0
101 58 104 0
104 58 62 0
60 102 64 0
64 102 105 0
64 63 59 0
64 59 60 0
66 68 62 0
66 62 61 0
104 62 107 0
107 62 68 0
64 105 69 0
69 105 110 0
71 65 63 0
64 71 63 0
69 71 64 0
71 70 65 0
74 76 67 0
76 113 67 0
67 113 66 0
113 108 66 0
108 68 66 0
68 108 107 0
110 112 69 0
115 77 112 0
77 69 112 0
77 71 69 0
78 72 70 0
71 78 70 0
77 78 71 0
79 73 72 0
79 72 78 0
80 75 73 0
80 73 79 0
80 119 75 0
75 119 74 0
119 114 74 0
114 76 74 0
76 114 113 0
115 117 77 0
121 81 117 0
81 77 117 0
81 78 77 0
118 79 123 0
79 81 123 0
79 78 81 0
79 118 80 0
80 118 120 0
80 120 119 0
121 124 81 0
81 124 123 0
127 131 84 0
86 128 84 0
84 128 127 0
86 134 128 0
129 136 90 0
88 82 90 0
82 129 90 0
82 132 129 0
83 84 131 0
132 83 131 0
82 83 132 0
84 83 85 0
84 85 86 0
135 134 86 0
85 135 86 0
87 135 85 0
87 91 135 0
135 91 138 0
90 136 89 0
136 93 89 0
136 141 93 0
90 89 88 0
139 138 91 0
139 91 92 0
92 94 139 0
139 94 144 0
142 145 96 0
141 142 96 0
95 141 96 0
93 141 95 0
97 144 94 0
97 147 144 0
96 145 100 0
100 145 149 0
100 99 95 0
100 95 96 0
148 147 97 0
148 97 98 0
98 101 148 0
148 101 151 0
100 149 103 0
103 149 153 0
103 102 99 0
103 99 100 0
104 151 101 0
104 155 151 0
103 153 106 0
106 153 158 0
106 105 102 0
106 102 103 0
160 156 109 0
156 155 109 0
155 107 109 0
155 104 107 0
106 158 111 0
111 158 161 0
111 110 105 0
111 105 106 0
160 109 108 0
113 160 108 0
164 160 113 0
108 109 107 0
161 163 111 0
163 166 116 0
163 116 112 0
111 163 112 0
110 111 112 0
116 115 112 0
169 165 114 0
169 114 119 0
113 114 164 0
164 114 165 0
166 168 116 0
168 171 122 0
168 122 117 0
116 168 117 0
115 116 117 0
122 121 117 0
123 125 118 0
118 125 174 0
170 118 174 0
120 118 170 0
119 120 169 0
169 120 170 0
171 173 122 0
173 176 126 0
173 126 124 0
122 173 124 0
121 122 124 0
126 178 124 0
124 178 123 0
178 175 123 0
175 125 123 0
125 175 174 0
176 179 126 0
126 179 178 0
180 186 130 0
133 182 130 0
130 182 180 0
131 127 133 0
127 182 133 0
127 183 182 0
184 127 128 0
184 183 127 0
128 134 184 0
184 134 189 0
187 191 137 0
187 137 186 0
186 137 130 0
137 136 130 0
136 129 130 0
130 129 132 0
130 132 133 0
133 132 131 0
190 189 134 0
190 134 135 0
135 138 190 0
190 138 194 0
192 196 140 0
192 140 191 0
140 137 191 0
140 143 137 0
143 141 136 0
143 136 137 0
195 194 138 0
195 138 139 0
139 144 195 0
195 144 198 0
140 196 146 0
146 196 200 0
146 145 142 0
143 146 142 0
140 146 143 0
143 142 141 0
147 198 144 0
147 202 198 0
146 200 150 0
150 200 204 0
150 149 145 0
150 145 146 0
147 148 152 0
206 147 152 0
202 147 206 0
151 152 148 0
150 204 154 0
154 204 208 0
154 153 149 0
154 149 150 0
206 152 157 0
206 157 210 0
155 157 151 0
151 157 152 0
154 208 159 0
159 208 212 0
159 158 153 0
159 153 154 0
210 157 156 0
160 210 156 0
214 210 160 0
156 157 155 0
159 212 162 0
162 212 216 0
162 161 158 0
162 158 159 0
164 214 160 0
164 219 214 0
216 218 162 0
218 222 167 0
218 167 163 0
162 218 163 0
161 162 163 0
167 166 163 0
225 220 165 0
225 165 169 0
164 165 219 0
219 165 220 0
222 224 167 0
224 228 172 0
224 172 168 0
167 224 168 0
166 167 168 0
172 171 168 0
231 226 170 0
231 170 174 0
169 170 225 0
225 170 226 0
228 230 172 0
230 233 177 0
230 177 173 0
172 230 173 0
171 172 173 0
177 176 173 0
236 232 175 0
236 175 178 0
174 175 231 0
231 175 232 0
233 235 177 0
177 235 176 0
235 179 176 0
235 237 179 0
178 179 236 0
236 179 237 0
238 241 181 0
181 244 238 0
239 249 185 0
188 242 185 0
185 242 239 0
242 188 241 0
241 188 181 0
188 186 181 0
186 180 181 0
246 244 181 0
180 246 181 0
182 246 180 0
247 182 183 0
247 246 182 0
248 183 184 0
248 247 183 0
184 189 248 0
248 189 253 0
185 249 193 0
193 249 256 0
193 191 187 0
188 193 187 0
185 193 188 0
188 187 186 0
255 253 189 0
255 189 190 0
190 194 255 0
255 194 259 0
257 261 197 0
257 197 256 0
256 197 193 0
197 196 193 0
196 192 193 0
193 192 191 0
194 195 199 0
263 194 199 0
259 194 263 0
198 199 195 0
197 261 201 0
201 261 265 0
201 200 196 0
201 196 197 0
263 199 203 0
263 203 267 0
202 203 198 0
198 203 199 0
201 265 205 0
205 265 269 0
205 204 200 0
205 200 201 0
267 203 207 0
267 207 271 0
206 207 202 0
202 207 203 0
205 269 209 0
209 269 273 0
209 208 204 0
209 204 205 0
271 207 211 0
271 211 275 0
210 211 206 0
206 211 207 0
209 273 213 0
213 273 277 0
213 212 208 0
213 208 209 0
275 211 215 0
275 215 279 0
214 215 210 0
210 215 211 0
213 277 217 0
217 277 281 0
217 216 212 0
217 212 213 0
279 215 221 0
279 221 284 0
219 221 214 0
214 221 215 0
281 283 217 0
283 287 223 0
283 223 218 0
217 283 218 0
216 217 218 0
223 222 218 0
290 285 227 0
227 285 284 0
227 284 221 0
225 227 221 0
220 225 221 0
220 221 219 0
287 289 223 0
289 291 229 0
289 229 224 0
223 289 224 0
222 223 224 0
229 228 224 0
290 227 226 0
231 290 226 0
294 290 231 0
226 227 225 0
291 293 229 0
293 297 234 0
293 234 230 0
229 293 230 0
228 229 230 0
234 233 230 0
301 295 232 0
301 232 236 0
231 232 294 0
294 232 295 0
297 299 234 0
234 299 233 0
299 235 233 0
299 300 235 0
235 302 237 0
300 302 235 0
236 237 301 0
301 237 302 0
304 306 240 0
243 305 240 0
240 305 304 0
305 241 243 0
305 238 241 0
305 309 245 0
238 305 245 0
244 245 238 0
307 312 250 0
307 250 306 0
306 250 240 0
250 249 240 0
249 239 240 0
240 239 242 0
240 242 243 0
242 309 243 0
242 311 309 0
242 241 245 0
311 242 245 0
314 311 251 0
251 311 246 0
311 245 246 0
245 244 246 0
247 252 246 0
246 252 251 0
248 254 247 0
247 254 252 0
253 254 248 0
250 312 258 0
258 312 319 0
258 256 249 0
258 249 250 0
316 314 251 0
316 251 252 0
316 252 317 0
317 252 254 0
317 254 318 0
323 318 260 0
260 318 255 0
318 254 255 0
254 253 255 0
259 260 255 0
320 325 262 0
320 262 319 0
319 262 258 0
262 261 258 0
261 257 258 0
258 257 256 0
323 260 264 0
323 264 327 0
263 264 259 0
259 264 260 0
262 325 266 0
266 325 329 0
266 265 261 0
266 261 262 0
327 264 268 0
327 268 330 0
267 268 263 0
263 268 264 0
266 329 270 0
270 329 332 0
270 269 265 0
270 265 266 0
330 268 272 0
330 272 333 0
271 272 267 0
267 272 268 0
270 332 274 0
274 332 335 0
274 273 269 0
274 269 270 0
333 272 276 0
333 276 336 0
275 276 271 0
271 276 272 0
274 335 278 0
278 335 338 0
278 277 273 0
278 273 274 0
336 276 280 0
336 280 339 0
279 280 275 0
275 280 276 0
278 338 282 0
282 338 341 0
282 281 277 0
282 277 278 0
339 280 286 0
339 286 343 0
284 286 279 0
279 286 280 0
341 342 282 0
342 345 288 0
342 288 283 0
282 342 283 0
281 282 283 0
288 287 283 0
343 286 285 0
290 343 285 0
348 343 290 0
285 286 284 0
345 347 288 0
347 351 292 0
347 292 289 0
288 347 289 0
287 288 289 0
292 291 289 0
354 349 296 0
349 348 296 0
348 294 296 0
348 290 294 0
351 353 292 0
353 357 298 0
353 298 293 0
292 353 293 0
291 292 293 0
298 297 293 0
361 355 303 0
303 355 354 0
303 354 296 0
301 303 296 0
295 301 296 0
295 296 294 0
357 359 298 0
298 359 297 0
359 299 297 0
359 360 299 0
299 362 300 0
360 362 299 0
303 302 361 0
302 362 361 0
302 300 362 0
302 303 301 0
308 306 304 0
305 310 304 0
304 310 308 0
309 310 305 0
313 312 307 0
366 313 307 0
366 307 306 0
364 366 306 0
308 364 306 0
364 308 310 0
364 310 365 0
369 365 315 0
315 365 311 0
365 310 311 0
310 309 311 0
314 315 311 0
367 372 313 0
372 312 313 0
372 319 312 0
367 313 366 0
371 369 315 0
374 371 321 0
321 371 316 0
371 315 316 0
315 314 316 0
317 322 316 0
316 322 321 0
318 324 317 0
317 324 322 0
323 324 318 0
326 325 320 0
378 326 320 0
319 378 320 0
372 378 319 0
376 374 321 0
376 321 322 0
376 322 377 0
328 381 377 0
322 328 377 0
324 328 322 0
327 328 323 0
323 328 324 0
379 383 326 0
383 325 326 0
383 329 325 0
379 326 378 0
381 328 331 0
381 331 384 0
330 331 327 0
327 331 328 0
383 332 329 0
386 332 383 0
384 331 334 0
384 334 387 0
333 334 330 0
330 334 331 0
386 335 332 0
389 335 386 0
387 334 337 0
387 337 391 0
336 337 333 0
333 337 334 0
389 338 335 0
392 338 389 0
391 337 340 0
391 340 394 0
339 340 336 0
336 340 337 0
392 341 338 0
395 341 392 0
394 340 344 0
394 344 397 0
343 344 339 0
339 344 340 0
342 341 346 0
341 398 346 0
341 395 398 0
346 345 342 0
397 344 350 0
397 350 400 0
348 350 343 0
343 350 344 0
398 399 346 0
399 403 352 0
399 352 347 0
346 399 347 0
345 346 347 0
352 351 347 0
405 401 356 0
356 401 400 0
356 400 350 0
354 356 350 0
349 354 350 0
349 350 348 0
403 404 352 0
404 408 358 0
404 358 353 0
352 404 353 0
351 352 353 0
358 357 353 0
411 406 363 0
363 406 405 0
363 405 356 0
361 363 356 0
355 361 356 0
355 356 354 0
408 409 358 0
358 409 357 0
409 359 357 0
409 410 359 0
359 412 360 0
410 412 359 0
363 362 411 0
362 412 411 0
362 360 412 0
362 363 361 0
368 366 364 0
365 370 364 0
364 370 368 0
369 370 365 0
373 372 367 0
416 373 367 0
416 367 366 0
414 416 366 0
368 414 366 0
414 368 370 0
414 370 415 0
419 415 375 0
375 415 371 0
415 370 371 0
370 369 371 0
374 375 371 0
417 422 373 0
422 372 373 0
422 378 372 0
417 373 416 0
421 419 375 0
425 421 380 0
380 421 376 0
421 375 376 0
375 374 376 0
377 382 376 0
376 382 380 0
381 382 377 0
423 428 379 0
379 428 383 0
379 378 422 0
379 422 423 0
427 425 380 0
385 429 427 0
380 385 427 0
382 385 380 0
384 385 381 0
381 385 382 0
428 386 383 0
431 386 428 0
429 385 388 0
429 388 434 0
387 388 384 0
384 388 385 0
432 437 390 0
431 432 390 0
389 431 390 0
386 431 389 0
436 434 388 0
388 387 436 0
387 438 436 0
387 391 438 0
390 437 393 0
393 437 440 0
393 392 389 0
393 389 390 0
394 438 391 0
394 441 438 0
393 440 396 0
396 440 443 0
396 395 392 0
396 392 393 0
397 441 394 0
397 445 441 0
443 444 396 0
395 396 444 0
448 395 444 0
398 395 448 0
450 446 402 0
446 445 402 0
445 400 402 0
445 397 400 0
448 449 398 0
398 449 399 0
403 399 449 0
403 449 453 0
455 451 407 0
407 451 450 0
407 450 402 0
405 407 402 0
401 405 402 0
401 402 400 0
453 454 403 0
403 454 404 0
408 404 454 0
408 454 458 0
460 456 413 0
413 456 455 0
413 455 407 0
411 413 407 0
406 411 407 0
406 407 405 0
458 459 408 0
408 459 409 0
409 461 410 0
459 461 409 0
413 412 460 0
412 461 460 0
412 410 461 0
412 413 411 0
418 416 414 0
415 420 414 0
414 420 418 0
419 420 415 0
424 422 417 0
466 424 417 0
466 417 416 0
463 466 416 0
418 463 416 0
463 418 420 0
463 420 464 0
469 464 426 0
426 464 421 0
464 420 421 0
420 419 421 0
425 426 421 0
465 472 423 0
423 472 428 0
423 422 424 0
467 423 424 0
465 423 467 0
467 424 466 0
471 469 426 0
475 471 430 0
430 471 427 0
471 426 427 0
426 425 427 0
429 430 427 0
473 477 433 0
472 473 433 0
431 472 433 0
428 472 431 0
475 430 435 0
475 435 478 0
434 435 429 0
429 435 430 0
433 477 432 0
477 437 432 0
477 481 437 0
433 432 431 0
480 478 435 0
482 480 439 0
439 480 436 0
480 435 436 0
435 434 436 0
438 439 436 0
481 440 437 0
484 440 481 0
482 439 442 0
482 442 485 0
441 442 438 0
438 442 439 0
484 443 440 0
487 443 484 0
485 442 447 0
485 447 490 0
445 447 441 0
441 447 442 0
487 489 443 0
443 489 444 0
448 444 489 0
448 489 493 0
497 491 452 0
452 491 490 0
452 490 447 0
450 452 447 0
446 450 447 0
446 447 445 0
493 495 448 0
448 495 449 0
453 449 495 0
453 495 500 0
503 498 457 0
457 498 497 0
457 497 452 0
455 457 452 0
451 455 452 0
451 452 450 0
500 501 453 0
453 501 454 0
458 454 501 0
458 501 506 0
507 504 462 0
462 504 503 0
462 503 457 0
460 462 457 0
456 460 457 0
456 457 455 0
506 508 458 0
458 508 459 0
462 461 507 0
461 508 507 0
461 459 508 0
461 462 460 0
468 466 463 0
464 470 463 0
463 470 468 0
469 470 464 0
510 513 465 0
465 513 472 0
511 465 467 0
511 510 465 0
467 466 468 0
512 467 468 0
511 467 512 0
474 515 512 0
468 474 512 0
470 474 468 0
471 476 469 0
476 470 469 0
476 474 470 0
475 476 471 0
514 518 473 0
473 518 477 0
473 472 513 0
473 513 514 0
517 515 474 0
479 519 517 0
474 479 517 0
476 479 474 0
478 479 475 0
475 479 476 0
518 481 477 0
522 481 518 0
521 519 479 0
523 521 483 0
483 521 480 0
521 479 480 0
479 478 480 0
482 483 480 0
522 484 481 0
525 484 522 0
523 483 486 0
523 486 528 0
485 486 482 0
482 486 483 0
526 530 488 0
525 526 488 0
487 525 488 0
484 525 487 0
528 486 492 0
528 492 535 0
490 492 485 0
485 492 486 0
530 531 488 0
531 538 494 0
531 494 489 0
488 531 489 0
487 488 489 0
494 493 489 0
545 533 496 0
536 499 496 0
536 496 533 0
499 536 535 0
499 535 492 0
497 499 492 0
491 497 492 0
491 492 490 0
538 539 494 0
494 539 493 0
539 495 493 0
539 541 495 0
543 502 500 0
495 543 500 0
541 543 495 0
547 502 543 0
545 496 505 0
545 505 548 0
503 505 498 0
505 499 498 0
505 496 499 0
498 499 497 0
502 501 500 0
549 509 506 0
549 506 501 0
547 549 501 0
502 547 501 0
509 549 548 0
509 548 505 0
507 509 505 0
504 507 505 0
504 505 503 0
509 508 506 0
508 509 507 0
551 553 510 0
510 553 513 0
552 510 511 0
552 551 510 0
556 552 516 0
552 512 516 0
552 511 512 0
515 516 512 0
554 559 514 0
514 559 518 0
514 513 553 0
514 553 554 0
558 556 516 0
561 558 520 0
520 558 517 0
558 516 517 0
516 515 517 0
519 520 517 0
559 522 518 0
564 522 559 0
563 561 520 0
568 563 524 0
524 563 521 0
563 520 521 0
520 519 521 0
523 524 521 0
564 525 522 0
571 525 564 0
574 569 527 0
527 569 568 0
524 527 568 0
529 527 524 0
528 529 523 0
523 529 524 0
532 530 526 0
576 532 526 0
525 576 526 0
571 576 525 0
574 527 534 0
574 534 583 0
537 527 529 0
534 527 537 0
535 537 528 0
528 537 529 0
532 531 530 0
577 540 538 0
577 538 531 0
576 577 531 0
532 576 531 0
579 542 540 0
579 540 577 0
581 544 542 0
581 542 579 0
584 546 544 0
584 544 581 0
546 584 583 0
546 583 534 0
545 546 534 0
533 545 534 0
533 534 536 0
536 534 537 0
536 537 535 0
540 539 538 0
539 540 541 0
541 540 542 0
541 542 543 0
543 542 544 0
543 544 547 0
544 550 547 0
544 546 550 0
548 550 545 0
545 550 546 0
550 549 547 0
549 550 548 0
555 553 551 0
552 557 551 0
551 557 555 0
556 557 552 0
560 559 554 0
588 560 554 0
588 554 553 0
586 588 553 0
555 586 553 0
586 555 557 0
586 557 587 0
590 587 562 0
562 587 558 0
587 557 558 0
557 556 558 0
561 562 558 0
565 564 560 0
560 564 559 0
560 588 593 0
560 593 565 0
594 591 566 0
566 591 590 0
562 566 590 0
567 566 562 0
563 570 561 0
570 562 561 0
570 567 562 0
568 570 563 0
572 571 565 0
565 571 564 0
565 593 596 0
565 596 572 0
594 566 573 0
594 573 597 0
575 566 567 0
573 566 575 0
574 575 569 0
575 570 569 0
575 567 570 0
569 570 568 0
578 576 572 0
572 576 571 0
572 596 598 0
580 572 598 0
578 572 580 0
580 598 597 0
573 580 597 0
582 580 573 0
585 573 575 0
582 573 585 0
583 585 574 0
574 585 575 0
578 577 576 0
577 578 579 0
579 578 580 0
579 580 581 0
581 580 582 0
581 582 584 0
584 582 585 0
584 585 583 0
589 588 586 0
587 592 586 0
586 592 589 0
590 592 587 0
595 593 589 0
589 593 588 0
594 595 591 0
595 592 591 0
595 589 592 0
591 592 590 0
599 596 595 0
595 596 593 0
597 599 594 0
594 599 595 0
599 598 596 0
598 599 597 0
