#!ascii version of /Users/gilles/git/nukkies/notebooks/data/UM2T_STh_R_dil.asc
562 1120
-6.321881  -55.388195  -27.034174  0
-7.761378  -55.835236  -27.057178  0
-7.327132  -55.789387  -27.121534  0
-6.786444  -55.700405  -27.139223  0
-6.316196  -55.846340  -27.193811  0
-5.875280  -55.736824  -27.099566  0
-5.440599  -55.827354  -27.004631  0
-7.886993  -56.179543  -27.030117  0
-7.440904  -56.229698  -27.159731  0
-6.934639  -56.232166  -27.226324  0
-6.426554  -56.248093  -27.251879  0
-5.934941  -56.250942  -27.219820  0
-5.493439  -56.189133  -27.108826  0
-7.541469  -56.651890  -27.051392  0
-6.973713  -56.732265  -27.210562  0
-6.445215  -56.754944  -27.272808  0
-5.936010  -56.763687  -27.261646  0
-5.392951  -56.748814  -27.140512  0
-6.989931  -57.237720  -27.100990  0
-6.433622  -57.265293  -27.245310  0
-5.936245  -57.265717  -27.274483  0
-5.465146  -57.280716  -27.208975  0
-4.998353  -57.312149  -27.035881  0
-6.857920  -57.725918  -27.028732  0
-6.444854  -57.738258  -27.171017  0
-5.952918  -57.743282  -27.230850  0
-5.558484  -57.677444  -27.218578  0
-5.128025  -57.826298  -27.050505  0
-6.553552  -58.093857  -27.032204  0
-6.081968  -58.161903  -27.105488  0
-5.534664  -58.150097  -27.089624  0
-6.295306  -54.990578  -26.754112  0
-6.562459  -54.839577  -26.606289  0
-7.905169  -55.601555  -26.927578  0
-7.966221  -55.355278  -26.666281  0
-7.622982  -55.489670  -26.943678  0
-7.424418  -55.135395  -26.704659  0
-6.706423  -55.185410  -26.909397  0
-7.163398  -55.360519  -26.959145  0
-6.963123  -54.994244  -26.715645  0
-6.053122  -55.117195  -26.842459  0
-5.921601  -55.335182  -26.954697  0
-5.728409  -55.137840  -26.737244  0
-5.484368  -55.448090  -26.804632  0
-5.483186  -55.186726  -26.617599  0
-8.107365  -55.814655  -26.877207  0
-8.358041  -55.625881  -26.599537  0
-5.185240  -55.752396  -26.817789  0
-4.917872  -55.923031  -26.618015  0
-8.158550  -56.123512  -26.899067  0
-8.393156  -56.053020  -26.662479  0
-8.060169  -56.427536  -26.839516  0
-5.152431  -56.077648  -26.914312  0
-4.856241  -56.300106  -26.693871  0
-7.789371  -56.715569  -26.886478  0
-7.982967  -56.756050  -26.677181  0
-7.548443  -57.022076  -26.857361  0
-5.089849  -56.479141  -26.958355  0
-4.845842  -56.876385  -26.864368  0
-4.830416  -56.578304  -26.767843  0
-7.215981  -57.448292  -26.896114  0
-7.525023  -57.314674  -26.692066  0
-4.650424  -57.292591  -26.831572  0
-4.402396  -57.432510  -26.600657  0
-7.085477  -57.719036  -26.889835  0
-7.333749  -57.676987  -26.684862  0
-6.951284  -57.994644  -26.856417  0
-4.642397  -57.766327  -26.774982  0
-4.839461  -58.138100  -26.803453  0
-4.366909  -57.714169  -26.561533  0
-6.698934  -58.247749  -26.898994  0
-6.911062  -58.292614  -26.706486  0
-6.427711  -58.461102  -26.838978  0
-5.812606  -58.521160  -26.927641  0
-5.092659  -58.349197  -26.839100  0
-5.409195  -58.536915  -26.870575  0
-4.838903  -58.363705  -26.678326  0
-6.489852  -58.739704  -26.549948  0
-6.037182  -58.778061  -26.648699  0
-5.555358  -58.781918  -26.652302  0
-6.486359  -54.596745  -26.202013  0
-8.155117  -55.109146  -26.293781  0
-7.654428  -54.916538  -26.329594  0
-7.241242  -54.652576  -26.096052  0
-6.787669  -54.751282  -26.469301  0
-7.144057  -54.826607  -26.448395  0
-6.872900  -54.635281  -26.232290  0
-6.162704  -54.722145  -26.383291  0
-5.863285  -54.910583  -26.507303  0
-5.821053  -54.713074  -26.132536  0
-5.542086  -55.048077  -26.471050  0
-8.323917  -55.359211  -26.453533  0
-8.495435  -55.504383  -26.425219  0
-8.537658  -55.354633  -26.229198  0
-5.258189  -55.259533  -26.342163  0
-5.047884  -55.590092  -26.516218  0
-8.640774  -55.768021  -26.377785  0
-8.881651  -55.640678  -26.073765  0
-4.804397  -55.791336  -26.284525  0
-8.644890  -56.109905  -26.416958  0
-8.898174  -56.097420  -26.148781  0
-8.478110  -56.465839  -26.415789  0
-4.696800  -56.120358  -26.305765  0
-8.172169  -56.852551  -26.416668  0
-8.484485  -56.851982  -26.154615  0
-7.833095  -57.072891  -26.560532  0
-4.595724  -56.580681  -26.430353  0
-4.486833  -57.029907  -26.578896  0
-4.361574  -56.832325  -26.239456  0
-8.406235  -57.203835  -26.022797  0
-7.724606  -57.431744  -26.452822  0
-8.095741  -57.163303  -26.283842  0
-4.263346  -57.155872  -26.266983  0
-7.576059  -57.800423  -26.411369  0
-8.009441  -57.656292  -26.138729  0
-7.253557  -58.053822  -26.569597  0
-4.185815  -57.622799  -26.228590  0
-4.339110  -58.002048  -26.386158  0
-7.973454  -58.084702  -26.003906  0
-7.174485  -58.290001  -26.497456  0
-7.537749  -58.194000  -26.250368  0
-6.967874  -58.541267  -26.446953  0
-4.599348  -58.326679  -26.449593  0
-4.883080  -58.577354  -26.504625  0
-4.319720  -58.293453  -26.182861  0
-6.742738  -58.818886  -26.311150  0
-7.050522  -58.764858  -26.176537  0
-6.290916  -58.970383  -26.268995  0
-5.715467  -58.984894  -26.305597  0
-5.182053  -58.702065  -26.595682  0
-5.267121  -58.931931  -26.275322  0
-4.971784  -58.822338  -26.268948  0
-7.381700  -54.513874  -25.653118  0
-6.799200  -54.494080  -25.838352  0
-6.337013  -54.470688  -25.793285  0
-6.052392  -54.563374  -25.956894  0
-8.381619  -55.034668  -26.029804  0
-8.414065  -54.804832  -25.674309  0
-7.637455  -54.683670  -25.977413  0
-8.022446  -54.833042  -26.013981  0
-7.871209  -54.636909  -25.734653  0
-5.720306  -54.678062  -25.730093  0
-5.504886  -54.940113  -26.051079  0
-9.392151  -55.185417  -25.538330  0
-8.740536  -55.227840  -25.924612  0
-9.081862  -55.496941  -25.846853  0
-9.035363  -55.129215  -25.665758  0
-5.145795  -55.290733  -25.756615  0
-4.918938  -55.548988  -26.075022  0
-9.188305  -55.875481  -25.887783  0
-9.406042  -55.575726  -25.645258  0
-4.734618  -55.894272  -25.863968  0
-4.907032  -55.613743  -25.684410  0
-9.173227  -56.178795  -25.908302  0
-9.437666  -56.115269  -25.668947  0
-9.004748  -56.508186  -25.912226  0
-4.560433  -56.296001  -25.911921  0
-4.414962  -56.599766  -25.977243  0
-8.753488  -56.942863  -25.879709  0
-9.104118  -56.799770  -25.662024  0
-4.274329  -56.853752  -25.887842  0
-8.636431  -57.181908  -25.849859  0
-8.911031  -57.131653  -25.643356  0
-8.528485  -57.480057  -25.807680  0
-4.127041  -57.226910  -25.876617  0
-8.261769  -57.905964  -25.865753  0
-8.577269  -57.807026  -25.624332  0
-4.000400  -57.638088  -25.745869  0
-3.860461  -57.965748  -25.549784  0
-8.130443  -58.165302  -25.857719  0
-8.361568  -58.164932  -25.626812  0
-7.900842  -58.418552  -25.836632  0
-7.377796  -58.601044  -26.089443  0
-4.065734  -58.158115  -25.861620  0
-4.369458  -58.529484  -25.966345  0
-3.840425  -58.184261  -25.587111  0
-7.944427  -58.689846  -25.534122  0
-7.221077  -58.802315  -26.008293  0
-7.506783  -58.800941  -25.770199  0
-6.888783  -59.004681  -25.942812  0
-6.330804  -59.164585  -25.916441  0
-5.849267  -59.166828  -25.861019  0
-5.352371  -59.086872  -25.859461  0
-4.689636  -58.719028  -26.117252  0
-4.898791  -58.954029  -25.845255  0
-4.519413  -58.792530  -25.724365  0
-6.925461  -59.242638  -25.563499  0
-6.543466  -59.285255  -25.654531  0
-6.118193  -59.313946  -25.621956  0
-8.481389  -54.538692  -25.168472  0
-7.850307  -54.500130  -25.305792  0
-7.326978  -54.421242  -25.218569  0
-6.900950  -54.426960  -25.352463  0
-6.477260  -54.436546  -25.485579  0
-6.044248  -54.521309  -25.487389  0
-9.468202  -55.036572  -25.418539  0
-9.453598  -54.816521  -25.164658  0
-8.843062  -54.778805  -25.465912  0
-9.220409  -54.911381  -25.449362  0
-8.995802  -54.667492  -25.251085  0
-5.733093  -54.664021  -25.417959  0
-5.907512  -54.676739  -25.144764  0
-5.526157  -54.945229  -25.407877  0
-9.673468  -55.294323  -25.378887  0
-9.907119  -55.089348  -25.077360  0
-5.263257  -55.312157  -25.352791  0
-5.501078  -55.232105  -25.102684  0
-9.748763  -55.814678  -25.423058  0
-9.996369  -55.540363  -25.157846  0
-5.071003  -55.528614  -25.439041  0
-5.318868  -55.563797  -25.109896  0
-4.965616  -55.840683  -25.354935  0
-9.711629  -56.149574  -25.428188  0
-9.934472  -56.053543  -25.152746  0
-9.522864  -56.488960  -25.430487  0
-4.697183  -56.139362  -25.520695  0
-4.926166  -56.188595  -25.128407  0
-4.531013  -56.514343  -25.469961  0
-9.285506  -56.911625  -25.416409  0
-9.585227  -56.774334  -25.168253  0
-4.254825  -56.927963  -25.502508  0
-4.507341  -56.757660  -25.149818  0
-9.139776  -57.158653  -25.410034  0
-9.389315  -57.136768  -25.138578  0
-8.964800  -57.486153  -25.395788  0
-4.084134  -57.275356  -25.525537  0
-4.298599  -57.113491  -25.146940  0
-4.005976  -57.595921  -25.323780  0
-8.787374  -57.955349  -25.302082  0
-9.086684  -57.726513  -25.115749  0
-3.857633  -57.968697  -25.318132  0
-4.011817  -57.848759  -25.106016  0
-8.572127  -58.282570  -25.291019  0
-8.270039  -58.488087  -25.427917  0
-3.811150  -58.162189  -25.427393  0
-3.909570  -58.306244  -25.507257  0
-3.980898  -58.249310  -25.199003  0
-8.179234  -58.737930  -25.192486  0
-7.781174  -58.917522  -25.345110  0
-7.317925  -59.087811  -25.505499  0
-5.453058  -59.182919  -25.339699  0
-5.038806  -59.056343  -25.433886  0
-4.192116  -58.557007  -25.501396  0
-4.599075  -58.858994  -25.305254  0
-4.246080  -58.587162  -25.077162  0
-7.142854  -59.322533  -25.204000  0
-6.727039  -59.413597  -25.293657  0
-6.321829  -59.425827  -25.320675  0
-5.805529  -59.301952  -25.459986  0
-5.998634  -59.391323  -25.294720  0
-9.409184  -54.558674  -24.691072  0
-8.888825  -54.494141  -24.840082  0
-8.348322  -54.404030  -24.714058  0
-7.942272  -54.408432  -24.809748  0
-7.443700  -54.413029  -24.861906  0
-7.011523  -54.420406  -24.966669  0
-6.445065  -54.505619  -25.021908  0
-9.769841  -54.771694  -24.873869  0
-10.038063  -54.967075  -24.726612  0
-6.119192  -54.676025  -24.869884  0
-6.387249  -54.685833  -24.608921  0
-5.907662  -54.959652  -24.835346  0
-10.138251  -55.290459  -24.902637  0
-5.672686  -55.387543  -24.841553  0
-6.006501  -55.265152  -24.548563  0
-10.179132  -55.662571  -24.831905  0
-5.547409  -55.642551  -24.851807  0
-5.815833  -55.646828  -24.575678  0
-5.365510  -55.927956  -24.861231  0
-10.132497  -56.116261  -24.704046  0
-9.863042  -56.479923  -24.986202  0
-5.168658  -56.215652  -24.846880  0
-5.414371  -56.235008  -24.618555  0
-4.957661  -56.494564  -24.858210  0
-9.755270  -56.870991  -24.830009  0
-4.665618  -56.861092  -24.856359  0
-5.029719  -56.749332  -24.592548  0
-9.611311  -57.307755  -24.677120  0
-9.293791  -57.508335  -25.003550  0
-4.505838  -57.104378  -24.857321  0
-4.807817  -57.070988  -24.592663  0
-4.356582  -57.477760  -24.849379  0
-9.234822  -57.720100  -24.936422  0
-9.385978  -57.686619  -24.715633  0
-9.105296  -57.942223  -24.899031  0
-4.187846  -58.005081  -24.870977  0
-4.480767  -57.826740  -24.598347  0
-8.819385  -58.204079  -25.037676  0
-8.997292  -58.255852  -24.679712  0
-8.591094  -58.514141  -24.957689  0
-4.178496  -58.356476  -24.906424  0
-4.303041  -58.518227  -24.847124  0
-4.443849  -58.299007  -24.649740  0
-8.361123  -58.777874  -24.857019  0
-8.581266  -58.714226  -24.614180  0
-8.052909  -58.955376  -24.923458  0
-7.607651  -59.176315  -25.012432  0
-5.518787  -59.167370  -24.795683  0
-4.522995  -58.678368  -24.857437  0
-5.017716  -58.932610  -24.864326  0
-4.741080  -58.590839  -24.553947  0
-7.336683  -59.387783  -24.818796  0
-7.616829  -59.335526  -24.607286  0
-6.954460  -59.486172  -24.801184  0
-6.533807  -59.489449  -24.971891  0
-5.764574  -59.327057  -25.082273  0
-6.141834  -59.421265  -24.896057  0
-5.833894  -59.299774  -24.716793  0
-9.393699  -54.518257  -24.218731  0
-8.962437  -54.433624  -24.345881  0
-8.446281  -54.403442  -24.360643  0
-7.945460  -54.403782  -24.379457  0
-7.539840  -54.418701  -24.494373  0
-6.960326  -54.510708  -24.516876  0
-9.770605  -54.688862  -24.475317  0
-10.037247  -54.955715  -24.260122  0
-6.647313  -54.681499  -24.337347  0
-6.905660  -54.686939  -24.104906  0
-6.427877  -54.951942  -24.281313  0
-10.209717  -55.288364  -24.544340  0
-6.252543  -55.422611  -24.184465  0
-6.563968  -55.153812  -23.961477  0
-10.261313  -55.719177  -24.394781  0
-6.046084  -55.848515  -24.213795  0
-5.726041  -56.017357  -24.473684  0
-10.222804  -56.232803  -24.205748  0
-10.031635  -56.562794  -24.564104  0
-5.658381  -56.236763  -24.401175  0
-5.868337  -56.190929  -24.201572  0
-5.482250  -56.499290  -24.358622  0
-9.909704  -57.016331  -24.372583  0
-10.111458  -56.694080  -24.192274  0
-5.227945  -56.870403  -24.337601  0
-5.568844  -56.759239  -24.084427  0
-9.773870  -57.334507  -24.324568  0
-5.066198  -57.106411  -24.335196  0
-5.351143  -57.083710  -24.073778  0
-4.878434  -57.454815  -24.331697  0
-9.610436  -57.639439  -24.287968  0
-9.317571  -57.978954  -24.473721  0
-4.725945  -57.981445  -24.347425  0
-5.017556  -57.796227  -24.081579  0
-9.178855  -58.279530  -24.227449  0
-8.857312  -58.529617  -24.452829  0
-4.723671  -58.328449  -24.383762  0
-4.852924  -58.473122  -24.338909  0
-5.003029  -58.247883  -24.145496  0
-8.673571  -58.779091  -24.221098  0
-8.351338  -58.917622  -24.531418  0
-7.983097  -59.168652  -24.502157  0
-5.727652  -59.137688  -24.465666  0
-5.805434  -58.881954  -24.093357  0
-5.042037  -58.648899  -24.376478  0
-5.403422  -58.919693  -24.421375  0
-5.343304  -58.576668  -24.098917  0
-7.770619  -59.373020  -24.283775  0
-8.035168  -59.297352  -24.068554  0
-7.381360  -59.487358  -24.332685  0
-7.005301  -59.525021  -24.378588  0
-6.070091  -59.260475  -24.429438  0
-6.591053  -59.431000  -24.423386  0
-6.285182  -59.140930  -24.068760  0
-9.347161  -54.563545  -23.870661  0
-9.015951  -54.498436  -23.931536  0
-8.531061  -54.480358  -23.949951  0
-7.987326  -54.497330  -23.972208  0
-7.419925  -54.529186  -24.093536  0
-9.668994  -54.752350  -23.891382  0
-9.989023  -55.045574  -23.817207  0
-9.401952  -54.665962  -23.694315  0
-9.123922  -54.650909  -23.626345  0
-8.664148  -54.647598  -23.597088  0
-8.122663  -54.670620  -23.600061  0
-7.172484  -54.688522  -23.869045  0
-7.510039  -54.728195  -23.683437  0
-6.915755  -54.926502  -23.807568  0
-10.200582  -55.355389  -24.023972  0
-10.064622  -55.305523  -23.597572  0
-6.720912  -55.153004  -23.772577  0
-6.887358  -55.205070  -23.581495  0
-6.580893  -55.405190  -23.775824  0
-10.275664  -55.802624  -23.995335  0
-6.333020  -55.756813  -23.888929  0
-6.562445  -55.726719  -23.610146  0
-10.257661  -56.134869  -23.775633  0
-6.138945  -56.072487  -23.949686  0
-6.377966  -56.100979  -23.625330  0
-5.955786  -56.476906  -23.872332  0
-10.185835  -56.663231  -23.736191  0
-10.052173  -56.985081  -23.991745  0
-5.727427  -56.886921  -23.822338  0
-6.010187  -56.784065  -23.600704  0
-9.854596  -57.370998  -23.910955  0
-10.046829  -57.105656  -23.651901  0
-5.571732  -57.127312  -23.812603  0
-5.812721  -57.124390  -23.581846  0
-5.381451  -57.462666  -23.831766  0
-9.652075  -57.744244  -23.850183  0
-9.456181  -57.996101  -24.026676  0
-5.253146  -57.933979  -23.853109  0
-5.561946  -57.839661  -23.613932  0
-9.265897  -58.267872  -23.740490  0
-8.989245  -58.551205  -23.969948  0
-5.847394  -58.610607  -23.806509  0
-5.879569  -58.310081  -23.581520  0
-5.302060  -58.256821  -23.899580  0
-5.592255  -58.453602  -23.837526  0
-5.480875  -58.135529  -23.724403  0
-8.739206  -58.821484  -23.699430  0
-8.367427  -59.069641  -24.011091  0
-6.112953  -58.805523  -23.809240  0
-6.378073  -59.018860  -23.826820  0
-6.389800  -58.791096  -23.572268  0
-8.148222  -59.305698  -23.671555  0
-7.776274  -59.452442  -23.883871  0
-7.462054  -59.517212  -23.903736  0
-6.611312  -59.209034  -23.888086  0
-7.078494  -59.437775  -23.917259  0
-6.800728  -59.131969  -23.553379  0
-9.354691  -54.878616  -23.433689  0
-8.864791  -54.876434  -23.325239  0
-8.325638  -54.908920  -23.297964  0
-7.767259  -54.959049  -23.342991  0
-7.262640  -55.044212  -23.455364  0
-9.738508  -55.168335  -23.368460  0
-9.994248  -55.511604  -23.305590  0
-9.417044  -55.128666  -23.180096  0
-9.090742  -55.138027  -23.098526  0
-8.575637  -55.169834  -23.053493  0
-7.972504  -55.276447  -23.073233  0
-7.092951  -55.315033  -23.354727  0
-7.440739  -55.295166  -23.213202  0
-6.814338  -55.514225  -23.465086  0
-10.188804  -55.727982  -23.582350  0
-10.033891  -55.933174  -23.126585  0
-7.485085  -55.690445  -23.037552  0
-6.725642  -55.888790  -23.379650  0
-7.081095  -55.625462  -23.237247  0
-10.190585  -56.316338  -23.359766  0
-10.059237  -56.343906  -22.972876  0
-7.360661  -56.142521  -22.938965  0
-6.584131  -56.255539  -23.347775  0
-6.957902  -56.123730  -23.152987  0
-6.290989  -56.527027  -23.481192  0
-10.190381  -56.700405  -23.350527  0
-6.956002  -56.646511  -23.004417  0
-6.195697  -56.906254  -23.371630  0
-6.567362  -56.605385  -23.233088  0
-10.083362  -57.001125  -23.270100  0
-9.870028  -57.343464  -23.275558  0
-9.944783  -57.198769  -23.027184  0
-6.793871  -57.176765  -22.960052  0
-6.052314  -57.256336  -23.336315  0
-6.443419  -57.122356  -23.155327  0
-5.766883  -57.510437  -23.471863  0
-9.669382  -57.659565  -23.434950  0
-9.492282  -57.968060  -23.569460  0
-9.457473  -57.860580  -23.163208  0
-6.529702  -57.599354  -23.036718  0
-5.841154  -57.850082  -23.413464  0
-6.069524  -58.065876  -23.322342  0
-6.131774  -57.650272  -23.241774  0
-9.238526  -58.172150  -23.189959  0
-9.013498  -58.528904  -23.436354  0
-6.220592  -58.380913  -23.370562  0
-6.415684  -58.551121  -23.334515  0
-6.466752  -58.235153  -23.143667  0
-8.730486  -58.791901  -23.170315  0
-8.425271  -59.078434  -23.375380  0
-6.642262  -58.785671  -23.315300  0
-6.876173  -59.038704  -23.314032  0
-6.929718  -58.821720  -23.076307  0
-8.122400  -59.284969  -23.296413  0
-7.916275  -59.412392  -23.480663  0
-7.804956  -59.292492  -23.159910  0
-7.110981  -59.232487  -23.391689  0
-7.529594  -59.428112  -23.523726  0
-7.377422  -59.170956  -23.105553  0
-9.379213  -55.431240  -22.928104  0
-8.844436  -55.451241  -22.822405  0
-8.319213  -55.478424  -22.852579  0
-7.911623  -55.590179  -22.904549  0
-9.770665  -55.646866  -22.989405  0
-9.519139  -55.819836  -22.687254  0
-9.101450  -55.818729  -22.531837  0
-8.510818  -55.778389  -22.590374  0
-7.731266  -55.873268  -22.845617  0
-8.088250  -55.733406  -22.757204  0
-9.786947  -56.186619  -22.689816  0
-9.980628  -56.557770  -22.762579  0
-9.427802  -56.091991  -22.436661  0
-7.629285  -56.114742  -22.798819  0
-7.997606  -56.054085  -22.600965  0
-7.498158  -56.430412  -22.739098  0
-10.105024  -56.699089  -23.025280  0
-9.917025  -56.987789  -22.794855  0
-9.985500  -56.767834  -22.747684  0
-7.164348  -56.908779  -22.802963  0
-7.517056  -56.768185  -22.572992  0
-9.739252  -57.263741  -22.781519  0
-9.499742  -57.545597  -22.826157  0
-9.514021  -57.295780  -22.531338  0
-6.995518  -57.279633  -22.812311  0
-7.316621  -57.220531  -22.591703  0
-6.787230  -57.514965  -22.890123  0
-9.247599  -57.892159  -22.807995  0
-8.990186  -57.966953  -22.525837  0
-7.331518  -57.759735  -22.503716  0
-6.740910  -57.915550  -22.886568  0
-7.010521  -57.633495  -22.730986  0
-9.083612  -58.142246  -22.784353  0
-8.882546  -58.430889  -22.843208  0
-8.936337  -58.187233  -22.617670  0
-7.475086  -58.265862  -22.472694  0
-6.809828  -58.357239  -22.896517  0
-7.042634  -58.597759  -22.806196  0
-7.068344  -58.172493  -22.688234  0
-8.606987  -58.739258  -22.789907  0
-8.467199  -58.941360  -22.952816  0
-8.288283  -58.791321  -22.637989  0
-8.102328  -59.067402  -22.936390  0
-7.812997  -58.696507  -22.558809  0
-7.241725  -58.888466  -22.860462  0
-7.613194  -59.010899  -22.838459  0
-7.346255  -58.636398  -22.666388  0
-8.756583  -56.035149  -22.279972  0
-8.401024  -56.032028  -22.374638  0
-9.105412  -56.235043  -22.168592  0
-9.492148  -56.433380  -22.290630  0
-8.804880  -56.224541  -22.071720  0
-8.213332  -56.172638  -22.346489  0
-8.481429  -56.250034  -22.138971  0
-7.972962  -56.467903  -22.325758  0
-9.771708  -56.687286  -22.510025  0
-9.509451  -57.005184  -22.343485  0
-9.513993  -56.710442  -22.231016  0
-7.716108  -56.939491  -22.322182  0
-8.082146  -56.816032  -22.039263  0
-9.242315  -57.306175  -22.311388  0
-9.096416  -57.636276  -22.430542  0
-8.773646  -57.359688  -22.059441  0
-8.282918  -57.180607  -21.953739  0
-7.626765  -57.405079  -22.312830  0
-7.908807  -57.154579  -22.121014  0
-8.793152  -57.773735  -22.263739  0
-8.403430  -57.765980  -22.125700  0
-7.678059  -57.903538  -22.290880  0
-7.964878  -57.572224  -22.125963  0
-8.704892  -58.143723  -22.407902  0
-8.508617  -58.512005  -22.503904  0
-8.353198  -58.226631  -22.262400  0
-7.803769  -58.313744  -22.328220  0
-8.128557  -58.479076  -22.359320  0
-8.036758  -58.066551  -22.196583  0
-8.781253  -56.456261  -21.911736  0
-8.371551  -56.548744  -21.938759  0
-9.197107  -56.653084  -22.027447  0
-9.032410  -56.993229  -21.977583  0
-8.845536  -56.729954  -21.801929  0
-8.372301  -56.803177  -21.823658  0
-8.634459  -56.937553  -21.807459  0
-8.591480  -56.672714  -21.764755  0
31 37 0 0
0 40 31 0
33 45 1 0
2 35 1 0
1 35 33 0
3 38 2 0
2 38 35 0
38 3 37 0
3 0 37 0
3 4 0 0
40 0 41 0
0 5 41 0
0 4 5 0
6 43 5 0
5 43 41 0
6 47 43 0
1 45 7 0
7 45 49 0
1 8 2 0
1 7 8 0
2 9 3 0
2 8 9 0
3 10 4 0
3 9 10 0
4 11 5 0
4 10 11 0
5 12 6 0
5 11 12 0
47 6 52 0
52 6 12 0
49 51 7 0
54 13 51 0
13 7 51 0
13 8 7 0
8 14 9 0
8 13 14 0
9 15 10 0
9 14 15 0
10 16 11 0
10 15 16 0
11 17 12 0
11 16 17 0
52 12 57 0
57 12 17 0
54 56 13 0
60 18 56 0
18 13 56 0
18 14 13 0
14 19 15 0
14 18 19 0
15 20 16 0
15 19 20 0
16 21 17 0
16 20 21 0
57 17 58 0
17 22 58 0
17 21 22 0
22 62 58 0
18 60 23 0
23 60 64 0
18 24 19 0
18 23 24 0
19 25 20 0
19 24 25 0
20 26 21 0
20 25 26 0
21 27 22 0
21 26 27 0
62 22 67 0
67 22 27 0
64 66 23 0
70 28 66 0
28 23 66 0
28 24 23 0
24 29 25 0
24 28 29 0
25 30 26 0
25 29 30 0
68 27 74 0
27 30 74 0
27 26 30 0
27 68 67 0
70 72 28 0
28 72 29 0
29 72 73 0
29 73 30 0
30 73 75 0
30 75 74 0
80 84 32 0
32 87 80 0
81 91 34 0
36 82 34 0
34 82 81 0
39 85 36 0
36 85 82 0
85 39 84 0
84 39 32 0
39 37 32 0
37 31 32 0
42 88 40 0
40 88 31 0
88 87 31 0
87 32 31 0
44 90 42 0
42 90 88 0
44 94 90 0
92 96 46 0
92 46 91 0
91 46 34 0
46 45 34 0
45 33 34 0
34 33 35 0
34 35 36 0
36 35 38 0
36 38 39 0
39 38 37 0
41 42 40 0
42 41 43 0
42 43 44 0
48 95 47 0
47 95 43 0
95 94 43 0
94 44 43 0
48 98 95 0
46 96 50 0
50 96 99 0
50 49 45 0
50 45 46 0
52 53 48 0
52 48 47 0
98 48 102 0
102 48 53 0
99 101 50 0
101 103 55 0
101 55 51 0
50 101 51 0
49 50 51 0
55 54 51 0
57 59 53 0
57 53 52 0
102 53 106 0
106 53 59 0
103 105 55 0
105 110 61 0
105 61 56 0
55 105 56 0
54 55 56 0
61 60 56 0
58 59 57 0
63 107 62 0
62 107 58 0
107 106 58 0
106 59 58 0
63 112 107 0
61 110 65 0
65 110 113 0
65 64 60 0
65 60 61 0
67 69 63 0
67 63 62 0
112 63 116 0
116 63 69 0
113 115 65 0
115 119 71 0
115 71 66 0
65 115 66 0
64 65 66 0
71 70 66 0
74 76 68 0
76 122 68 0
68 122 67 0
122 117 67 0
117 69 67 0
69 117 116 0
119 121 71 0
121 125 77 0
121 77 72 0
71 121 72 0
70 71 72 0
78 73 72 0
78 72 77 0
79 75 73 0
79 73 78 0
79 129 75 0
75 129 74 0
129 123 74 0
123 76 74 0
76 123 122 0
125 127 77 0
77 127 78 0
78 127 128 0
78 128 79 0
79 128 130 0
79 130 129 0
132 138 83 0
86 133 83 0
83 133 132 0
84 80 86 0
80 133 86 0
80 134 133 0
89 135 87 0
135 80 87 0
135 134 80 0
89 141 135 0
136 144 93 0
91 81 93 0
81 136 93 0
81 139 136 0
82 83 138 0
139 82 138 0
81 82 139 0
83 82 85 0
83 85 86 0
86 85 84 0
88 89 87 0
142 141 89 0
88 142 89 0
90 142 88 0
90 94 142 0
142 94 147 0
145 149 97 0
145 97 144 0
144 97 93 0
97 96 93 0
96 92 93 0
93 92 91 0
148 147 94 0
148 94 95 0
95 98 148 0
148 98 151 0
97 149 100 0
100 149 153 0
100 99 96 0
100 96 97 0
102 151 98 0
102 156 151 0
153 155 100 0
155 158 104 0
155 104 101 0
100 155 101 0
99 100 101 0
104 103 101 0
106 108 157 0
156 106 157 0
102 106 156 0
108 160 157 0
104 158 109 0
109 158 161 0
111 105 103 0
104 111 103 0
109 111 104 0
111 110 105 0
107 108 106 0
107 112 108 0
112 160 108 0
112 164 160 0
161 163 109 0
165 114 163 0
114 109 163 0
114 111 109 0
114 113 110 0
114 110 111 0
116 164 112 0
116 167 164 0
114 165 118 0
118 165 169 0
120 115 113 0
114 120 113 0
118 120 114 0
120 119 115 0
122 124 117 0
124 173 117 0
173 116 117 0
173 167 116 0
169 171 118 0
118 171 120 0
120 171 172 0
172 177 126 0
172 126 121 0
120 172 121 0
119 120 121 0
126 125 121 0
129 131 123 0
131 183 123 0
123 183 122 0
183 174 122 0
174 124 122 0
124 174 173 0
177 179 126 0
126 179 125 0
179 127 125 0
179 180 127 0
127 181 128 0
180 181 127 0
128 182 130 0
181 182 128 0
129 130 131 0
130 184 131 0
130 182 184 0
131 184 183 0
189 197 137 0
140 190 137 0
137 190 189 0
138 132 140 0
132 190 140 0
132 191 190 0
192 132 133 0
192 191 132 0
193 133 134 0
193 192 133 0
194 134 135 0
194 193 134 0
135 141 194 0
194 141 200 0
195 203 143 0
146 198 143 0
143 198 195 0
198 146 197 0
197 146 137 0
146 144 137 0
144 136 137 0
137 136 139 0
137 139 140 0
140 139 138 0
202 200 141 0
202 141 142 0
142 147 202 0
202 147 205 0
143 203 150 0
150 203 207 0
150 149 145 0
146 150 145 0
143 150 146 0
146 145 144 0
147 148 152 0
209 147 152 0
205 147 209 0
151 152 148 0
150 207 154 0
154 207 212 0
154 153 149 0
154 149 150 0
211 209 152 0
152 151 211 0
151 215 211 0
151 156 215 0
212 214 154 0
214 218 159 0
214 159 155 0
154 214 155 0
153 154 155 0
159 158 155 0
217 215 156 0
217 156 157 0
157 160 217 0
217 160 220 0
159 218 162 0
162 218 222 0
162 161 158 0
162 158 159 0
164 220 160 0
164 225 220 0
222 224 162 0
224 228 166 0
224 166 163 0
162 224 163 0
161 162 163 0
166 165 163 0
167 168 227 0
225 167 227 0
164 167 225 0
168 230 227 0
166 228 170 0
170 228 232 0
170 169 165 0
170 165 166 0
173 175 168 0
173 168 167 0
230 168 234 0
234 168 175 0
232 233 170 0
233 237 176 0
233 176 171 0
170 233 171 0
169 170 171 0
178 172 171 0
178 171 176 0
178 177 172 0
183 185 174 0
185 242 174 0
174 242 173 0
242 235 173 0
235 175 173 0
175 235 234 0
237 238 176 0
176 238 178 0
178 238 239 0
239 245 186 0
239 186 179 0
178 239 179 0
177 178 179 0
187 180 179 0
187 179 186 0
188 181 180 0
188 180 187 0
181 188 248 0
240 181 248 0
182 181 240 0
182 241 184 0
240 241 182 0
183 184 185 0
184 243 185 0
184 241 243 0
185 243 242 0
245 246 186 0
186 246 187 0
187 246 247 0
187 247 188 0
188 247 249 0
188 249 248 0
250 257 196 0
199 251 196 0
196 251 250 0
197 189 199 0
189 251 199 0
189 252 251 0
253 189 190 0
253 252 189 0
254 190 191 0
254 253 190 0
255 191 192 0
255 254 191 0
256 192 193 0
256 255 192 0
259 256 201 0
256 194 201 0
256 193 194 0
200 201 194 0
258 262 204 0
258 204 257 0
257 204 196 0
204 203 196 0
203 195 196 0
196 195 198 0
196 198 199 0
199 198 197 0
261 259 201 0
263 261 206 0
206 261 202 0
261 201 202 0
201 200 202 0
205 206 202 0
204 262 208 0
208 262 265 0
208 207 203 0
208 203 204 0
263 206 210 0
263 210 266 0
209 210 205 0
205 210 206 0
208 265 213 0
213 265 269 0
213 212 207 0
213 207 208 0
268 266 210 0
271 268 216 0
216 268 211 0
268 210 211 0
210 209 211 0
215 216 211 0
269 270 213 0
270 274 219 0
270 219 214 0
213 270 214 0
212 213 214 0
219 218 214 0
273 271 216 0
275 273 221 0
221 273 217 0
273 216 217 0
216 215 217 0
220 221 217 0
219 274 223 0
223 274 277 0
223 222 218 0
223 218 219 0
275 221 226 0
275 226 279 0
225 226 220 0
220 226 221 0
277 278 223 0
278 282 229 0
278 229 224 0
223 278 224 0
222 223 224 0
229 228 224 0
281 279 226 0
285 281 231 0
231 281 227 0
281 226 227 0
226 225 227 0
230 231 227 0
282 284 229 0
228 229 284 0
287 228 284 0
232 228 287 0
285 231 236 0
285 236 290 0
234 236 230 0
230 236 231 0
287 289 232 0
232 289 233 0
237 233 289 0
237 289 293 0
298 291 244 0
244 291 290 0
244 290 236 0
242 244 236 0
235 242 236 0
235 236 234 0
293 295 237 0
237 295 238 0
238 296 239 0
295 296 238 0
245 239 296 0
245 296 301 0
305 297 240 0
305 240 248 0
240 299 241 0
297 299 240 0
244 243 298 0
243 299 298 0
243 241 299 0
243 244 242 0
301 303 245 0
245 303 246 0
246 304 247 0
303 304 246 0
247 306 249 0
304 306 247 0
248 249 305 0
305 249 306 0
308 314 250 0
250 314 257 0
309 250 251 0
309 308 250 0
310 251 252 0
310 309 251 0
311 252 253 0
311 310 252 0
312 253 254 0
312 311 253 0
313 254 255 0
313 312 254 0
316 313 260 0
313 256 260 0
313 255 256 0
259 260 256 0
315 319 258 0
258 319 262 0
258 257 314 0
258 314 315 0
318 316 260 0
320 318 264 0
264 318 261 0
318 260 261 0
260 259 261 0
263 264 261 0
319 265 262 0
322 265 319 0
320 264 267 0
320 267 323 0
266 267 263 0
263 267 264 0
322 269 265 0
325 269 322 0
324 323 267 0
327 324 272 0
272 324 268 0
324 267 268 0
267 266 268 0
271 272 268 0
325 326 269 0
269 326 270 0
274 270 326 0
274 326 330 0
329 327 272 0
332 329 276 0
276 329 273 0
329 272 273 0
272 271 273 0
275 276 273 0
330 277 274 0
334 277 330 0
332 276 280 0
332 280 335 0
279 280 275 0
275 280 276 0
278 277 283 0
277 338 283 0
277 334 338 0
283 282 278 0
337 335 280 0
340 337 286 0
286 337 281 0
337 280 281 0
280 279 281 0
285 286 281 0
338 339 283 0
339 342 288 0
339 288 284 0
283 339 284 0
282 283 284 0
288 287 284 0
340 286 292 0
340 292 344 0
290 292 285 0
285 292 286 0
342 343 288 0
343 347 294 0
343 294 289 0
288 343 289 0
287 288 289 0
294 293 289 0
352 345 300 0
300 345 344 0
300 344 292 0
298 300 292 0
291 298 292 0
291 292 290 0
347 348 294 0
294 348 293 0
348 295 293 0
348 349 295 0
349 355 302 0
296 349 302 0
295 349 296 0
302 301 296 0
359 350 307 0
297 305 307 0
350 297 307 0
353 297 350 0
300 299 352 0
299 353 352 0
299 297 353 0
299 300 298 0
355 357 302 0
302 357 301 0
357 303 301 0
357 358 303 0
303 360 304 0
358 360 303 0
307 306 359 0
306 360 359 0
306 304 360 0
306 307 305 0
362 367 308 0
308 367 314 0
363 308 309 0
363 362 308 0
364 309 310 0
364 363 309 0
365 310 311 0
365 364 310 0
366 311 312 0
366 365 311 0
373 366 317 0
366 313 317 0
366 312 313 0
316 317 313 0
368 376 315 0
315 376 319 0
315 314 367 0
315 367 368 0
375 373 317 0
378 375 321 0
321 375 318 0
375 317 318 0
317 316 318 0
320 321 318 0
376 322 319 0
381 322 376 0
380 378 321 0
321 320 380 0
320 382 380 0
320 323 382 0
381 325 322 0
384 325 381 0
323 324 328 0
385 323 328 0
382 323 385 0
327 328 324 0
326 325 331 0
325 388 331 0
325 384 388 0
331 330 326 0
387 385 328 0
390 387 333 0
333 387 329 0
387 328 329 0
328 327 329 0
332 333 329 0
388 389 331 0
330 331 389 0
392 330 389 0
334 330 392 0
390 333 336 0
390 336 394 0
335 336 332 0
332 336 333 0
392 338 334 0
397 338 392 0
396 394 336 0
399 396 341 0
341 396 337 0
396 336 337 0
336 335 337 0
340 341 337 0
397 398 338 0
338 398 339 0
342 339 398 0
342 398 401 0
399 341 346 0
399 346 405 0
344 346 340 0
340 346 341 0
401 402 342 0
342 402 343 0
347 343 402 0
347 402 408 0
410 403 351 0
406 354 351 0
406 351 403 0
354 406 405 0
354 405 346 0
352 354 346 0
345 352 346 0
345 346 344 0
408 409 347 0
347 409 348 0
409 413 356 0
349 409 356 0
348 409 349 0
356 355 349 0
416 411 361 0
361 411 410 0
361 410 351 0
359 361 351 0
350 359 351 0
350 351 353 0
353 351 354 0
353 354 352 0
413 414 356 0
356 414 355 0
414 357 355 0
414 415 357 0
357 417 358 0
415 417 357 0
361 360 416 0
360 417 416 0
360 358 417 0
360 361 359 0
369 367 362 0
363 370 362 0
362 370 369 0
364 371 363 0
363 371 370 0
365 372 364 0
364 372 371 0
366 374 365 0
365 374 372 0
373 374 366 0
377 376 368 0
424 377 368 0
424 368 367 0
419 424 367 0
369 419 367 0
419 369 370 0
419 370 420 0
420 370 371 0
420 371 421 0
421 371 372 0
421 372 422 0
422 372 374 0
422 374 423 0
430 423 379 0
379 423 375 0
423 374 375 0
374 373 375 0
378 379 375 0
425 433 377 0
433 376 377 0
433 381 376 0
425 377 424 0
432 430 379 0
436 432 383 0
383 432 380 0
432 379 380 0
379 378 380 0
382 383 380 0
433 384 381 0
438 384 433 0
436 383 386 0
436 386 441 0
385 386 382 0
382 386 383 0
438 388 384 0
444 388 438 0
443 441 386 0
446 443 391 0
391 443 387 0
443 386 387 0
386 385 387 0
390 391 387 0
389 388 393 0
388 448 393 0
388 444 448 0
393 392 389 0
446 391 395 0
446 395 452 0
394 395 390 0
390 395 391 0
448 449 393 0
392 393 449 0
455 392 449 0
397 392 455 0
454 452 395 0
459 454 400 0
400 454 396 0
454 395 396 0
395 394 396 0
399 400 396 0
455 456 397 0
397 456 398 0
401 398 456 0
401 456 462 0
464 460 404 0
404 460 459 0
400 404 459 0
407 404 400 0
405 407 399 0
399 407 400 0
462 463 401 0
401 463 402 0
408 402 463 0
408 463 467 0
469 465 412 0
412 465 464 0
412 464 404 0
410 412 404 0
403 410 404 0
403 404 406 0
406 404 407 0
406 407 405 0
467 468 408 0
408 468 409 0
413 409 468 0
413 468 472 0
475 470 418 0
418 470 469 0
418 469 412 0
416 418 412 0
411 416 412 0
411 412 410 0
472 473 413 0
413 473 414 0
414 476 415 0
473 476 414 0
418 417 475 0
417 476 475 0
417 415 476 0
417 418 416 0
426 424 419 0
420 427 419 0
419 427 426 0
421 428 420 0
420 428 427 0
422 429 421 0
421 429 428 0
423 431 422 0
422 431 429 0
430 431 423 0
434 433 425 0
482 434 425 0
482 425 424 0
478 482 424 0
426 478 424 0
478 426 427 0
478 427 479 0
479 427 428 0
479 428 480 0
480 428 429 0
480 429 481 0
435 486 481 0
429 435 481 0
431 435 429 0
432 437 430 0
437 431 430 0
437 435 431 0
436 437 432 0
439 438 434 0
434 438 433 0
434 482 488 0
434 488 439 0
486 435 440 0
486 440 491 0
442 435 437 0
440 435 442 0
441 442 436 0
436 442 437 0
489 494 439 0
494 438 439 0
494 444 438 0
489 439 488 0
493 491 440 0
445 497 493 0
440 445 493 0
442 445 440 0
443 447 441 0
447 442 441 0
447 445 442 0
446 447 443 0
450 448 495 0
448 494 495 0
448 444 494 0
499 450 495 0
497 445 451 0
497 451 502 0
453 445 447 0
451 445 453 0
452 453 446 0
446 453 447 0
450 449 448 0
500 457 455 0
500 455 449 0
499 500 449 0
450 499 449 0
505 457 500 0
504 502 451 0
458 508 504 0
451 458 504 0
453 458 451 0
454 461 452 0
461 453 452 0
461 458 453 0
459 461 454 0
457 456 455 0
462 456 457 0
505 462 457 0
510 462 505 0
508 458 466 0
508 466 514 0
464 466 460 0
466 461 460 0
466 458 461 0
460 461 459 0
510 511 462 0
462 511 463 0
467 463 511 0
467 511 517 0
522 515 471 0
471 515 514 0
471 514 466 0
469 471 466 0
465 469 466 0
465 466 464 0
517 518 467 0
467 518 468 0
520 474 472 0
468 520 472 0
518 520 468 0
523 477 474 0
523 474 520 0
477 523 522 0
477 522 471 0
475 477 471 0
470 475 471 0
470 471 469 0
474 473 472 0
473 474 476 0
476 474 477 0
476 477 475 0
483 482 478 0
479 484 478 0
478 484 483 0
480 485 479 0
479 485 484 0
481 487 480 0
480 487 485 0
486 487 481 0
490 488 483 0
483 488 482 0
484 525 527 0
490 484 527 0
483 484 490 0
525 484 485 0
525 485 526 0
492 530 526 0
485 492 526 0
487 492 485 0
491 492 486 0
486 492 487 0
496 494 489 0
533 496 489 0
533 489 488 0
528 533 488 0
490 528 488 0
528 490 527 0
532 530 492 0
536 532 498 0
498 532 493 0
532 492 493 0
492 491 493 0
497 498 493 0
496 495 494 0
534 501 499 0
534 499 495 0
533 534 495 0
496 533 495 0
538 501 534 0
536 498 503 0
536 503 542 0
502 503 497 0
497 503 498 0
501 500 499 0
539 506 505 0
539 505 500 0
538 539 500 0
501 538 500 0
544 506 539 0
542 503 507 0
542 507 546 0
504 509 502 0
509 503 502 0
509 507 503 0
508 509 504 0
512 510 506 0
506 510 505 0
506 544 548 0
506 548 512 0
546 507 513 0
546 513 551 0
516 507 509 0
513 507 516 0
514 516 508 0
508 516 509 0
512 511 510 0
549 519 517 0
549 517 511 0
548 549 511 0
512 548 511 0
552 521 519 0
552 519 549 0
521 552 551 0
513 521 551 0
524 521 513 0
522 524 515 0
524 516 515 0
524 513 516 0
515 516 514 0
519 518 517 0
518 519 520 0
520 519 521 0
520 521 523 0
523 521 524 0
523 524 522 0
529 527 525 0
526 531 525 0
525 531 529 0
530 531 526 0
535 533 528 0
556 535 528 0
556 528 527 0
554 556 527 0
529 554 527 0
554 529 531 0
554 531 555 0
559 555 537 0
537 555 532 0
555 531 532 0
531 530 532 0
536 537 532 0
535 534 533 0
557 540 538 0
557 538 534 0
556 557 534 0
535 556 534 0
560 541 540 0
560 540 557 0
541 560 559 0
537 541 559 0
543 541 537 0
542 543 536 0
536 543 537 0
540 539 538 0
539 540 544 0
540 545 544 0
540 541 545 0
547 541 543 0
545 541 547 0
546 547 542 0
542 547 543 0
550 548 545 0
545 548 544 0
553 545 547 0
550 545 553 0
551 553 546 0
546 553 547 0
550 549 548 0
549 550 552 0
552 550 553 0
552 553 551 0
558 556 554 0
555 561 554 0
554 561 558 0
559 561 555 0
558 557 556 0
557 558 560 0
560 558 561 0
560 561 559 0
