#!ascii version of /Users/gilles/git/nukkies/notebooks/data/UM2T_STh_L.asc
342 680
8.556526  -56.239670  -28.128120  0
9.056526  -56.239670  -28.128120  0
9.556526  -56.239670  -28.128120  0
10.056526  -56.239670  -28.128120  0
8.556526  -56.739670  -28.128120  0
9.056526  -56.739670  -28.128120  0
9.556526  -56.739670  -28.128120  0
8.556526  -55.989670  -27.878119  0
9.056526  -55.989670  -27.878119  0
9.556526  -55.989670  -27.878119  0
10.056526  -55.989670  -27.878119  0
8.306526  -56.239670  -27.878119  0
10.306526  -56.239670  -27.878119  0
10.056526  -56.489670  -27.878119  0
10.556526  -56.239670  -27.628117  0
8.306526  -56.739670  -27.878119  0
8.056526  -56.739670  -27.628117  0
8.556526  -56.989670  -27.878119  0
9.056526  -56.989670  -27.878119  0
9.806526  -56.739670  -27.878119  0
9.556526  -56.989670  -27.878119  0
10.056526  -56.739670  -27.628117  0
10.556526  -56.739670  -27.628117  0
8.556526  -57.239670  -27.628117  0
9.056526  -57.239670  -27.628117  0
9.556526  -57.239670  -27.628117  0
10.056526  -57.239670  -27.628117  0
10.556526  -57.239670  -27.628117  0
8.556526  -55.989670  -27.378115  0
9.056526  -55.989670  -27.378115  0
9.056526  -55.739670  -27.128113  0
9.556526  -55.989670  -27.378115  0
9.556526  -55.739670  -27.128113  0
10.056526  -55.989670  -27.378115  0
10.056526  -55.739670  -27.128113  0
10.556526  -55.989670  -27.378115  0
10.556526  -55.739670  -27.128113  0
11.056526  -55.739670  -27.128113  0
8.306526  -56.239670  -27.378115  0
8.056526  -56.489670  -27.378115  0
10.806526  -56.239670  -27.378115  0
11.056526  -56.239670  -27.128113  0
7.806526  -56.739670  -27.378115  0
8.056526  -56.989670  -27.378115  0
10.806526  -56.739670  -27.378115  0
11.056526  -56.739670  -27.128113  0
8.306526  -57.239670  -27.378115  0
8.556526  -57.489670  -27.378115  0
9.056526  -57.489670  -27.378115  0
9.556526  -57.489670  -27.378115  0
10.056526  -57.489670  -27.378115  0
10.806526  -57.239670  -27.378115  0
10.556526  -57.489670  -27.378115  0
11.056526  -57.239670  -27.128113  0
11.556526  -57.239670  -27.128113  0
9.056526  -55.489670  -26.878111  0
9.556526  -55.489670  -26.878111  0
10.056526  -55.489670  -26.878111  0
10.056526  -55.239670  -26.628111  0
10.556526  -55.489670  -26.878111  0
10.556526  -55.239670  -26.628111  0
11.056526  -55.489670  -26.878111  0
11.056526  -55.239670  -26.628111  0
8.806526  -55.739670  -26.878111  0
8.556526  -55.989670  -26.878111  0
11.306526  -55.739670  -26.878111  0
11.556526  -55.739670  -26.628111  0
8.306526  -56.239670  -26.878111  0
8.056526  -56.489670  -26.878111  0
11.306526  -56.239670  -26.878111  0
11.556526  -56.239670  -26.628111  0
7.806526  -56.739670  -26.878111  0
8.056526  -56.989670  -26.878111  0
11.306526  -56.739670  -26.878111  0
11.556526  -56.989670  -26.878111  0
11.556526  -56.739670  -26.628111  0
8.306526  -57.239670  -26.878111  0
8.556526  -57.489670  -26.878111  0
9.056526  -57.489670  -26.878111  0
9.556526  -57.489670  -26.878111  0
10.056526  -57.489670  -26.878111  0
10.556526  -57.489670  -26.878111  0
11.056526  -57.489670  -26.878111  0
11.806526  -57.239670  -26.878111  0
11.556526  -57.489670  -26.878111  0
10.056526  -54.989670  -26.378109  0
10.556526  -54.989670  -26.378109  0
11.056526  -54.989670  -26.378109  0
9.056526  -55.489670  -26.378109  0
9.806526  -55.239670  -26.378109  0
9.556526  -55.489670  -26.378109  0
11.306526  -55.239670  -26.378109  0
11.556526  -55.489670  -26.378109  0
11.556526  -55.239670  -26.128107  0
12.056526  -55.239670  -26.128107  0
8.806526  -55.739670  -26.378109  0
8.556526  -55.989670  -26.378109  0
11.806526  -55.739670  -26.378109  0
12.056526  -55.739670  -26.128107  0
8.306526  -56.239670  -26.378109  0
8.056526  -56.489670  -26.378109  0
8.556526  -56.239670  -26.128107  0
11.806526  -56.239670  -26.378109  0
12.056526  -56.239670  -26.128107  0
7.806526  -56.739670  -26.378109  0
8.056526  -56.989670  -26.378109  0
8.056526  -56.739670  -26.128107  0
11.806526  -56.739670  -26.378109  0
12.056526  -56.739670  -26.128107  0
8.306526  -57.239670  -26.378109  0
8.556526  -57.489670  -26.378109  0
9.056526  -57.489670  -26.378109  0
9.556526  -57.489670  -26.378109  0
10.056526  -57.489670  -26.378109  0
10.556526  -57.489670  -26.378109  0
11.056526  -57.489670  -26.378109  0
11.806526  -57.239670  -26.378109  0
11.556526  -57.489670  -26.378109  0
10.056526  -54.989670  -25.878105  0
10.556526  -54.989670  -25.878105  0
11.056526  -54.989670  -25.878105  0
11.056526  -54.739670  -25.628103  0
11.556526  -54.989670  -25.878105  0
11.556526  -54.739670  -25.628103  0
12.056526  -54.989670  -25.878105  0
9.056526  -55.489670  -25.878105  0
9.806526  -55.239670  -25.878105  0
9.556526  -55.489670  -25.878105  0
12.306526  -55.239670  -25.878105  0
12.556526  -55.239670  -25.628103  0
8.806526  -55.739670  -25.878105  0
12.306526  -55.739670  -25.878105  0
12.556526  -55.739670  -25.628103  0
8.806526  -56.239670  -25.878105  0
8.556526  -56.489670  -25.878105  0
12.306526  -56.239670  -25.878105  0
12.556526  -56.239670  -25.628103  0
8.306526  -56.739670  -25.878105  0
8.556526  -56.739670  -25.628103  0
9.056526  -56.739670  -25.628103  0
12.306526  -56.739670  -25.878105  0
12.056526  -56.989670  -25.878105  0
12.556526  -56.739670  -25.628103  0
8.306526  -57.239670  -25.878105  0
8.556526  -57.489670  -25.878105  0
8.556526  -57.239670  -25.628103  0
9.056526  -57.489670  -25.878105  0
9.056526  -57.239670  -25.628103  0
9.556526  -57.489670  -25.878105  0
10.056526  -57.489670  -25.878105  0
10.556526  -57.489670  -25.878105  0
11.056526  -57.489670  -25.878105  0
11.806526  -57.239670  -25.878105  0
11.556526  -57.489670  -25.878105  0
11.056526  -54.489670  -25.378101  0
11.556526  -54.489670  -25.378101  0
10.056526  -54.989670  -25.378101  0
10.806526  -54.739670  -25.378101  0
10.556526  -54.989670  -25.378101  0
10.556526  -54.739670  -25.128099  0
11.806526  -54.739670  -25.378101  0
12.056526  -54.989670  -25.378101  0
12.056526  -54.739670  -25.128099  0
12.556526  -54.989670  -25.378101  0
12.556526  -54.739670  -25.128099  0
9.056526  -55.489670  -25.378101  0
9.806526  -55.239670  -25.378101  0
9.556526  -55.489670  -25.378101  0
10.056526  -55.239670  -25.128099  0
12.806526  -55.239670  -25.378101  0
13.056526  -55.239670  -25.128099  0
8.806526  -55.739670  -25.378101  0
9.056526  -55.739670  -25.128099  0
12.806526  -55.739670  -25.378101  0
13.056526  -55.739670  -25.128099  0
8.806526  -56.239670  -25.378101  0
9.056526  -56.489670  -25.378101  0
9.056526  -56.239670  -25.128099  0
12.806526  -56.239670  -25.378101  0
9.306526  -56.739670  -25.378101  0
9.556526  -56.739670  -25.128099  0
10.056526  -56.739670  -25.128099  0
12.056526  -56.989670  -25.378101  0
12.806526  -56.739670  -25.378101  0
12.556526  -56.989670  -25.378101  0
12.556526  -56.739670  -25.128099  0
9.306526  -57.239670  -25.378101  0
9.556526  -57.489670  -25.378101  0
9.556526  -57.239670  -25.128099  0
10.056526  -57.489670  -25.378101  0
10.056526  -57.239670  -25.128099  0
10.556526  -57.489670  -25.378101  0
10.556526  -57.239670  -25.128099  0
11.056526  -57.489670  -25.378101  0
11.056526  -57.239670  -25.128099  0
11.806526  -57.239670  -25.378101  0
11.556526  -57.489670  -25.378101  0
11.556526  -57.239670  -25.128099  0
10.556526  -54.489670  -24.878098  0
11.056526  -54.489670  -24.878098  0
11.556526  -54.489670  -24.878098  0
12.056526  -54.489670  -24.878098  0
12.556526  -54.489670  -24.878098  0
10.306526  -54.739670  -24.878098  0
10.556526  -54.739670  -24.628096  0
12.806526  -54.739670  -24.878098  0
13.056526  -54.989670  -24.878098  0
13.056526  -54.739670  -24.628096  0
9.556526  -55.489670  -24.878098  0
10.306526  -55.239670  -24.878098  0
10.056526  -55.489670  -24.878098  0
13.306526  -55.239670  -24.878098  0
13.556526  -55.239670  -24.628096  0
9.306526  -55.739670  -24.878098  0
9.556526  -55.739670  -24.628096  0
10.056526  -55.739670  -24.628096  0
13.306526  -55.739670  -24.878098  0
13.056526  -55.989670  -24.878098  0
13.556526  -55.739670  -24.628096  0
9.306526  -56.239670  -24.878098  0
9.556526  -56.489670  -24.878098  0
9.556526  -56.239670  -24.628096  0
10.056526  -56.489670  -24.878098  0
10.056526  -56.239670  -24.628096  0
10.556526  -56.239670  -24.628096  0
12.806526  -56.239670  -24.878098  0
12.556526  -56.489670  -24.878098  0
10.306526  -56.739670  -24.878098  0
10.556526  -56.989670  -24.878098  0
10.556526  -56.739670  -24.628096  0
11.056526  -56.989670  -24.878098  0
11.056526  -56.739670  -24.628096  0
11.556526  -56.989670  -24.878098  0
11.556526  -56.739670  -24.628096  0
12.306526  -56.739670  -24.878098  0
12.056526  -56.989670  -24.878098  0
12.056526  -56.739670  -24.628096  0
11.056526  -54.489670  -24.378094  0
11.556526  -54.489670  -24.378094  0
12.056526  -54.489670  -24.378094  0
12.556526  -54.489670  -24.378094  0
13.056526  -54.489670  -24.378094  0
10.806526  -54.739670  -24.378094  0
10.556526  -54.989670  -24.378094  0
11.056526  -54.739670  -24.128094  0
11.556526  -54.739670  -24.128094  0
13.306526  -54.739670  -24.378094  0
13.556526  -54.989670  -24.378094  0
13.556526  -54.739670  -24.128094  0
10.306526  -55.239670  -24.378094  0
10.556526  -55.239670  -24.128094  0
13.806526  -55.239670  -24.378094  0
14.056526  -55.239670  -24.128094  0
10.306526  -55.739670  -24.378094  0
10.556526  -55.989670  -24.378094  0
10.556526  -55.739670  -24.128094  0
13.056526  -55.989670  -24.378094  0
13.806526  -55.739670  -24.378094  0
13.556526  -55.989670  -24.378094  0
14.056526  -55.739670  -24.128094  0
10.806526  -56.239670  -24.378094  0
11.056526  -56.489670  -24.378094  0
11.056526  -56.239670  -24.128094  0
11.556526  -56.489670  -24.378094  0
12.056526  -56.489670  -24.378094  0
12.806526  -56.239670  -24.378094  0
12.556526  -56.489670  -24.378094  0
12.056526  -54.489670  -23.878092  0
12.556526  -54.489670  -23.878092  0
13.056526  -54.489670  -23.878092  0
13.556526  -54.489670  -23.878092  0
11.056526  -54.989670  -23.878092  0
11.806526  -54.739670  -23.878092  0
11.556526  -54.989670  -23.878092  0
13.806526  -54.739670  -23.878092  0
13.556526  -54.739670  -23.628090  0
14.056526  -54.989670  -23.878092  0
10.806526  -55.239670  -23.878092  0
11.056526  -55.239670  -23.628090  0
14.306526  -55.239670  -23.878092  0
10.806526  -55.739670  -23.878092  0
11.056526  -55.989670  -23.878092  0
11.056526  -55.739670  -23.628090  0
11.556526  -55.739670  -23.628090  0
13.056526  -55.989670  -23.878092  0
13.556526  -55.989670  -23.878092  0
14.306526  -55.739670  -23.878092  0
14.056526  -55.989670  -23.878092  0
14.056526  -55.739670  -23.628090  0
11.306526  -56.239670  -23.878092  0
11.556526  -56.489670  -23.878092  0
11.556526  -56.239670  -23.628090  0
12.056526  -56.489670  -23.878092  0
12.806526  -56.239670  -23.878092  0
12.556526  -56.489670  -23.878092  0
12.056526  -54.489670  -23.378088  0
12.556526  -54.489670  -23.378088  0
13.056526  -54.489670  -23.378088  0
11.806526  -54.739670  -23.378088  0
11.556526  -54.989670  -23.378088  0
12.056526  -54.739670  -23.128086  0
12.556526  -54.739670  -23.128086  0
13.306526  -54.739670  -23.378088  0
13.056526  -54.739670  -23.128086  0
13.556526  -54.989670  -23.378088  0
14.056526  -54.989670  -23.378088  0
11.306526  -55.239670  -23.378088  0
11.556526  -55.489670  -23.378088  0
11.556526  -55.239670  -23.128086  0
12.056526  -55.239670  -23.128086  0
14.306526  -55.239670  -23.378088  0
14.056526  -55.489670  -23.378088  0
11.806526  -55.739670  -23.378088  0
12.056526  -55.739670  -23.128086  0
13.056526  -55.989670  -23.378088  0
13.806526  -55.739670  -23.378088  0
13.556526  -55.989670  -23.378088  0
11.806526  -56.239670  -23.378088  0
12.056526  -56.489670  -23.378088  0
12.056526  -56.239670  -23.128086  0
12.806526  -56.239670  -23.378088  0
12.556526  -56.489670  -23.378088  0
12.556526  -56.239670  -23.128086  0
12.556526  -54.989670  -22.878084  0
13.056526  -54.989670  -22.878084  0
13.556526  -54.989670  -22.878084  0
14.056526  -54.989670  -22.878084  0
12.306526  -55.239670  -22.878084  0
12.556526  -55.239670  -22.628082  0
13.056526  -55.239670  -22.628082  0
13.556526  -55.239670  -22.628082  0
14.306526  -55.239670  -22.878084  0
14.056526  -55.489670  -22.878084  0
14.056526  -55.239670  -22.628082  0
12.306526  -55.739670  -22.878084  0
12.556526  -55.989670  -22.878084  0
12.556526  -55.739670  -22.628082  0
13.056526  -55.989670  -22.878084  0
13.056526  -55.739670  -22.628082  0
13.806526  -55.739670  -22.878084  0
13.556526  -55.989670  -22.878084  0
13.556526  -55.739670  -22.628082  0
7 11 0 0
1 8 0 0
0 8 7 0
2 9 1 0
1 9 8 0
3 10 2 0
2 10 9 0
3 12 10 0
0 11 4 0
4 11 15 0
0 5 1 0
0 4 5 0
1 6 2 0
1 5 6 0
13 3 19 0
3 6 19 0
3 2 6 0
3 13 12 0
15 17 4 0
4 17 5 0
5 17 18 0
5 18 6 0
6 18 20 0
6 20 19 0
28 38 7 0
7 38 11 0
29 7 8 0
29 28 7 0
31 8 9 0
31 29 8 0
33 9 10 0
33 31 9 0
14 35 12 0
35 10 12 0
35 33 10 0
14 40 35 0
39 42 16 0
38 39 16 0
15 38 16 0
11 38 15 0
19 21 13 0
14 12 13 0
21 14 13 0
22 14 21 0
40 14 44 0
44 14 22 0
42 43 16 0
43 46 23 0
43 23 17 0
16 43 17 0
15 16 17 0
24 18 17 0
24 17 23 0
25 20 18 0
25 18 24 0
21 19 20 0
25 21 20 0
26 21 25 0
21 27 22 0
21 26 27 0
44 22 51 0
51 22 27 0
46 47 23 0
23 47 24 0
24 47 48 0
24 48 25 0
25 48 49 0
25 49 26 0
26 49 50 0
26 50 27 0
27 50 52 0
27 52 51 0
55 63 30 0
32 56 30 0
30 56 55 0
34 57 32 0
32 57 56 0
36 59 34 0
34 59 57 0
37 61 36 0
36 61 59 0
37 65 61 0
64 67 28 0
28 67 38 0
29 30 63 0
64 29 63 0
28 29 64 0
30 29 31 0
30 31 32 0
32 31 33 0
32 33 34 0
34 33 35 0
34 35 36 0
36 35 40 0
41 36 40 0
37 36 41 0
65 37 69 0
69 37 41 0
68 71 39 0
39 71 42 0
39 38 67 0
39 67 68 0
44 45 41 0
44 41 40 0
69 41 73 0
73 41 45 0
71 72 42 0
42 72 43 0
46 43 72 0
46 72 76 0
51 53 45 0
51 45 44 0
73 45 74 0
45 54 74 0
45 53 54 0
54 83 74 0
76 77 46 0
46 77 47 0
47 78 48 0
77 78 47 0
48 79 49 0
78 79 48 0
49 80 50 0
79 80 49 0
50 81 52 0
80 81 50 0
51 52 53 0
52 82 53 0
52 81 82 0
53 82 54 0
54 82 84 0
54 84 83 0
85 89 58 0
60 86 58 0
58 86 85 0
62 87 60 0
60 87 86 0
62 91 87 0
88 95 55 0
55 95 63 0
90 55 56 0
90 88 55 0
57 58 89 0
90 57 89 0
56 57 90 0
58 57 59 0
58 59 60 0
60 59 61 0
60 61 62 0
66 92 65 0
65 92 61 0
92 91 61 0
91 62 61 0
66 97 92 0
96 99 64 0
64 99 67 0
64 63 95 0
64 95 96 0
69 70 66 0
69 66 65 0
97 66 102 0
102 66 70 0
100 104 68 0
68 104 71 0
68 67 99 0
68 99 100 0
73 75 70 0
73 70 69 0
102 70 107 0
107 70 75 0
104 105 71 0
71 105 72 0
76 72 105 0
76 105 109 0
74 75 73 0
74 83 75 0
83 107 75 0
83 116 107 0
109 110 76 0
76 110 77 0
77 111 78 0
110 111 77 0
78 112 79 0
111 112 78 0
79 113 80 0
112 113 79 0
80 114 81 0
113 114 80 0
81 115 82 0
114 115 81 0
82 117 84 0
115 117 82 0
83 84 116 0
116 84 117 0
118 126 85 0
85 126 89 0
119 85 86 0
119 118 85 0
120 86 87 0
120 119 86 0
93 122 91 0
122 87 91 0
122 120 87 0
94 124 93 0
93 124 122 0
94 128 124 0
125 130 88 0
88 130 95 0
127 88 90 0
127 125 88 0
90 89 126 0
90 126 127 0
92 93 91 0
93 92 97 0
98 93 97 0
94 93 98 0
128 94 131 0
131 94 98 0
101 99 96 0
133 101 96 0
95 133 96 0
130 133 95 0
102 103 98 0
102 98 97 0
131 98 135 0
135 98 103 0
106 104 100 0
137 106 100 0
137 100 99 0
134 137 99 0
101 134 99 0
134 101 133 0
107 108 103 0
107 103 102 0
135 103 140 0
140 103 108 0
106 105 104 0
109 105 106 0
137 109 106 0
143 109 137 0
152 141 108 0
107 152 108 0
116 152 107 0
108 141 140 0
143 144 109 0
109 144 110 0
110 146 111 0
144 146 110 0
111 148 112 0
146 148 111 0
112 149 113 0
148 149 112 0
113 150 114 0
149 150 113 0
114 151 115 0
150 151 114 0
115 153 117 0
151 153 115 0
116 117 152 0
152 117 153 0
154 157 121 0
123 155 121 0
121 155 154 0
123 160 155 0
156 166 118 0
118 166 126 0
158 118 119 0
158 156 118 0
120 121 157 0
158 120 157 0
119 120 158 0
121 120 122 0
121 122 123 0
161 160 123 0
122 161 123 0
124 161 122 0
129 163 128 0
163 124 128 0
163 161 124 0
129 169 163 0
165 171 125 0
125 171 130 0
167 125 127 0
167 165 125 0
127 126 166 0
127 166 167 0
131 132 129 0
131 129 128 0
169 129 173 0
173 129 132 0
171 133 130 0
175 133 171 0
135 136 132 0
135 132 131 0
173 132 178 0
178 132 136 0
138 137 134 0
133 175 176 0
138 133 176 0
139 138 176 0
134 133 138 0
179 139 176 0
140 142 136 0
140 136 135 0
178 136 183 0
183 136 142 0
145 143 138 0
138 143 137 0
147 138 139 0
145 138 147 0
139 179 186 0
139 186 147 0
195 182 141 0
195 141 152 0
140 141 142 0
141 184 142 0
141 182 184 0
142 184 183 0
145 144 143 0
144 145 146 0
146 145 147 0
186 187 147 0
187 146 147 0
187 148 146 0
148 189 149 0
187 189 148 0
149 191 150 0
189 191 149 0
150 193 151 0
191 193 150 0
151 196 153 0
193 196 151 0
152 153 195 0
195 153 196 0
198 203 159 0
157 154 159 0
154 198 159 0
154 199 198 0
200 154 155 0
200 199 154 0
162 201 160 0
201 155 160 0
201 200 155 0
164 202 162 0
162 202 201 0
164 205 202 0
168 166 156 0
203 209 159 0
209 156 159 0
156 158 159 0
156 209 168 0
159 158 157 0
161 162 160 0
162 161 163 0
162 163 164 0
170 206 169 0
169 206 163 0
206 205 163 0
205 164 163 0
170 211 206 0
172 171 165 0
172 165 213 0
165 208 213 0
165 167 208 0
167 166 168 0
210 167 168 0
208 167 210 0
210 168 209 0
173 174 170 0
173 170 169 0
211 170 216 0
216 170 174 0
177 175 172 0
172 175 171 0
172 213 219 0
172 219 177 0
225 217 174 0
173 225 174 0
178 225 173 0
174 217 216 0
177 176 175 0
220 180 179 0
220 179 176 0
219 220 176 0
177 219 176 0
222 181 180 0
222 180 220 0
227 181 222 0
234 226 185 0
226 225 185 0
225 183 185 0
225 178 183 0
188 186 180 0
180 186 179 0
190 180 181 0
188 180 190 0
181 227 228 0
192 181 228 0
190 181 192 0
230 194 192 0
230 192 228 0
232 197 194 0
232 194 230 0
182 195 197 0
232 182 197 0
235 182 232 0
185 184 234 0
184 235 234 0
184 182 235 0
184 185 183 0
188 187 186 0
187 188 189 0
189 188 190 0
189 190 191 0
191 190 192 0
191 192 193 0
193 192 194 0
193 194 196 0
196 194 197 0
196 197 195 0
204 203 198 0
204 198 242 0
198 237 242 0
198 199 237 0
238 199 200 0
238 237 199 0
239 200 201 0
239 238 200 0
240 201 202 0
240 239 201 0
207 241 205 0
241 202 205 0
241 240 202 0
207 246 241 0
243 249 204 0
249 203 204 0
249 209 203 0
243 204 242 0
206 207 205 0
212 247 211 0
211 247 206 0
247 246 206 0
246 207 206 0
212 251 247 0
214 213 208 0
210 215 208 0
208 215 214 0
253 215 210 0
209 253 210 0
249 253 209 0
216 218 212 0
216 212 211 0
251 212 257 0
257 212 218 0
221 219 214 0
214 219 213 0
223 214 215 0
221 214 223 0
215 253 254 0
224 215 254 0
223 215 224 0
260 224 254 0
265 256 217 0
265 217 225 0
216 217 218 0
217 258 218 0
217 256 258 0
218 258 257 0
221 220 219 0
220 221 222 0
222 221 223 0
222 223 227 0
223 229 227 0
223 224 229 0
224 260 261 0
231 224 261 0
229 224 231 0
263 233 231 0
263 231 261 0
264 236 233 0
264 233 263 0
226 234 236 0
264 226 236 0
266 226 264 0
225 226 265 0
265 226 266 0
229 228 227 0
228 229 230 0
230 229 231 0
230 231 232 0
232 231 233 0
232 233 235 0
235 233 236 0
235 236 234 0
244 242 237 0
238 245 237 0
237 245 244 0
245 238 272 0
238 267 272 0
238 239 267 0
268 239 240 0
268 267 239 0
269 240 241 0
269 268 240 0
248 270 246 0
270 241 246 0
270 269 241 0
248 274 270 0
250 249 243 0
277 250 243 0
277 243 242 0
271 277 242 0
244 271 242 0
271 244 245 0
271 245 273 0
273 245 272 0
247 248 246 0
252 276 251 0
251 276 247 0
276 274 247 0
274 248 247 0
252 279 276 0
255 253 250 0
250 253 249 0
250 277 280 0
250 280 255 0
257 259 252 0
257 252 251 0
279 252 286 0
286 252 259 0
255 254 253 0
281 262 260 0
281 260 254 0
280 281 254 0
255 280 254 0
289 262 281 0
293 284 256 0
293 256 265 0
256 285 258 0
284 285 256 0
257 258 259 0
258 287 259 0
258 285 287 0
259 287 286 0
262 261 260 0
289 290 262 0
290 261 262 0
290 263 261 0
263 292 264 0
290 292 263 0
264 294 266 0
292 294 264 0
265 266 293 0
293 266 294 0
295 298 267 0
267 298 272 0
296 267 268 0
296 295 267 0
297 268 269 0
297 296 268 0
302 297 275 0
297 270 275 0
297 269 270 0
274 275 270 0
278 277 271 0
278 271 306 0
271 299 306 0
271 273 299 0
273 272 298 0
273 298 299 0
304 302 275 0
304 275 274 0
276 304 274 0
305 304 276 0
276 279 305 0
305 279 310 0
282 280 278 0
278 280 277 0
278 306 307 0
283 278 307 0
282 278 283 0
312 283 307 0
315 311 288 0
311 310 288 0
310 286 288 0
310 279 286 0
282 281 280 0
281 282 289 0
282 291 289 0
282 283 291 0
283 312 317 0
283 317 291 0
320 314 284 0
320 284 293 0
284 316 285 0
314 316 284 0
288 287 315 0
287 316 315 0
287 285 316 0
287 288 286 0
291 290 289 0
317 318 291 0
318 290 291 0
318 292 290 0
292 321 294 0
318 321 292 0
293 294 320 0
320 294 321 0
300 298 295 0
296 301 295 0
295 301 300 0
297 303 296 0
296 303 301 0
302 303 297 0
308 306 299 0
298 300 299 0
300 308 299 0
300 309 308 0
301 323 327 0
309 301 327 0
300 301 309 0
323 301 303 0
323 303 324 0
324 303 302 0
304 324 302 0
325 324 304 0
326 304 305 0
326 325 304 0
305 310 326 0
326 310 331 0
308 307 306 0
307 308 312 0
308 313 312 0
308 309 313 0
309 327 334 0
309 334 313 0
339 332 311 0
339 311 315 0
310 311 331 0
331 311 332 0
319 317 313 0
313 317 312 0
313 334 335 0
322 313 335 0
319 313 322 0
314 320 322 0
335 314 322 0
337 314 335 0
314 340 316 0
337 340 314 0
315 316 339 0
339 316 340 0
319 318 317 0
318 319 321 0
321 319 322 0
321 322 320 0
328 327 323 0
324 329 323 0
323 329 328 0
325 330 324 0
324 330 329 0
326 333 325 0
325 333 330 0
331 333 326 0
336 334 328 0
328 334 327 0
338 328 329 0
336 328 338 0
341 329 330 0
338 329 341 0
339 341 332 0
341 333 332 0
341 330 333 0
332 333 331 0
336 335 334 0
335 336 337 0
337 336 338 0
337 338 340 0
340 338 341 0
340 341 339 0
