#!ascii version of /Users/gilles/git/nukkies/notebooks/data/VL1T_STh_L.asc
706 1408
8.673515  -48.741367  -28.519867  0
8.173515  -48.741367  -28.519867  0
8.673999  -49.241936  -28.519600  0
8.173707  -49.241596  -28.519760  0
7.673515  -49.241367  -28.519867  0
9.673515  -48.241367  -28.019867  0
9.173515  -48.241367  -28.019867  0
8.673515  -48.491367  -28.269867  0
8.673515  -48.241367  -28.019867  0
8.173515  -48.491367  -28.269867  0
8.173515  -48.241367  -28.019867  0
9.670506  -48.741524  -28.020086  0
8.924097  -48.742054  -28.269547  0
9.173828  -48.741737  -28.019695  0
7.923515  -48.741367  -28.269867  0
7.673515  -48.991367  -28.269867  0
9.656299  -49.245415  -28.023676  0
8.925544  -49.244762  -28.268110  0
9.173059  -49.245392  -28.017654  0
8.675866  -49.494675  -28.268223  0
8.174675  -49.492413  -28.269426  0
7.423515  -49.241367  -28.269867  0
7.673515  -49.491367  -28.269867  0
9.164167  -49.758381  -28.014050  0
8.676515  -49.755646  -28.011726  0
8.178646  -49.748287  -28.015055  0
7.675820  -49.743099  -28.019197  0
8.672370  -50.747135  -27.994352  0
8.175544  -50.744396  -28.013115  0
7.675181  -50.742352  -28.019543  0
9.149261  -51.735054  -28.004599  0
8.662643  -51.738220  -28.011765  0
8.170631  -51.740410  -28.017849  0
7.673515  -51.741367  -28.019867  0
7.173515  -51.741367  -28.019867  0
9.673515  -47.991367  -27.769867  0
9.173515  -47.991367  -27.769867  0
8.673515  -47.991367  -27.769867  0
8.173515  -47.991367  -27.769867  0
9.921668  -48.241096  -27.770201  0
7.923515  -48.241367  -27.769867  0
9.905139  -48.740803  -27.776083  0
7.923515  -48.741367  -27.769867  0
7.673515  -48.991367  -27.769867  0
9.866805  -49.248016  -27.807865  0
9.640314  -49.506359  -27.779793  0
7.423515  -49.241367  -27.769867  0
9.398343  -49.769329  -27.771111  0
9.631486  -49.775928  -27.564198  0
9.168468  -50.034004  -27.759958  0
8.682287  -50.013634  -27.749632  0
8.180259  -49.998306  -27.763935  0
7.423515  -49.741367  -27.769867  0
7.675836  -49.992886  -27.769331  0
9.181605  -50.307533  -27.461918  0
8.668632  -50.508503  -27.712709  0
8.673738  -50.274422  -27.463907  0
8.181539  -50.504513  -27.744410  0
8.184131  -50.255692  -27.501200  0
7.678022  -50.495052  -27.765678  0
7.679322  -50.245655  -27.516588  0
9.619121  -50.781918  -27.395168  0
8.906465  -50.748543  -27.717104  0
9.140184  -50.767570  -27.419960  0
8.664861  -50.991879  -27.750536  0
8.171507  -50.991108  -27.767054  0
7.424530  -50.741970  -27.769672  0
7.673515  -50.991367  -27.769867  0
7.173515  -50.741367  -27.519867  0
9.115576  -51.482441  -27.726311  0
9.088696  -51.245846  -27.421738  0
8.632778  -51.484718  -27.731638  0
8.638113  -51.241444  -27.467453  0
8.158856  -51.488209  -27.754652  0
8.163988  -51.239597  -27.508245  0
7.670445  -51.490444  -27.767376  0
7.672565  -51.241112  -27.518997  0
7.173515  -51.491367  -27.769867  0
7.173515  -51.241367  -27.519867  0
9.392600  -51.735291  -27.753878  0
9.165653  -51.988869  -27.766279  0
8.672728  -51.991074  -27.769421  0
8.173515  -51.991367  -27.769867  0
7.673515  -51.991367  -27.769867  0
6.923515  -51.741367  -27.769867  0
7.173515  -51.991367  -27.769867  0
8.673515  -52.241367  -27.519867  0
8.173515  -52.241367  -27.519867  0
7.673515  -52.241367  -27.519867  0
7.673515  -52.741367  -27.519867  0
9.673515  -47.991367  -27.269867  0
9.173515  -47.991367  -27.269867  0
8.673515  -47.991367  -27.269867  0
8.173515  -47.991367  -27.269867  0
9.916224  -48.240227  -27.271822  0
10.172237  -48.241158  -27.020325  0
7.923515  -48.241367  -27.269867  0
9.880822  -48.737492  -27.293217  0
10.155025  -48.737354  -27.031528  0
7.923515  -48.741367  -27.269867  0
7.673515  -48.991367  -27.269867  0
9.836344  -49.236946  -27.351507  0
10.113899  -49.228985  -27.083347  0
7.423515  -49.241367  -27.269867  0
9.862336  -49.761326  -27.402113  0
10.104224  -49.729416  -27.186533  0
9.702142  -50.054222  -27.376673  0
7.423515  -49.741367  -27.269867  0
9.529957  -50.316757  -27.318991  0
9.740775  -50.529716  -27.268501  0
7.424484  -50.241940  -27.269682  0
7.174385  -50.491879  -27.269695  0
9.809929  -50.769196  -27.117100  0
10.073991  -50.759102  -26.949631  0
9.534602  -51.003582  -27.150589  0
6.923515  -50.741367  -27.269867  0
7.173515  -50.741367  -27.019867  0
9.335637  -51.235283  -27.217237  0
9.562072  -51.241455  -26.974947  0
6.923515  -51.241367  -27.269867  0
9.387667  -51.735523  -27.255623  0
9.630653  -51.738842  -27.007484  0
9.164846  -51.989525  -27.267838  0
6.923515  -51.741367  -27.269867  0
7.173515  -51.991367  -27.269867  0
7.173515  -51.741367  -27.019867  0
8.923515  -52.241367  -27.269867  0
9.173515  -52.241367  -27.019867  0
8.673515  -52.491367  -27.269867  0
8.173515  -52.491367  -27.269867  0
7.423515  -52.241367  -27.269867  0
7.923515  -52.741367  -27.269867  0
8.173515  -52.741367  -27.019867  0
7.423515  -52.741367  -27.269867  0
7.673515  -52.991367  -27.269867  0
10.173515  -47.991367  -26.769867  0
9.673515  -47.991367  -26.769867  0
9.173515  -47.991367  -26.769867  0
8.673515  -47.991367  -26.769867  0
8.173515  -47.991367  -26.769867  0
10.420514  -48.240116  -26.773449  0
10.673939  -48.241230  -26.520395  0
7.923515  -48.241367  -26.769867  0
8.173515  -48.241367  -26.519867  0
10.402285  -48.731895  -26.802044  0
10.671719  -48.738041  -26.529802  0
7.923515  -48.741367  -26.769867  0
8.173515  -48.741367  -26.519867  0
7.673515  -48.991367  -26.769867  0
10.381587  -49.217373  -26.887064  0
10.668032  -49.226833  -26.572033  0
7.423515  -49.241367  -26.769867  0
7.673515  -49.241367  -26.519867  0
10.414232  -49.715260  -26.993525  0
10.687548  -49.713276  -26.659075  0
10.224113  -50.006596  -27.032747  0
9.854555  -50.055500  -27.015629  0
7.423515  -49.741367  -26.769867  0
7.673515  -49.741367  -26.519867  0
10.710835  -50.220284  -26.656389  0
10.214844  -50.498337  -26.853083  0
10.268610  -50.227039  -26.750015  0
9.660912  -50.292431  -26.975128  0
9.878702  -50.502144  -26.979748  0
9.899562  -50.263973  -26.834911  0
7.423515  -50.241367  -26.769867  0
10.353470  -50.755390  -26.780552  0
10.668608  -50.738518  -26.601585  0
10.075149  -51.001553  -26.748888  0
7.423515  -50.741367  -26.769867  0
7.173515  -50.991367  -26.769867  0
9.864878  -51.243881  -26.761650  0
10.127808  -51.246811  -26.521418  0
6.923515  -51.241367  -26.769867  0
7.173515  -51.491367  -26.769867  0
7.173515  -51.241367  -26.519867  0
9.902405  -51.740875  -26.769493  0
10.158702  -51.743061  -26.521637  0
9.667930  -51.990711  -26.769526  0
7.423515  -51.741367  -26.769867  0
7.673515  -51.741367  -26.519867  0
9.423515  -52.241367  -26.769867  0
9.673515  -52.241367  -26.519867  0
9.173515  -52.491367  -26.769867  0
8.673515  -52.491367  -26.769867  0
7.423515  -52.241367  -26.769867  0
7.673515  -52.241367  -26.519867  0
9.173515  -52.741367  -26.519867  0
8.423515  -52.741367  -26.769867  0
8.673515  -52.741367  -26.519867  0
8.173515  -52.991367  -26.769867  0
7.423515  -52.741367  -26.769867  0
7.673515  -52.991367  -26.769867  0
7.673515  -52.741367  -26.519867  0
10.673515  -47.991367  -26.269867  0
10.673515  -47.741367  -26.019867  0
10.173515  -47.991367  -26.269867  0
10.173515  -47.741367  -26.019867  0
9.673515  -47.991367  -26.269867  0
9.173515  -47.991367  -26.269867  0
8.673515  -47.991367  -26.269867  0
10.924461  -48.241066  -26.271049  0
11.173515  -48.241367  -26.019867  0
9.173515  -48.241367  -26.019867  0
8.423515  -48.241367  -26.269867  0
8.673515  -48.241367  -26.019867  0
10.926105  -48.737225  -26.282515  0
11.174597  -48.741024  -26.021212  0
9.173515  -48.741367  -26.019867  0
8.423515  -48.741367  -26.269867  0
8.673515  -48.741367  -26.019867  0
8.173515  -48.991367  -26.269867  0
10.933007  -49.229355  -26.314211  0
11.177560  -49.238998  -26.027710  0
7.923515  -49.241367  -26.269867  0
10.943761  -49.726151  -26.339733  0
11.181662  -49.736774  -26.038204  0
7.923515  -49.741367  -26.269867  0
8.173515  -49.741367  -26.019867  0
7.673515  -49.991367  -26.269867  0
10.938267  -50.235161  -26.334459  0
11.182462  -50.238205  -26.043430  0
7.423515  -50.241367  -26.269867  0
7.673515  -50.241367  -26.019867  0
10.921827  -50.743767  -26.317604  0
11.173635  -50.742416  -26.039602  0
10.649580  -50.996197  -26.289124  0
7.423515  -50.741367  -26.269867  0
10.411009  -51.243961  -26.275036  0
10.666959  -51.243160  -26.025114  0
7.423515  -51.241367  -26.269867  0
7.673515  -51.491367  -26.269867  0
7.673515  -51.241367  -26.019867  0
10.420592  -51.741634  -26.270885  0
10.672291  -51.741722  -26.020880  0
10.172673  -51.991367  -26.269983  0
7.923515  -51.741367  -26.269867  0
8.173515  -51.741367  -26.019867  0
9.923515  -52.241367  -26.269867  0
10.173515  -52.241367  -26.019867  0
9.673515  -52.491367  -26.269867  0
7.923515  -52.241367  -26.269867  0
9.423515  -52.741367  -26.269867  0
9.673515  -52.741367  -26.019867  0
9.173515  -52.991367  -26.269867  0
8.673515  -52.991367  -26.269867  0
7.923515  -52.741367  -26.269867  0
8.173515  -52.991367  -26.269867  0
8.173515  -52.741367  -26.019867  0
11.173515  -46.741367  -25.519867  0
10.673515  -46.741367  -25.519867  0
11.173515  -47.241367  -25.519867  0
10.673515  -47.491367  -25.769867  0
10.673515  -47.241367  -25.519867  0
10.173515  -47.491367  -25.769867  0
10.173515  -47.241367  -25.519867  0
10.923515  -47.741367  -25.769867  0
11.173515  -47.991367  -25.769867  0
11.173515  -47.741367  -25.519867  0
9.923515  -47.741367  -25.769867  0
9.673515  -47.991367  -25.769867  0
11.423515  -48.241367  -25.769867  0
11.673515  -48.241367  -25.519867  0
9.423515  -48.241367  -25.769867  0
11.423876  -48.741257  -25.770313  0
11.673515  -48.741367  -25.519867  0
9.423515  -48.741367  -25.769867  0
9.173515  -48.991367  -25.769867  0
8.673515  -48.991367  -25.769867  0
8.173515  -48.991367  -25.769867  0
11.425078  -49.240871  -25.771812  0
11.673515  -49.241367  -25.519867  0
7.923515  -49.241367  -25.769867  0
8.173515  -49.491367  -25.769867  0
8.173515  -49.241367  -25.519867  0
11.426174  -49.740807  -25.773563  0
11.673515  -49.741367  -25.519867  0
8.423515  -49.741367  -25.769867  0
8.173515  -49.991367  -25.769867  0
11.425149  -50.241661  -25.773640  0
11.673515  -50.241367  -25.519867  0
7.923515  -50.241367  -25.769867  0
8.173515  -50.241367  -25.519867  0
7.673515  -50.491367  -25.769867  0
11.423584  -50.742081  -25.772470  0
11.169308  -50.993244  -25.775896  0
8.173515  -50.741367  -25.519867  0
7.423515  -50.741367  -25.769867  0
7.673515  -50.991367  -25.769867  0
7.673515  -50.741367  -25.519867  0
10.922873  -51.241718  -25.770796  0
11.173121  -51.241585  -25.520439  0
7.923515  -51.241367  -25.769867  0
8.173515  -51.491367  -25.769867  0
8.173515  -51.241367  -25.519867  0
10.923515  -51.741367  -25.769867  0
10.673515  -51.991367  -25.769867  0
8.423515  -51.741367  -25.769867  0
8.173515  -51.991367  -25.769867  0
10.423515  -52.241367  -25.769867  0
10.173515  -52.491367  -25.769867  0
8.673515  -52.241367  -25.519867  0
7.923515  -52.241367  -25.769867  0
8.173515  -52.491367  -25.769867  0
8.173515  -52.241367  -25.519867  0
9.923515  -52.741367  -25.769867  0
9.673515  -52.991367  -25.769867  0
9.173515  -52.991367  -25.769867  0
8.423515  -52.741367  -25.769867  0
8.673515  -52.991367  -25.769867  0
8.673515  -52.741367  -25.519867  0
11.173515  -46.491367  -25.269867  0
10.673515  -46.491367  -25.269867  0
11.423515  -46.741367  -25.269867  0
10.423515  -46.741367  -25.269867  0
10.173515  -46.991367  -25.269867  0
11.423515  -47.241367  -25.269867  0
11.673515  -47.241367  -25.019867  0
9.923515  -47.241367  -25.269867  0
10.173515  -47.241367  -25.019867  0
11.423515  -47.741367  -25.269867  0
11.673515  -47.991367  -25.269867  0
11.673515  -47.741367  -25.019867  0
9.923515  -47.741367  -25.269867  0
10.173515  -47.741367  -25.019867  0
9.673515  -47.991367  -25.269867  0
11.923515  -48.241367  -25.269867  0
12.173515  -48.241367  -25.019867  0
9.423515  -48.241367  -25.269867  0
9.673515  -48.241367  -25.019867  0
12.673515  -48.741367  -25.019867  0
11.923515  -48.741367  -25.269867  0
12.173515  -48.741367  -25.019867  0
9.423515  -48.741367  -25.269867  0
9.673515  -48.741367  -25.019867  0
9.173515  -48.991367  -25.269867  0
8.673515  -48.991367  -25.269867  0
11.923515  -49.241367  -25.269867  0
12.173515  -49.241367  -25.019867  0
9.173515  -49.241367  -25.019867  0
8.423515  -49.241367  -25.269867  0
8.673515  -49.241367  -25.019867  0
11.923515  -49.741367  -25.269867  0
12.173515  -49.741367  -25.019867  0
9.173515  -49.741367  -25.019867  0
8.423515  -49.741367  -25.269867  0
8.673515  -49.741367  -25.019867  0
11.923515  -50.241367  -25.269867  0
12.173515  -50.241367  -25.019867  0
11.673515  -50.491367  -25.269867  0
8.423515  -50.241367  -25.269867  0
8.673515  -50.241367  -25.019867  0
11.423515  -50.741367  -25.269867  0
11.673515  -50.741367  -25.019867  0
8.423515  -50.741367  -25.269867  0
8.673515  -50.741367  -25.019867  0
11.423515  -51.241367  -25.269867  0
11.673515  -51.241367  -25.019867  0
11.173515  -51.491367  -25.269867  0
8.423515  -51.241367  -25.269867  0
8.673515  -51.241367  -25.019867  0
10.923515  -51.741367  -25.269867  0
11.173515  -51.741367  -25.019867  0
10.673515  -51.991367  -25.269867  0
8.423515  -51.741367  -25.269867  0
8.673515  -51.991367  -25.269867  0
8.673515  -51.741367  -25.019867  0
10.423515  -52.241367  -25.269867  0
10.673515  -52.241367  -25.019867  0
10.173515  -52.491367  -25.269867  0
8.923515  -52.241367  -25.269867  0
9.923515  -52.741367  -25.269867  0
10.173515  -52.741367  -25.019867  0
9.673515  -52.991367  -25.269867  0
8.923515  -52.741367  -25.269867  0
9.173515  -52.991367  -25.269867  0
11.173515  -46.491367  -24.769867  0
10.673515  -46.491367  -24.769867  0
11.423515  -46.741367  -24.769867  0
11.673515  -46.991367  -24.769867  0
11.173515  -46.741367  -24.519867  0
10.423515  -46.741367  -24.769867  0
10.673515  -46.741367  -24.519867  0
11.923515  -47.241367  -24.769867  0
10.423515  -47.241367  -24.769867  0
10.673515  -47.241367  -24.519867  0
12.673515  -47.741367  -24.519867  0
11.923515  -47.741367  -24.769867  0
12.173515  -47.991367  -24.769867  0
12.173515  -47.741367  -24.519867  0
10.423515  -47.741367  -24.769867  0
10.673515  -47.741367  -24.519867  0
10.173515  -47.991367  -24.769867  0
12.423515  -48.241367  -24.769867  0
12.673515  -48.491367  -24.769867  0
12.673515  -48.241367  -24.519867  0
9.923515  -48.241367  -24.769867  0
10.173515  -48.241367  -24.519867  0
12.923515  -48.741367  -24.769867  0
12.673515  -48.991367  -24.769867  0
9.923515  -48.741367  -24.769867  0
10.173515  -48.741367  -24.519867  0
9.673515  -48.991367  -24.769867  0
12.423515  -49.241367  -24.769867  0
12.673515  -49.241367  -24.519867  0
9.423515  -49.241367  -24.769867  0
9.673515  -49.241367  -24.519867  0
12.423515  -49.741367  -24.769867  0
12.673515  -49.741367  -24.519867  0
9.423515  -49.741367  -24.769867  0
9.173515  -49.991367  -24.769867  0
13.173515  -50.241367  -24.519867  0
12.423515  -50.241367  -24.769867  0
12.673515  -50.241367  -24.519867  0
12.173515  -50.491367  -24.769867  0
8.923515  -50.241367  -24.769867  0
9.173515  -50.241367  -24.519867  0
13.173515  -50.741367  -24.519867  0
12.673515  -50.741367  -24.519867  0
11.923515  -50.741367  -24.769867  0
12.173515  -50.741367  -24.519867  0
8.923515  -50.741367  -24.769867  0
9.173515  -50.741367  -24.519867  0
11.923515  -51.241367  -24.769867  0
12.173515  -51.241367  -24.519867  0
11.673515  -51.491367  -24.769867  0
8.923515  -51.241367  -24.769867  0
9.173515  -51.241367  -24.519867  0
11.423515  -51.741367  -24.769867  0
11.673515  -51.741367  -24.519867  0
11.173515  -51.991367  -24.769867  0
8.923515  -51.741367  -24.769867  0
9.173515  -51.741367  -24.519867  0
10.923515  -52.241367  -24.769867  0
11.173515  -52.241367  -24.519867  0
10.673515  -52.491367  -24.769867  0
8.923515  -52.241367  -24.769867  0
9.173515  -52.241367  -24.519867  0
10.423515  -52.741367  -24.769867  0
10.673515  -52.741367  -24.519867  0
10.173515  -52.991367  -24.769867  0
9.673515  -52.991367  -24.769867  0
8.923515  -52.741367  -24.769867  0
9.173515  -52.991367  -24.769867  0
9.173515  -52.741367  -24.519867  0
11.673515  -46.991367  -24.269867  0
11.173515  -46.991367  -24.269867  0
12.673515  -47.491367  -24.269867  0
11.923515  -47.241367  -24.269867  0
12.173515  -47.491367  -24.269867  0
12.173515  -47.241367  -24.019867  0
10.923515  -47.241367  -24.269867  0
12.923515  -47.741367  -24.269867  0
10.923515  -47.741367  -24.269867  0
10.673515  -47.991367  -24.269867  0
12.923515  -48.241367  -24.269867  0
10.423515  -48.241367  -24.269867  0
10.673515  -48.241367  -24.019867  0
12.923515  -48.741367  -24.269867  0
13.173515  -48.741367  -24.019867  0
10.423515  -48.741367  -24.269867  0
10.673515  -48.741367  -24.019867  0
10.173515  -48.991367  -24.269867  0
12.923515  -49.241367  -24.269867  0
13.173515  -49.241367  -24.019867  0
9.923515  -49.241367  -24.269867  0
10.173515  -49.241367  -24.019867  0
9.673515  -49.491367  -24.269867  0
12.923515  -49.741367  -24.269867  0
13.173515  -49.991367  -24.269867  0
13.173515  -49.741367  -24.019867  0
10.173515  -49.741367  -24.019867  0
9.423515  -49.741367  -24.269867  0
9.673515  -49.741367  -24.019867  0
13.423515  -50.241367  -24.269867  0
9.423515  -50.241367  -24.269867  0
9.673515  -50.241367  -24.019867  0
13.423515  -50.741367  -24.269867  0
13.173515  -50.991367  -24.269867  0
12.673515  -50.991367  -24.269867  0
9.423515  -50.741367  -24.269867  0
9.673515  -50.741367  -24.019867  0
12.423515  -51.241367  -24.269867  0
12.673515  -51.241367  -24.019867  0
12.173515  -51.491367  -24.269867  0
9.423515  -51.241367  -24.269867  0
9.673515  -51.241367  -24.019867  0
11.923515  -51.741367  -24.269867  0
11.673515  -51.991367  -24.269867  0
10.173515  -51.741367  -24.019867  0
9.423515  -51.741367  -24.269867  0
9.673515  -51.741367  -24.019867  0
11.423515  -52.241367  -24.269867  0
11.173515  -52.491367  -24.269867  0
9.423515  -52.241367  -24.269867  0
9.673515  -52.241367  -24.019867  0
10.923515  -52.741367  -24.269867  0
10.673515  -52.991367  -24.269867  0
10.673515  -52.741367  -24.019867  0
10.173515  -52.991367  -24.269867  0
10.173515  -52.741367  -24.019867  0
9.423515  -52.741367  -24.269867  0
9.673515  -52.991367  -24.269867  0
9.673515  -52.741367  -24.019867  0
12.173515  -46.991367  -23.769867  0
11.673515  -46.991367  -23.769867  0
11.173515  -46.991367  -23.769867  0
12.423515  -47.241367  -23.769867  0
12.673515  -47.491367  -23.769867  0
10.923515  -47.241367  -23.769867  0
11.173515  -47.241367  -23.519867  0
12.923515  -47.741367  -23.769867  0
13.173515  -47.741367  -23.519867  0
10.923515  -47.741367  -23.769867  0
11.173515  -47.741367  -23.519867  0
13.673515  -48.241367  -23.519867  0
12.923515  -48.241367  -23.769867  0
13.173515  -48.491367  -23.769867  0
13.173515  -48.241367  -23.519867  0
10.923515  -48.241367  -23.769867  0
11.173515  -48.241367  -23.519867  0
13.423515  -48.741367  -23.769867  0
13.673515  -48.741367  -23.519867  0
10.923515  -48.741367  -23.769867  0
11.173515  -48.741367  -23.519867  0
10.673515  -48.991367  -23.769867  0
13.423515  -49.241367  -23.769867  0
13.673515  -49.241367  -23.519867  0
10.423515  -49.241367  -23.769867  0
10.673515  -49.241367  -23.519867  0
13.423515  -49.741367  -23.769867  0
13.673515  -49.741367  -23.519867  0
10.423515  -49.741367  -23.769867  0
10.673515  -49.741367  -23.519867  0
10.173515  -49.991367  -23.769867  0
13.423515  -50.241367  -23.769867  0
9.923515  -50.241367  -23.769867  0
10.173515  -50.241367  -23.519867  0
13.423515  -50.741367  -23.769867  0
13.173515  -50.991367  -23.769867  0
9.923515  -50.741367  -23.769867  0
10.173515  -50.741367  -23.519867  0
12.923515  -51.241367  -23.769867  0
12.673515  -51.491367  -23.769867  0
12.173515  -51.491367  -23.769867  0
10.673515  -51.241367  -23.519867  0
9.923515  -51.241367  -23.769867  0
10.173515  -51.491367  -23.769867  0
10.173515  -51.241367  -23.519867  0
11.923515  -51.741367  -23.769867  0
11.673515  -51.991367  -23.769867  0
11.173515  -51.741367  -23.519867  0
10.423515  -51.741367  -23.769867  0
10.673515  -51.741367  -23.519867  0
10.173515  -51.991367  -23.769867  0
11.423515  -52.241367  -23.769867  0
11.173515  -52.491367  -23.769867  0
11.173515  -52.241367  -23.519867  0
10.673515  -52.491367  -23.769867  0
10.673515  -52.241367  -23.519867  0
9.923515  -52.241367  -23.769867  0
10.173515  -52.491367  -23.769867  0
10.173515  -52.241367  -23.519867  0
12.173515  -46.991367  -23.269867  0
11.673515  -46.991367  -23.269867  0
13.173515  -47.491367  -23.269867  0
12.423515  -47.241367  -23.269867  0
12.673515  -47.491367  -23.269867  0
12.173515  -47.241367  -23.019867  0
11.423515  -47.241367  -23.269867  0
11.673515  -47.241367  -23.019867  0
13.423515  -47.741367  -23.269867  0
13.673515  -47.991367  -23.269867  0
12.173515  -47.741367  -23.019867  0
11.423515  -47.741367  -23.269867  0
11.673515  -47.741367  -23.019867  0
13.923515  -48.241367  -23.269867  0
12.173515  -48.241367  -23.019867  0
11.423515  -48.241367  -23.269867  0
11.673515  -48.241367  -23.019867  0
13.923515  -48.741367  -23.269867  0
13.673515  -48.741367  -23.019867  0
13.173515  -48.741367  -23.019867  0
12.673515  -48.741367  -23.019867  0
12.173515  -48.741367  -23.019867  0
11.423515  -48.741367  -23.269867  0
11.673515  -48.741367  -23.019867  0
11.173515  -48.991367  -23.269867  0
13.923515  -49.241367  -23.269867  0
14.173515  -49.241367  -23.019867  0
10.923515  -49.241367  -23.269867  0
11.173515  -49.241367  -23.019867  0
13.923515  -49.741367  -23.269867  0
13.673515  -49.991367  -23.269867  0
10.923515  -49.741367  -23.269867  0
11.173515  -49.741367  -23.019867  0
10.673515  -49.991367  -23.269867  0
13.423515  -50.241367  -23.269867  0
13.673515  -50.241367  -23.019867  0
10.423515  -50.241367  -23.269867  0
10.673515  -50.241367  -23.019867  0
13.423515  -50.741367  -23.269867  0
13.173515  -50.991367  -23.269867  0
11.173515  -50.741367  -23.019867  0
10.423515  -50.741367  -23.269867  0
10.673515  -50.991367  -23.269867  0
10.673515  -50.741367  -23.019867  0
12.923515  -51.241367  -23.269867  0
12.673515  -51.491367  -23.269867  0
12.173515  -51.491367  -23.269867  0
11.673515  -51.241367  -23.019867  0
10.923515  -51.241367  -23.269867  0
11.173515  -51.491367  -23.269867  0
11.173515  -51.241367  -23.019867  0
11.923515  -51.741367  -23.269867  0
11.423515  -51.741367  -23.269867  0
11.673515  -51.991367  -23.269867  0
11.673515  -51.741367  -23.019867  0
13.173515  -47.491367  -22.769867  0
12.673515  -47.491367  -22.769867  0
13.423515  -47.741367  -22.769867  0
13.673515  -47.991367  -22.769867  0
13.173515  -47.741367  -22.519867  0
12.423515  -47.741367  -22.769867  0
12.673515  -47.741367  -22.519867  0
13.923515  -48.241367  -22.769867  0
13.673515  -48.491367  -22.769867  0
13.673515  -48.241367  -22.519867  0
13.173515  -48.491367  -22.769867  0
13.173515  -48.241367  -22.519867  0
12.423515  -48.241367  -22.769867  0
12.673515  -48.491367  -22.769867  0
12.673515  -48.241367  -22.519867  0
14.173515  -48.991367  -22.769867  0
13.673515  -48.991367  -22.769867  0
13.173515  -48.991367  -22.769867  0
12.673515  -48.991367  -22.769867  0
12.173515  -48.991367  -22.769867  0
11.673515  -48.991367  -22.769867  0
14.423515  -49.241367  -22.769867  0
14.173515  -49.491367  -22.769867  0
12.173515  -49.241367  -22.519867  0
11.423515  -49.241367  -22.769867  0
11.673515  -49.241367  -22.519867  0
13.923515  -49.741367  -22.769867  0
14.173515  -49.741367  -22.519867  0
12.173515  -49.741367  -22.519867  0
11.423515  -49.741367  -22.769867  0
11.673515  -49.741367  -22.519867  0
11.173515  -49.991367  -22.769867  0
13.923515  -50.241367  -22.769867  0
13.673515  -50.491367  -22.769867  0
12.173515  -50.241367  -22.519867  0
11.673515  -50.241367  -22.519867  0
10.923515  -50.241367  -22.769867  0
11.173515  -50.491367  -22.769867  0
11.173515  -50.241367  -22.519867  0
13.423515  -50.741367  -22.769867  0
13.173515  -50.991367  -22.769867  0
12.173515  -50.741367  -22.519867  0
11.423515  -50.741367  -22.769867  0
11.673515  -50.991367  -22.769867  0
11.673515  -50.741367  -22.519867  0
12.923515  -51.241367  -22.769867  0
12.673515  -51.491367  -22.769867  0
12.673515  -51.241367  -22.519867  0
11.923515  -51.241367  -22.769867  0
12.173515  -51.491367  -22.769867  0
12.173515  -51.241367  -22.519867  0
14.173515  -48.991367  -22.269867  0
13.673515  -48.991367  -22.269867  0
13.173515  -48.991367  -22.269867  0
12.673515  -48.991367  -22.269867  0
14.423515  -49.241367  -22.269867  0
14.173515  -49.241367  -22.019867  0
13.173515  -49.241367  -22.019867  0
12.423515  -49.241367  -22.269867  0
12.673515  -49.241367  -22.019867  0
14.423515  -49.741367  -22.269867  0
14.173515  -49.991367  -22.269867  0
14.173515  -49.741367  -22.019867  0
13.173515  -49.741367  -22.019867  0
12.423515  -49.741367  -22.269867  0
12.673515  -49.741367  -22.019867  0
13.923515  -50.241367  -22.269867  0
13.673515  -50.491367  -22.269867  0
13.173515  -50.241367  -22.019867  0
12.423515  -50.241367  -22.269867  0
12.673515  -50.241367  -22.019867  0
13.423515  -50.741367  -22.269867  0
13.173515  -50.991367  -22.269867  0
13.173515  -50.741367  -22.019867  0
12.423515  -50.741367  -22.269867  0
12.673515  -50.991367  -22.269867  0
12.673515  -50.741367  -22.019867  0
13.673515  -48.991367  -21.769867  0
13.923515  -49.241367  -21.769867  0
13.423515  -49.241367  -21.769867  0
13.673515  -49.241367  -21.519867  0
13.923515  -49.741367  -21.769867  0
13.423515  -49.741367  -21.769867  0
13.673515  -49.741367  -21.519867  0
13.923515  -50.241367  -21.769867  0
13.423515  -50.241367  -21.769867  0
13.673515  -50.491367  -21.769867  0
13.673515  -50.241367  -21.519867  0
7 12 0 0
1 9 0 0
0 9 7 0
1 14 9 0
0 12 2 0
2 12 17 0
0 3 1 0
0 2 3 0
14 1 15 0
1 4 15 0
1 3 4 0
4 21 15 0
17 19 2 0
2 19 3 0
3 19 20 0
3 20 4 0
4 20 22 0
4 22 21 0
35 39 5 0
6 36 5 0
5 36 35 0
8 37 6 0
6 37 36 0
10 38 8 0
8 38 37 0
10 40 38 0
5 39 11 0
11 39 41 0
5 13 6 0
5 11 13 0
13 12 7 0
8 13 7 0
6 13 8 0
8 7 9 0
8 9 10 0
9 14 10 0
14 40 10 0
14 42 40 0
11 41 16 0
16 41 44 0
11 18 13 0
11 16 18 0
18 17 12 0
18 12 13 0
43 42 14 0
43 14 15 0
15 21 43 0
43 21 46 0
44 45 16 0
47 23 45 0
23 16 45 0
23 18 16 0
24 19 17 0
18 24 17 0
23 24 18 0
25 20 19 0
25 19 24 0
26 22 20 0
26 20 25 0
26 52 22 0
52 21 22 0
52 46 21 0
47 49 23 0
23 49 24 0
24 49 50 0
24 50 25 0
25 50 51 0
25 51 26 0
26 51 53 0
26 53 52 0
55 62 27 0
28 57 27 0
27 57 55 0
29 59 28 0
28 59 57 0
29 66 59 0
62 64 27 0
27 64 28 0
28 64 65 0
28 65 29 0
29 65 67 0
29 67 66 0
69 79 30 0
31 71 30 0
30 71 69 0
32 73 31 0
31 73 71 0
33 75 32 0
32 75 73 0
34 77 33 0
33 77 75 0
34 84 77 0
79 80 30 0
30 80 31 0
31 80 81 0
31 81 32 0
32 81 82 0
32 82 33 0
33 82 83 0
33 83 34 0
34 83 85 0
34 85 84 0
90 94 35 0
35 94 39 0
91 35 36 0
91 90 35 0
92 36 37 0
92 91 36 0
93 37 38 0
93 92 37 0
38 40 93 0
93 40 96 0
94 41 39 0
97 41 94 0
42 96 40 0
42 99 96 0
97 44 41 0
101 44 97 0
100 99 42 0
100 42 43 0
43 46 100 0
100 46 103 0
45 44 48 0
44 104 48 0
44 101 104 0
48 47 45 0
52 103 46 0
52 107 103 0
104 106 48 0
106 108 54 0
106 54 49 0
48 106 49 0
47 48 49 0
56 50 49 0
56 49 54 0
58 51 50 0
58 50 56 0
60 53 51 0
60 51 58 0
60 110 53 0
110 52 53 0
110 107 52 0
109 112 61 0
109 61 108 0
61 54 108 0
61 63 54 0
63 62 55 0
56 63 55 0
54 63 56 0
56 55 57 0
56 57 58 0
58 57 59 0
58 59 60 0
68 111 66 0
66 111 59 0
111 110 59 0
110 60 59 0
68 115 111 0
112 114 61 0
117 70 114 0
70 61 114 0
70 63 61 0
72 64 62 0
63 72 62 0
70 72 63 0
74 65 64 0
74 64 72 0
76 67 65 0
76 65 74 0
68 66 67 0
76 68 67 0
78 68 76 0
115 68 119 0
119 68 78 0
70 117 69 0
117 79 69 0
117 120 79 0
70 69 71 0
70 71 72 0
72 71 73 0
72 73 74 0
74 73 75 0
74 75 76 0
76 75 77 0
76 77 78 0
77 84 78 0
84 119 78 0
84 123 119 0
120 122 79 0
79 122 80 0
122 126 86 0
81 122 86 0
80 122 81 0
87 82 81 0
87 81 86 0
88 83 82 0
88 82 87 0
83 88 130 0
124 83 130 0
85 83 124 0
84 85 123 0
123 85 124 0
126 128 86 0
86 128 87 0
87 128 129 0
131 89 129 0
89 87 129 0
89 88 87 0
130 88 133 0
133 88 89 0
131 134 89 0
89 134 133 0
135 140 95 0
94 90 95 0
90 135 95 0
90 136 135 0
137 90 91 0
137 136 90 0
138 91 92 0
138 137 91 0
139 92 93 0
139 138 92 0
93 96 139 0
139 96 142 0
95 140 98 0
98 140 144 0
98 97 94 0
98 94 95 0
99 142 96 0
99 146 142 0
98 144 102 0
102 144 149 0
102 101 97 0
102 97 98 0
148 146 99 0
148 99 100 0
100 103 148 0
148 103 151 0
102 149 105 0
105 149 153 0
105 104 101 0
105 101 102 0
107 151 103 0
107 157 151 0
153 155 105 0
105 155 104 0
155 106 104 0
155 156 106 0
108 106 156 0
108 156 162 0
110 157 107 0
110 165 157 0
160 166 113 0
112 109 113 0
109 160 113 0
109 163 160 0
109 108 162 0
109 162 163 0
110 111 116 0
169 110 116 0
165 110 169 0
115 116 111 0
166 168 113 0
168 171 118 0
168 118 114 0
113 168 114 0
112 113 114 0
118 117 114 0
170 169 116 0
116 115 170 0
115 173 170 0
115 119 173 0
118 171 121 0
121 171 176 0
121 120 117 0
121 117 118 0
179 174 125 0
174 173 125 0
173 123 125 0
173 119 123 0
176 178 121 0
178 181 127 0
178 127 122 0
121 178 122 0
120 121 122 0
127 126 122 0
179 125 124 0
130 179 124 0
185 179 130 0
124 125 123 0
181 183 127 0
127 183 126 0
183 128 126 0
183 184 128 0
184 188 132 0
129 184 132 0
128 184 129 0
132 131 129 0
133 185 130 0
133 191 185 0
188 190 132 0
132 190 131 0
190 134 131 0
190 192 134 0
133 134 191 0
191 134 192 0
194 201 141 0
140 135 141 0
135 194 141 0
135 196 194 0
198 135 136 0
198 196 135 0
199 136 137 0
199 198 136 0
200 137 138 0
200 199 137 0
204 200 143 0
200 139 143 0
200 138 139 0
142 143 139 0
141 201 145 0
145 201 206 0
145 144 140 0
145 140 141 0
204 143 147 0
204 147 209 0
146 147 142 0
142 147 143 0
145 206 150 0
150 206 212 0
150 149 144 0
150 144 145 0
211 209 147 0
214 211 152 0
152 211 148 0
211 147 148 0
147 146 148 0
151 152 148 0
150 212 154 0
154 212 215 0
154 153 149 0
154 149 150 0
214 152 158 0
214 158 217 0
157 158 151 0
151 158 152 0
154 215 159 0
159 215 220 0
161 155 153 0
154 161 153 0
159 161 154 0
164 156 155 0
164 155 161 0
164 162 156 0
219 217 158 0
158 157 219 0
157 222 219 0
157 165 222 0
159 220 167 0
167 220 224 0
167 166 160 0
161 167 160 0
159 167 161 0
161 160 163 0
161 163 164 0
164 163 162 0
169 222 165 0
169 227 222 0
224 226 167 0
226 228 172 0
226 172 168 0
167 226 168 0
166 167 168 0
172 171 168 0
169 170 175 0
230 169 175 0
227 169 230 0
173 175 170 0
172 228 177 0
177 228 233 0
177 176 171 0
177 171 172 0
236 231 180 0
180 231 230 0
180 230 175 0
179 180 175 0
174 179 175 0
174 175 173 0
233 235 177 0
235 238 182 0
235 182 178 0
177 235 178 0
176 177 178 0
182 181 178 0
236 180 186 0
236 186 241 0
185 186 179 0
179 186 180 0
238 240 182 0
240 242 187 0
240 187 183 0
182 240 183 0
181 182 183 0
189 184 183 0
189 183 187 0
189 188 184 0
241 186 193 0
241 193 246 0
191 193 185 0
185 193 186 0
242 244 187 0
187 244 189 0
189 244 245 0
189 245 188 0
245 190 188 0
245 247 190 0
193 192 246 0
192 247 246 0
192 190 247 0
192 193 191 0
252 256 195 0
197 254 195 0
195 254 252 0
197 259 254 0
257 261 202 0
257 202 256 0
256 202 195 0
202 201 195 0
201 194 195 0
195 194 196 0
195 196 197 0
260 259 197 0
196 260 197 0
198 260 196 0
263 260 203 0
260 199 203 0
260 198 199 0
200 205 199 0
199 205 203 0
204 205 200 0
202 261 207 0
207 261 264 0
207 206 201 0
207 201 202 0
263 203 208 0
263 208 266 0
210 203 205 0
208 203 210 0
209 210 204 0
204 210 205 0
207 264 213 0
213 264 270 0
213 212 206 0
213 206 207 0
267 266 208 0
267 208 210 0
267 210 268 0
268 210 209 0
211 268 209 0
269 268 211 0
211 214 269 0
269 214 272 0
213 270 216 0
216 270 275 0
216 215 212 0
216 212 213 0
277 273 218 0
273 272 218 0
272 217 218 0
272 214 217 0
216 275 221 0
221 275 279 0
221 220 215 0
221 215 216 0
278 277 218 0
281 278 223 0
223 278 219 0
278 218 219 0
218 217 219 0
222 223 219 0
221 279 225 0
225 279 284 0
225 224 220 0
225 220 221 0
283 281 223 0
223 222 283 0
222 287 283 0
222 227 287 0
284 285 225 0
285 290 229 0
285 229 226 0
225 285 226 0
224 225 226 0
229 228 226 0
292 288 232 0
288 287 232 0
287 230 232 0
287 227 230 0
229 290 234 0
234 290 295 0
234 233 228 0
234 228 229 0
297 293 237 0
237 293 292 0
237 292 232 0
236 237 232 0
231 236 232 0
231 232 230 0
295 296 234 0
296 299 239 0
296 239 235 0
234 296 235 0
233 234 235 0
239 238 235 0
298 297 237 0
237 236 298 0
236 302 298 0
236 241 302 0
299 300 239 0
300 305 243 0
300 243 240 0
239 300 240 0
238 239 240 0
243 242 240 0
308 303 248 0
303 302 248 0
302 246 248 0
302 241 246 0
305 306 243 0
243 306 242 0
306 244 242 0
306 307 244 0
244 309 245 0
307 309 244 0
248 247 308 0
247 309 308 0
247 245 309 0
247 248 246 0
311 313 249 0
250 312 249 0
249 312 311 0
250 314 312 0
249 313 251 0
251 313 316 0
249 253 250 0
249 251 253 0
314 250 315 0
250 255 315 0
250 253 255 0
255 318 315 0
251 316 258 0
258 316 320 0
258 256 252 0
253 258 252 0
251 258 253 0
253 252 254 0
253 254 255 0
254 259 255 0
259 318 255 0
259 323 318 0
321 326 262 0
321 262 320 0
320 262 258 0
262 261 258 0
261 257 258 0
258 257 256 0
325 323 259 0
325 259 260 0
260 263 325 0
325 263 328 0
262 326 265 0
265 326 331 0
265 264 261 0
265 261 262 0
266 328 263 0
266 333 328 0
265 331 271 0
271 331 337 0
271 270 264 0
271 264 265 0
335 333 266 0
335 266 267 0
336 267 268 0
336 335 267 0
340 336 274 0
336 269 274 0
336 268 269 0
272 274 269 0
271 337 276 0
276 337 342 0
276 275 270 0
276 270 271 0
340 274 273 0
277 340 273 0
345 340 277 0
273 274 272 0
276 342 280 0
280 342 347 0
280 279 275 0
280 275 276 0
277 278 282 0
350 277 282 0
345 277 350 0
281 282 278 0
347 349 280 0
279 280 349 0
352 279 349 0
284 279 352 0
350 282 286 0
350 286 354 0
283 289 281 0
289 282 281 0
289 286 282 0
287 289 283 0
285 284 291 0
284 356 291 0
284 352 356 0
291 290 285 0
354 286 294 0
354 294 359 0
292 294 288 0
294 289 288 0
294 286 289 0
288 289 287 0
356 358 291 0
290 291 358 0
361 290 358 0
295 290 361 0
359 294 293 0
297 359 293 0
364 359 297 0
293 294 292 0
361 363 295 0
295 363 296 0
299 296 363 0
299 363 367 0
370 365 301 0
304 301 298 0
301 364 298 0
364 297 298 0
364 301 365 0
302 304 298 0
367 369 299 0
299 369 300 0
305 300 369 0
305 369 371 0
370 301 310 0
370 310 374 0
308 310 303 0
310 304 303 0
310 301 304 0
303 304 302 0
371 373 305 0
305 373 306 0
306 375 307 0
373 375 306 0
310 309 374 0
309 375 374 0
309 307 375 0
309 310 308 0
376 378 311 0
311 378 313 0
377 311 312 0
377 376 311 0
312 314 377 0
377 314 381 0
379 383 317 0
378 379 317 0
316 378 317 0
313 378 316 0
314 315 319 0
384 314 319 0
381 314 384 0
318 319 315 0
317 383 322 0
322 383 387 0
322 320 316 0
322 316 317 0
384 319 324 0
384 324 390 0
323 324 318 0
318 324 319 0
388 393 327 0
388 327 387 0
387 327 322 0
327 326 322 0
326 321 322 0
322 321 320 0
392 390 324 0
396 392 329 0
329 392 325 0
392 324 325 0
324 323 325 0
328 329 325 0
394 398 330 0
394 330 393 0
330 327 393 0
330 332 327 0
332 331 326 0
332 326 327 0
396 329 334 0
396 334 400 0
333 334 328 0
328 334 329 0
398 399 330 0
403 338 399 0
338 330 399 0
338 332 330 0
338 337 331 0
338 331 332 0
402 400 334 0
405 402 339 0
339 402 335 0
402 334 335 0
334 333 335 0
336 341 335 0
335 341 339 0
340 341 336 0
338 403 343 0
343 403 407 0
343 342 337 0
343 337 338 0
405 339 344 0
405 344 409 0
346 339 341 0
344 339 346 0
345 346 340 0
340 346 341 0
343 407 348 0
348 407 412 0
348 347 342 0
348 342 343 0
410 409 344 0
351 415 410 0
344 351 410 0
346 351 344 0
350 351 345 0
345 351 346 0
412 414 348 0
414 419 353 0
414 353 349 0
348 414 349 0
347 348 349 0
353 352 349 0
415 351 355 0
415 355 421 0
354 355 350 0
350 355 351 0
353 419 357 0
357 419 423 0
357 356 352 0
357 352 353 0
421 355 360 0
421 360 426 0
359 360 354 0
354 360 355 0
423 425 357 0
425 428 362 0
425 362 358 0
357 425 358 0
356 357 358 0
362 361 358 0
426 360 366 0
426 366 431 0
364 366 359 0
359 366 360 0
428 430 362 0
430 433 368 0
430 368 363 0
362 430 363 0
361 362 363 0
368 367 363 0
431 366 365 0
370 431 365 0
436 431 370 0
365 366 364 0
433 435 368 0
435 438 372 0
435 372 369 0
368 435 369 0
367 368 369 0
372 371 369 0
374 436 370 0
374 442 436 0
438 440 372 0
372 440 371 0
440 373 371 0
440 441 373 0
373 443 375 0
441 443 373 0
374 375 442 0
442 375 443 0
380 378 376 0
377 382 376 0
376 382 380 0
381 382 377 0
445 448 379 0
379 448 383 0
379 378 380 0
446 379 380 0
445 379 446 0
385 451 446 0
380 385 446 0
382 385 380 0
384 385 381 0
381 385 382 0
447 452 386 0
389 449 386 0
386 449 447 0
448 449 389 0
387 448 389 0
383 448 387 0
451 385 391 0
451 391 453 0
390 391 384 0
384 391 385 0
386 452 395 0
395 452 455 0
395 393 388 0
389 395 388 0
386 395 389 0
389 388 387 0
454 453 391 0
456 454 397 0
397 454 392 0
454 391 392 0
391 390 392 0
396 397 392 0
395 455 394 0
455 398 394 0
455 458 398 0
395 394 393 0
456 397 401 0
456 401 460 0
400 401 396 0
396 401 397 0
399 398 404 0
398 463 404 0
398 458 463 0
404 403 399 0
462 460 401 0
465 462 406 0
406 462 402 0
462 401 402 0
401 400 402 0
405 406 402 0
404 463 408 0
408 463 468 0
408 407 403 0
408 403 404 0
467 465 406 0
406 405 467 0
405 472 467 0
405 409 472 0
469 474 411 0
469 411 468 0
411 408 468 0
411 413 408 0
413 412 407 0
413 407 408 0
409 410 416 0
475 409 416 0
472 409 475 0
415 416 410 0
411 474 417 0
417 474 477 0
411 418 413 0
411 417 418 0
420 414 412 0
413 420 412 0
418 420 413 0
420 419 414 0
475 416 422 0
475 422 480 0
421 422 415 0
415 422 416 0
477 478 417 0
417 478 418 0
418 478 479 0
482 424 479 0
424 418 479 0
424 420 418 0
424 423 419 0
424 419 420 0
480 422 427 0
480 427 485 0
426 427 421 0
421 427 422 0
482 484 424 0
484 487 429 0
484 429 425 0
424 484 425 0
423 424 425 0
429 428 425 0
485 427 432 0
485 432 490 0
431 432 426 0
426 432 427 0
487 488 429 0
488 492 434 0
488 434 430 0
429 488 430 0
428 429 430 0
434 433 430 0
490 432 437 0
490 437 494 0
436 437 431 0
431 437 432 0
492 493 434 0
493 496 439 0
493 439 435 0
434 493 435 0
433 434 435 0
439 438 435 0
494 437 444 0
494 444 501 0
442 444 436 0
436 444 437 0
496 497 439 0
439 497 438 0
497 440 438 0
497 499 440 0
440 502 441 0
499 502 440 0
444 443 501 0
443 502 501 0
443 441 502 0
443 444 442 0
504 507 450 0
448 445 450 0
445 504 450 0
445 505 504 0
506 445 446 0
506 505 445 0
446 451 506 0
506 451 509 0
508 511 447 0
447 511 452 0
449 450 507 0
508 449 507 0
447 449 508 0
450 449 448 0
453 509 451 0
453 513 509 0
511 455 452 0
516 455 511 0
453 454 457 0
519 453 457 0
513 453 519 0
456 457 454 0
517 521 459 0
516 517 459 0
458 516 459 0
455 516 458 0
519 457 461 0
519 461 523 0
460 461 456 0
456 461 457 0
459 521 464 0
464 521 526 0
464 463 458 0
464 458 459 0
525 523 461 0
528 525 466 0
466 525 462 0
525 461 462 0
461 460 462 0
465 466 462 0
464 526 470 0
470 526 530 0
470 468 463 0
470 463 464 0
528 466 471 0
528 471 532 0
467 473 465 0
473 466 465 0
473 471 466 0
472 473 467 0
470 530 469 0
530 474 469 0
530 535 474 0
470 469 468 0
534 532 471 0
476 536 534 0
471 476 534 0
473 476 471 0
475 476 472 0
472 476 473 0
535 477 474 0
538 477 535 0
536 476 481 0
536 481 540 0
480 481 475 0
475 481 476 0
538 539 477 0
477 539 478 0
539 542 483 0
479 539 483 0
478 539 479 0
483 482 479 0
540 481 486 0
540 486 546 0
485 486 480 0
480 486 481 0
542 543 483 0
483 543 482 0
543 484 482 0
543 544 484 0
487 484 544 0
487 544 549 0
552 547 489 0
489 547 546 0
486 489 546 0
491 489 486 0
490 491 485 0
485 491 486 0
549 550 487 0
487 550 488 0
492 488 550 0
492 550 555 0
554 552 489 0
495 560 554 0
489 495 554 0
491 495 489 0
494 495 490 0
490 495 491 0
555 556 492 0
492 556 493 0
558 498 496 0
493 558 496 0
556 558 493 0
561 500 498 0
561 498 558 0
500 561 560 0
495 500 560 0
503 500 495 0
501 503 494 0
494 503 495 0
498 497 496 0
497 498 499 0
499 498 500 0
499 500 502 0
502 500 503 0
502 503 501 0
563 566 504 0
504 566 507 0
564 504 505 0
564 563 504 0
569 564 510 0
564 506 510 0
564 505 506 0
509 510 506 0
565 571 512 0
511 508 512 0
508 565 512 0
508 567 565 0
508 507 566 0
508 566 567 0
569 510 514 0
569 514 574 0
513 514 509 0
509 514 510 0
572 576 515 0
572 515 571 0
515 512 571 0
515 518 512 0
518 516 511 0
518 511 512 0
574 514 520 0
574 520 578 0
519 520 513 0
513 520 514 0
515 576 522 0
522 576 580 0
522 521 517 0
518 522 517 0
515 522 518 0
518 517 516 0
578 520 524 0
578 524 585 0
523 524 519 0
519 524 520 0
522 580 527 0
527 580 588 0
527 526 521 0
527 521 522 0
587 585 524 0
590 587 529 0
529 587 525 0
587 524 525 0
524 523 525 0
528 529 525 0
527 588 531 0
531 588 592 0
531 530 526 0
531 526 527 0
590 529 533 0
590 533 594 0
532 533 528 0
528 533 529 0
592 593 531 0
530 531 593 0
597 530 593 0
535 530 597 0
596 594 533 0
599 596 537 0
537 596 534 0
596 533 534 0
533 532 534 0
536 537 534 0
597 538 535 0
601 538 597 0
599 537 541 0
599 541 604 0
540 541 536 0
536 541 537 0
601 602 538 0
538 602 539 0
542 539 602 0
542 602 607 0
611 605 545 0
545 605 604 0
541 545 604 0
548 545 541 0
546 548 540 0
540 548 541 0
607 608 542 0
542 608 543 0
543 609 544 0
608 609 543 0
549 544 609 0
549 609 614 0
615 612 551 0
551 612 611 0
545 551 611 0
553 551 545 0
552 553 547 0
553 548 547 0
553 545 548 0
547 548 546 0
614 616 549 0
549 616 550 0
551 557 555 0
616 551 555 0
550 616 555 0
615 551 616 0
559 551 553 0
557 551 559 0
554 562 552 0
562 553 552 0
562 559 553 0
560 562 554 0
557 556 555 0
556 557 558 0
558 557 559 0
558 559 561 0
561 559 562 0
561 562 560 0
568 566 563 0
564 570 563 0
563 570 568 0
569 570 564 0
618 620 565 0
565 620 571 0
619 565 567 0
619 618 565 0
619 567 566 0
573 619 566 0
568 573 566 0
619 573 623 0
575 568 570 0
573 568 575 0
574 575 569 0
569 575 570 0
621 625 572 0
572 625 576 0
572 571 620 0
572 620 621 0
623 573 577 0
623 577 630 0
579 573 575 0
577 573 579 0
578 579 574 0
574 579 575 0
581 580 626 0
580 625 626 0
580 576 625 0
628 582 581 0
628 581 626 0
631 583 582 0
631 582 628 0
583 631 630 0
577 583 630 0
584 583 577 0
586 577 579 0
584 577 586 0
585 586 578 0
578 586 579 0
633 639 589 0
634 633 581 0
633 588 581 0
588 580 581 0
633 589 588 0
634 581 582 0
634 582 635 0
635 582 583 0
635 583 636 0
636 583 584 0
636 584 637 0
637 584 586 0
637 586 638 0
642 638 591 0
591 638 587 0
638 586 587 0
586 585 587 0
590 591 587 0
639 640 589 0
588 589 640 0
644 588 640 0
592 588 644 0
642 591 595 0
642 595 647 0
594 595 590 0
590 595 591 0
593 592 598 0
592 650 598 0
592 644 650 0
598 597 593 0
649 647 595 0
654 649 600 0
600 649 596 0
649 595 596 0
595 594 596 0
599 600 596 0
650 651 598 0
597 598 651 0
657 597 651 0
601 597 657 0
660 655 603 0
603 655 654 0
600 603 654 0
606 603 600 0
604 606 599 0
599 606 600 0
657 658 601 0
601 658 602 0
607 602 658 0
607 658 663 0
666 661 610 0
610 661 660 0
603 610 660 0
613 610 603 0
611 613 605 0
613 606 605 0
613 603 606 0
605 606 604 0
663 664 607 0
607 664 608 0
608 667 609 0
664 667 608 0
610 617 614 0
667 610 614 0
609 667 614 0
666 610 667 0
615 617 612 0
617 613 612 0
617 610 613 0
612 613 611 0
617 616 614 0
616 617 615 0
622 620 618 0
619 624 618 0
618 624 622 0
623 624 619 0
627 625 621 0
620 622 621 0
622 627 621 0
622 629 627 0
632 622 624 0
629 622 632 0
630 632 623 0
623 632 624 0
627 626 625 0
626 627 628 0
628 627 629 0
628 629 631 0
631 629 632 0
631 632 630 0
669 673 633 0
633 673 639 0
670 633 634 0
670 669 633 0
671 634 635 0
671 670 634 0
672 635 636 0
672 671 635 0
676 672 641 0
672 637 641 0
672 636 637 0
638 643 637 0
637 643 641 0
642 643 638 0
640 639 645 0
639 678 645 0
639 673 678 0
645 644 640 0
676 641 646 0
676 646 682 0
648 641 643 0
646 641 648 0
647 648 642 0
642 648 643 0
678 679 645 0
644 645 679 0
684 644 679 0
650 644 684 0
682 646 652 0
682 652 687 0
653 646 648 0
652 646 653 0
649 656 647 0
656 648 647 0
656 653 648 0
654 656 649 0
684 685 650 0
650 685 651 0
657 651 685 0
657 685 689 0
687 652 659 0
687 659 692 0
662 652 653 0
659 652 662 0
660 662 655 0
662 656 655 0
662 653 656 0
655 656 654 0
689 690 657 0
657 690 658 0
693 665 663 0
658 693 663 0
690 693 658 0
665 693 692 0
659 665 692 0
668 665 659 0
666 668 661 0
668 662 661 0
668 659 662 0
661 662 660 0
665 664 663 0
664 665 667 0
667 665 668 0
667 668 666 0
674 673 669 0
674 669 696 0
669 695 696 0
669 670 695 0
697 695 675 0
695 671 675 0
695 670 671 0
672 677 671 0
671 677 675 0
676 677 672 0
680 678 674 0
674 678 673 0
674 696 699 0
674 699 680 0
697 675 681 0
697 681 700 0
683 675 677 0
681 675 683 0
682 683 676 0
676 683 677 0
680 679 678 0
684 679 680 0
699 684 680 0
702 684 699 0
700 681 686 0
700 686 703 0
688 681 683 0
686 681 688 0
687 688 682 0
682 688 683 0
702 704 684 0
684 704 685 0
686 691 689 0
704 686 689 0
685 704 689 0
703 686 704 0
694 686 688 0
691 686 694 0
692 694 687 0
687 694 688 0
691 690 689 0
690 691 693 0
693 691 694 0
693 694 692 0
698 696 695 0
697 698 695 0
701 699 698 0
698 699 696 0
700 701 697 0
697 701 698 0
705 702 701 0
701 702 699 0
703 705 700 0
700 705 701 0
705 704 702 0
704 705 703 0
