#!ascii version of /Users/gilles/git/nukkies/notebooks/data/VL1T_STh_R_dil.asc
824 1648
-4.103828  -49.735596  -28.386108  0
-3.623643  -49.934853  -28.371777  0
-3.813231  -49.522888  -28.125406  0
-5.102767  -49.736691  -28.192804  0
-5.365244  -49.905476  -28.027771  0
-3.183416  -50.159531  -28.269819  0
-2.941381  -50.160435  -27.999369  0
-3.208576  -50.469902  -28.261013  0
-5.091122  -50.097141  -28.318638  0
-5.334699  -50.364586  -28.109224  0
-3.439147  -50.739235  -28.315422  0
-3.250915  -50.751945  -28.078646  0
-3.772897  -50.957382  -28.250380  0
-4.409235  -50.983105  -28.349077  0
-5.002345  -50.531620  -28.364199  0
-4.831102  -50.884373  -28.327152  0
-5.206822  -50.887733  -28.071795  0
-3.761970  -51.235634  -27.951530  0
-4.179159  -51.261459  -28.064646  0
-4.760540  -51.221050  -28.065449  0
-5.193091  -51.279408  -27.873465  0
-4.365529  -49.022022  -27.879791  0
-4.365162  -48.805550  -27.566191  0
-4.634399  -49.002361  -27.862259  0
-4.918862  -48.785172  -27.562941  0
-5.291831  -48.794987  -27.434885  0
-3.198210  -49.612465  -27.640036  0
-4.059579  -49.129940  -27.851170  0
-3.576022  -49.348877  -27.703924  0
-3.907083  -48.989796  -27.500208  0
-4.962410  -49.125309  -27.867641  0
-5.320975  -49.435860  -27.827976  0
-5.240195  -49.023827  -27.624714  0
-2.966207  -49.905960  -27.710108  0
-2.794219  -50.135921  -27.729563  0
-5.619583  -49.775417  -27.736330  0
-5.960501  -49.953335  -27.493195  0
-2.772455  -50.250259  -27.850828  0
-2.922733  -50.441452  -27.940378  0
-2.800907  -50.317871  -27.705507  0
-5.644859  -50.163132  -27.820547  0
-5.942305  -50.439674  -27.606733  0
-6.280440  -50.301674  -27.357975  0
-3.024872  -50.657867  -27.643824  0
-3.406795  -51.033955  -27.858309  0
-5.610188  -50.652699  -27.836803  0
-5.905339  -50.891632  -27.593491  0
-6.228013  -50.728291  -27.422247  0
-3.568240  -51.298298  -27.646589  0
-3.927228  -51.402744  -27.779182  0
-4.384575  -51.524319  -27.741581  0
-4.990744  -51.544163  -27.762728  0
-5.609260  -51.189728  -27.690779  0
-5.376737  -51.496956  -27.683233  0
-5.911409  -51.178150  -27.522530  0
-6.151872  -51.119114  -27.407852  0
-4.245677  -51.735470  -27.444105  0
-4.775978  -51.869457  -27.542477  0
-5.408562  -51.852177  -27.570162  0
-5.254248  -52.335915  -27.529018  0
-5.856621  -52.276844  -27.481638  0
-6.275837  -52.409313  -27.353405  0
-5.002238  -52.719284  -27.456820  0
-5.399804  -52.804852  -27.550817  0
-5.709213  -52.670605  -27.540985  0
-6.139297  -52.808163  -27.396614  0
-5.191149  -53.102718  -27.456463  0
-5.687800  -53.133930  -27.453909  0
-6.293571  -47.382401  -26.888325  0
-5.950500  -47.750931  -26.999123  0
-6.303147  -47.786163  -26.948189  0
-4.290174  -48.611732  -27.152040  0
-4.666636  -48.475746  -27.186565  0
-4.970783  -48.202938  -26.990484  0
-5.141703  -48.497223  -27.275908  0
-5.496229  -48.208382  -27.072489  0
-5.945896  -48.344234  -27.054865  0
-6.239069  -48.209034  -26.961182  0
-4.072533  -48.779758  -27.268946  0
-3.827758  -48.957275  -27.099876  0
-5.480405  -48.669579  -27.274523  0
-5.850592  -48.800129  -27.138569  0
-6.223333  -48.716038  -26.953575  0
-3.628814  -49.163219  -27.291716  0
-3.332950  -49.457085  -27.233973  0
-5.575575  -49.076927  -27.418644  0
-5.762051  -49.526638  -27.480795  0
-5.966262  -49.310593  -27.207396  0
-6.240884  -49.192326  -26.982939  0
-3.059375  -49.743366  -27.391710  0
-6.067260  -49.650291  -27.266769  0
-6.358827  -49.901161  -27.156849  0
-6.250042  -49.542313  -27.073933  0
-2.921306  -50.173653  -27.367369  0
-6.566032  -50.242226  -27.142729  0
-6.817295  -50.418915  -26.983961  0
-3.059002  -50.740719  -27.088923  0
-3.255039  -51.070221  -27.456793  0
-6.551830  -50.588215  -27.213947  0
-6.822394  -50.848557  -27.019062  0
-3.439006  -51.307598  -27.398245  0
-3.310063  -51.215118  -27.134815  0
-3.771393  -51.518951  -27.372702  0
-6.020562  -51.445225  -27.406357  0
-6.489394  -51.011158  -27.235668  0
-6.370252  -51.363144  -27.252342  0
-6.749956  -51.370407  -27.045715  0
-4.014752  -51.758720  -27.275013  0
-3.803694  -51.756676  -27.023548  0
-4.283202  -51.988380  -27.237322  0
-4.768590  -52.170341  -27.413507  0
-5.704457  -51.609562  -27.510569  0
-5.837434  -51.902340  -27.444990  0
-6.028100  -51.762955  -27.361647  0
-6.165301  -52.056190  -27.348415  0
-6.433651  -51.798199  -27.201666  0
-6.843033  -51.831951  -26.989019  0
-4.224182  -52.270733  -27.036360  0
-4.878336  -52.413345  -27.421772  0
-4.718279  -52.567375  -27.333063  0
-4.552796  -52.331318  -27.266470  0
-6.470343  -52.246712  -27.233425  0
-6.786420  -52.287601  -27.027391  0
-4.722149  -52.741726  -27.320536  0
-4.440539  -52.620060  -27.070438  0
-4.785141  -52.989986  -27.271078  0
-6.589222  -52.725307  -27.136034  0
-6.426533  -53.110661  -27.182484  0
-6.861632  -52.668518  -26.948622  0
-4.991620  -53.265854  -27.337355  0
-4.830441  -53.285595  -27.092688  0
-5.271510  -53.477699  -27.244028  0
-6.150455  -53.345249  -27.231567  0
-5.758951  -53.543941  -27.253841  0
-6.429719  -53.350185  -27.074591  0
-5.275616  -53.754696  -26.964567  0
-5.604510  -53.790134  -27.034632  0
-6.398304  -46.968449  -26.656921  0
-6.170338  -46.822636  -26.531132  0
-6.051452  -47.197086  -26.835114  0
-5.814229  -47.391136  -26.897085  0
-5.769176  -47.136612  -26.616657  0
-6.566276  -47.195194  -26.694872  0
-6.807936  -47.347919  -26.533478  0
-4.819282  -48.095150  -26.664494  0
-5.568569  -47.615986  -26.863373  0
-5.143260  -47.883877  -26.718788  0
-5.378847  -47.483665  -26.534849  0
-6.542910  -47.580448  -26.793692  0
-6.794841  -47.823883  -26.583340  0
-4.662342  -48.264835  -26.805056  0
-4.373127  -48.487797  -26.719160  0
-6.526063  -48.050758  -26.805937  0
-6.789743  -48.333851  -26.560335  0
-4.048776  -48.773289  -26.835163  0
-3.820140  -49.018997  -26.735966  0
-6.519615  -48.554321  -26.772476  0
-6.818500  -48.847511  -26.522125  0
-3.608590  -49.272072  -26.785583  0
-3.346937  -49.589745  -26.759338  0
-3.768378  -49.172665  -26.535374  0
-6.548611  -49.066486  -26.757175  0
-6.922076  -49.385223  -26.513432  0
-3.124767  -49.817387  -26.992481  0
-3.252799  -49.938969  -26.526562  0
-6.580314  -49.582752  -26.850771  0
-6.731972  -50.038437  -26.924002  0
-6.978869  -49.882050  -26.643543  0
-7.248686  -49.776310  -26.383854  0
-3.066111  -50.305347  -26.752356  0
-3.202096  -50.292751  -26.363672  0
-7.012120  -50.240410  -26.763794  0
-7.364406  -50.310299  -26.505003  0
-3.060182  -50.688622  -26.709499  0
-7.108671  -50.621754  -26.778250  0
-7.433652  -50.888733  -26.593252  0
-7.741934  -50.747913  -26.399502  0
-3.170446  -51.038155  -26.702866  0
-3.443892  -51.451088  -26.871269  0
-3.309359  -51.318596  -26.509499  0
-7.121459  -51.113468  -26.815008  0
-7.436810  -51.403637  -26.640766  0
-7.764207  -51.225121  -26.458157  0
-3.560395  -51.672756  -26.539270  0
-3.915026  -52.030525  -26.826887  0
-7.114256  -51.613132  -26.831495  0
-7.400037  -51.905159  -26.660831  0
-7.742130  -51.752663  -26.467899  0
-4.052942  -52.344570  -26.705671  0
-7.104442  -52.098476  -26.827456  0
-7.342145  -52.314960  -26.652500  0
-7.650561  -52.303448  -26.431265  0
-4.216061  -52.630524  -26.616648  0
-4.517321  -52.949463  -26.784887  0
-4.320093  -52.768738  -26.518908  0
-7.121425  -52.665512  -26.691498  0
-6.886948  -53.000759  -26.777546  0
-7.436465  -52.624077  -26.481379  0
-4.723105  -53.245964  -26.762148  0
-4.998904  -53.505157  -26.797171  0
-4.815684  -53.295547  -26.590645  0
-6.646866  -53.308987  -26.834557  0
-6.364796  -53.580856  -26.904913  0
-6.888668  -53.307167  -26.574112  0
-5.237873  -53.773060  -26.703737  0
-5.496924  -53.908752  -26.744215  0
-5.425543  -53.852718  -26.483507  0
-6.017817  -53.724487  -26.997633  0
-5.902646  -53.925068  -26.691439  0
-6.243407  -53.833511  -26.672739  0
-6.327957  -46.607143  -26.115990  0
-6.015552  -46.788094  -26.299547  0
-5.791112  -46.976982  -26.154684  0
-6.535702  -46.660992  -26.305590  0
-6.812996  -46.883522  -26.336721  0
-6.789212  -46.604786  -26.116791  0
-5.545214  -47.227146  -26.303167  0
-5.324967  -47.485096  -26.120583  0
-7.080081  -47.177395  -26.266817  0
-7.443321  -47.331135  -26.046185  0
-7.820987  -47.321884  -25.862427  0
-5.099193  -47.752022  -26.276516  0
-4.859765  -48.006264  -26.347637  0
-7.085517  -47.589214  -26.329161  0
-7.384037  -47.872780  -26.124756  0
-7.736731  -47.710045  -25.950640  0
-4.601501  -48.291126  -26.302853  0
-4.348867  -48.569248  -26.232061  0
-4.753961  -48.145218  -26.073391  0
-7.067408  -48.094486  -26.335575  0
-7.371065  -48.393024  -26.113106  0
-7.701387  -48.211636  -25.951214  0
-4.165129  -48.770359  -26.345480  0
-4.270439  -48.800976  -25.987297  0
-7.076550  -48.605843  -26.305578  0
-7.411532  -48.903965  -26.101307  0
-7.728559  -48.735077  -25.933092  0
-3.947589  -49.098976  -26.338169  0
-3.763567  -49.416130  -26.260487  0
-7.129303  -49.085182  -26.288063  0
-7.223468  -49.444157  -26.283054  0
-7.466214  -49.359337  -26.134401  0
-7.865589  -49.305683  -25.949266  0
-3.525576  -49.716404  -26.306835  0
-3.758331  -49.755943  -25.937286  0
-7.461915  -49.672398  -26.212011  0
-7.862473  -49.823158  -26.089706  0
-8.360525  -49.826130  -25.882513  0
-3.386621  -50.179008  -26.148630  0
-3.281472  -50.515778  -26.155107  0
-7.606419  -50.038498  -26.266394  0
-7.746310  -50.406315  -26.312798  0
-7.992984  -50.331783  -26.186638  0
-8.363397  -50.300682  -26.043512  0
-8.777859  -50.287666  -25.865698  0
-3.144981  -50.669727  -26.422098  0
-3.217091  -51.038517  -26.362175  0
-3.277633  -50.832718  -26.160557  0
-7.995437  -50.664539  -26.268780  0
-8.354164  -50.817142  -26.156876  0
-8.768615  -50.737206  -25.980362  0
-3.394770  -51.234413  -26.158876  0
-8.073448  -51.060738  -26.305124  0
-8.399140  -51.387367  -26.181719  0
-8.756454  -51.269302  -26.003704  0
-3.595415  -51.661556  -26.045527  0
-3.784499  -52.030769  -26.359982  0
-8.081131  -51.562077  -26.315628  0
-8.346751  -51.811081  -26.164028  0
-8.677258  -51.824127  -25.957582  0
-4.036020  -52.342270  -26.213001  0
-4.290674  -52.604156  -26.241884  0
-8.085492  -52.173634  -26.173367  0
-7.881643  -52.574780  -26.155533  0
-8.444727  -52.127487  -25.992649  0
-4.505054  -52.796768  -26.306740  0
-4.773586  -53.034012  -26.326588  0
-4.715086  -52.792168  -26.061104  0
-7.676587  -52.816814  -26.163937  0
-7.390574  -53.016613  -26.260513  0
-7.888188  -52.808300  -26.013195  0
-5.013042  -53.301735  -26.332726  0
-5.293412  -53.573101  -26.286798  0
-5.228646  -53.298870  -26.058184  0
-7.102685  -53.290436  -26.278315  0
-6.834056  -53.558334  -26.336252  0
-7.350393  -53.319820  -26.011639  0
-5.581635  -53.796246  -26.183451  0
-5.795791  -53.944046  -26.330454  0
-5.860548  -53.842636  -25.974989  0
-6.542194  -53.716152  -26.506254  0
-6.320848  -53.926552  -26.249649  0
-6.714881  -53.813087  -26.079941  0
-6.468307  -46.572758  -25.671288  0
-6.746809  -46.524757  -25.859076  0
-6.115580  -46.772121  -25.802950  0
-5.845388  -47.024094  -25.772915  0
-6.336087  -46.682220  -25.521059  0
-7.065168  -46.629765  -25.898787  0
-7.278298  -46.894505  -25.987822  0
-7.494227  -46.666328  -25.615267  0
-7.773449  -46.924370  -25.664745  0
-7.774513  -46.675652  -25.430273  0
-5.600584  -47.287453  -25.816254  0
-5.353925  -47.588940  -25.722828  0
-5.797267  -47.187183  -25.584211  0
-8.087038  -47.185818  -25.682745  0
-8.495734  -47.338028  -25.551123  0
-8.910207  -47.329418  -25.401703  0
-5.150178  -47.784538  -25.822626  0
-5.274388  -47.833298  -25.460297  0
-8.097232  -47.566063  -25.790829  0
-8.431469  -47.882889  -25.661409  0
-8.814936  -47.723831  -25.499985  0
-4.922516  -48.018845  -25.928396  0
-4.745958  -48.353714  -25.706659  0
-8.056055  -48.051971  -25.810570  0
-8.400643  -48.413204  -25.642263  0
-8.758720  -48.241760  -25.495153  0
-4.479579  -48.673653  -25.792404  0
-4.333546  -49.002987  -25.691362  0
-8.052806  -48.567978  -25.783592  0
-8.416098  -48.920456  -25.622112  0
-8.744475  -48.770538  -25.460594  0
-4.157487  -49.097927  -25.920452  0
-4.308841  -49.365101  -25.506187  0
-8.115809  -49.063606  -25.778738  0
-8.260558  -49.451859  -25.793507  0
-8.469894  -49.345119  -25.652447  0
-8.757729  -49.250187  -25.480045  0
-4.037271  -49.613953  -25.712868  0
-3.850676  -50.005394  -25.654812  0
-4.290287  -49.663757  -25.371216  0
-8.540530  -49.648224  -25.714687  0
-8.848450  -49.915897  -25.657190  0
-8.747320  -49.583710  -25.571503  0
-3.631603  -50.106831  -25.876808  0
-3.795043  -50.417923  -25.541471  0
-9.087292  -50.274181  -25.675091  0
-9.328651  -50.435951  -25.502993  0
-3.496845  -50.681583  -25.875917  0
-3.765326  -50.933598  -25.478504  0
-9.102511  -50.628780  -25.773554  0
-9.357012  -50.887814  -25.556232  0
-3.582677  -51.274406  -25.766895  0
-3.781726  -51.404312  -25.479223  0
-9.102097  -51.113010  -25.805746  0
-9.353468  -51.385090  -25.536482  0
-3.678154  -51.622009  -25.710117  0
-3.868670  -51.935223  -25.794401  0
-3.798890  -51.681408  -25.557474  0
-9.100122  -51.725700  -25.678469  0
-8.914044  -52.109398  -25.673914  0
-9.352123  -51.711956  -25.468935  0
-4.141398  -52.223991  -25.780415  0
-4.285849  -52.419006  -25.917122  0
-4.457254  -52.272312  -25.564985  0
-4.687714  -52.539894  -25.755207  0
-4.730757  -52.295986  -25.407932  0
-8.702166  -52.328747  -25.680346  0
-8.398405  -52.506638  -25.773827  0
-8.917638  -52.332748  -25.525993  0
-4.994169  -52.776718  -25.788538  0
-5.249533  -53.020786  -25.793001  0
-5.280530  -52.759926  -25.514534  0
-8.121223  -52.778049  -25.798119  0
-7.878489  -53.048473  -25.797848  0
-8.384732  -52.797157  -25.552982  0
-5.489187  -53.286537  -25.780672  0
-5.771828  -53.564053  -25.767178  0
-5.753258  -53.274597  -25.519438  0
-7.601662  -53.306786  -25.755693  0
-7.236676  -53.567204  -25.697359  0
-7.864905  -53.291885  -25.525681  0
-6.110610  -53.774319  -25.706335  0
-6.221461  -53.918106  -25.895729  0
-6.531855  -53.806328  -25.545235  0
-6.972205  -53.711433  -25.761770  0
-6.806482  -53.882092  -25.651169  0
-6.884212  -53.814995  -25.473204  0
-7.127445  -53.781002  -25.462502  0
-6.828761  -46.567108  -25.395893  0
-7.261518  -46.560776  -25.431229  0
-7.774788  -46.592587  -25.228079  0
-6.581844  -46.741756  -25.238997  0
-6.291140  -46.908237  -25.300547  0
-6.850584  -46.687752  -25.129650  0
-7.164619  -46.680859  -25.068357  0
-8.014525  -46.683239  -25.155764  0
-7.763753  -46.644463  -24.979694  0
-8.243137  -46.897430  -25.318764  0
-8.402845  -46.678024  -24.966696  0
-8.819685  -46.938210  -25.158821  0
-8.786418  -46.668461  -24.915064  0
-6.035021  -47.169739  -25.312860  0
-5.786648  -47.434105  -25.308256  0
-6.271523  -47.156204  -25.052479  0
-9.141052  -47.212513  -25.208345  0
-9.368993  -47.376240  -25.016977  0
-5.546710  -47.727211  -25.249973  0
-5.340146  -48.011211  -25.137552  0
-5.784832  -47.691452  -25.015182  0
-9.148961  -47.566753  -25.305487  0
-9.396475  -47.818161  -25.062166  0
-5.091321  -48.194092  -25.314703  0
-4.865911  -48.563610  -25.247572  0
-5.311749  -48.202095  -24.968201  0
-9.103543  -48.043846  -25.318745  0
-9.380755  -48.331791  -25.062223  0
-4.676323  -48.715523  -25.399439  0
-4.827014  -48.922577  -25.066660  0
-9.072099  -48.573872  -25.285028  0
-9.364048  -48.863647  -25.055330  0
-4.554716  -49.101364  -25.335951  0
-4.797708  -49.343044  -24.953043  0
-9.068660  -49.097881  -25.278595  0
-9.364893  -49.379490  -25.087584  0
-4.554344  -49.655922  -25.103529  0
-4.292623  -49.957867  -25.227509  0
-4.803490  -49.627876  -24.874264  0
-9.070716  -49.604847  -25.375189  0
-9.224454  -50.041664  -25.436985  0
-9.371276  -49.787800  -25.185316  0
-4.042945  -50.175747  -25.367258  0
-4.299702  -50.416187  -25.041286  0
-9.482877  -50.142273  -25.192974  0
-4.028327  -50.660545  -25.223869  0
-4.319889  -50.898376  -24.952017  0
-9.538904  -50.604801  -25.234312  0
-4.033606  -51.160873  -25.201714  0
-4.392588  -51.404205  -24.969559  0
-9.548335  -51.123180  -25.237492  0
-4.046814  -51.645279  -25.337791  0
-4.252552  -52.006004  -25.437107  0
-4.405229  -51.775051  -25.129189  0
-4.726528  -52.024780  -25.125963  0
-4.643252  -51.695049  -24.919619  0
-9.514035  -51.654659  -25.183945  0
-9.349904  -51.980240  -25.291550  0
-5.025884  -52.288013  -25.198662  0
-5.295859  -52.522835  -25.239290  0
-5.320905  -52.279690  -24.964399  0
-9.131652  -52.287212  -25.295374  0
-8.899093  -52.556057  -25.303272  0
-9.354335  -52.238693  -25.058395  0
-5.546951  -52.749630  -25.251595  0
-5.773781  -52.998474  -25.281853  0
-5.808633  -52.738907  -25.003603  0
-8.633433  -52.797054  -25.278759  0
-8.346126  -53.040787  -25.321920  0
-8.874128  -52.784885  -25.035183  0
-6.043484  -53.277203  -25.311689  0
-6.294168  -53.572201  -25.423532  0
-6.500503  -53.297371  -25.058832  0
-6.916197  -53.627506  -25.263433  0
-6.807580  -53.316811  -24.897411  0
-8.067080  -53.192539  -25.431215  0
-7.833671  -53.495358  -25.137245  0
-8.231532  -53.313690  -25.058779  0
-7.140377  -53.804287  -25.284235  0
-7.439237  -53.671673  -25.406921  0
-7.218925  -53.835724  -25.361509  0
-7.443538  -53.733196  -25.170898  0
-8.278131  -46.598946  -24.752123  0
-8.698283  -46.585194  -24.758343  0
-6.921442  -46.927258  -24.845818  0
-7.448219  -46.904640  -24.681540  0
-8.142179  -46.655205  -24.753231  0
-8.004725  -46.756775  -24.811239  0
-8.996529  -46.711124  -24.701040  0
-9.226486  -47.021580  -24.878817  0
-6.567160  -47.184078  -24.783333  0
-6.280587  -47.435883  -24.775471  0
-6.870222  -47.197857  -24.573833  0
-7.147761  -47.182652  -24.448824  0
-9.438502  -47.220913  -24.650856  0
-6.038852  -47.693764  -24.757189  0
-5.797601  -47.953026  -24.726002  0
-6.290827  -47.709511  -24.494993  0
-9.562624  -47.579685  -24.691370  0
-5.556080  -48.205158  -24.722689  0
-5.309879  -48.464458  -24.779018  0
-5.810877  -48.211594  -24.453894  0
-9.655271  -48.065468  -24.710356  0
-9.860653  -48.379932  -24.477385  0
-5.068538  -48.686760  -24.915937  0
-5.309282  -48.902237  -24.555403  0
-9.638438  -48.599972  -24.792931  0
-9.883890  -48.853039  -24.507822  0
-5.051087  -49.130219  -24.748753  0
-5.288617  -49.373482  -24.471096  0
-9.634020  -49.131496  -24.815460  0
-9.895462  -49.398113  -24.533209  0
-5.006138  -49.553879  -24.704617  0
-4.852695  -49.893951  -24.771084  0
-5.218287  -49.908024  -24.480352  0
-9.626090  -49.715279  -24.892464  0
-9.883159  -49.935360  -24.572882  0
-4.584876  -50.166866  -24.901594  0
-4.961334  -50.389423  -24.604288  0
-5.309473  -50.372086  -24.390341  0
-9.693976  -50.262016  -24.899933  0
-9.876430  -50.439796  -24.578543  0
-4.612004  -50.651783  -24.772963  0
-4.941915  -50.932022  -24.572523  0
-5.262089  -50.787640  -24.405680  0
-9.714159  -50.789459  -24.900913  0
-9.876369  -50.956757  -24.523230  0
-4.649187  -51.122730  -24.738693  0
-4.720321  -51.472115  -24.765528  0
-4.957009  -51.363247  -24.608913  0
-5.252328  -51.247765  -24.434769  0
-9.709496  -51.375057  -24.817316  0
-9.865647  -51.398212  -24.425114  0
-4.939621  -51.712414  -24.757620  0
-5.294399  -51.989628  -24.726545  0
-5.213391  -51.603687  -24.550034  0
-9.635227  -51.765404  -24.843849  0
-5.582546  -52.270676  -24.728178  0
-5.820670  -52.507030  -24.760208  0
-5.839469  -52.268394  -24.494978  0
-9.517050  -52.070969  -24.861086  0
-9.323277  -52.461506  -24.714035  0
-6.070057  -52.737457  -24.805021  0
-6.262347  -52.997345  -24.923403  0
-6.476204  -52.738323  -24.538809  0
-6.765722  -53.014759  -24.607733  0
-6.748860  -52.740181  -24.368937  0
-9.051097  -52.681782  -24.896189  0
-8.809365  -52.982990  -24.679113  0
-7.105318  -53.326801  -24.690987  0
-7.455898  -53.575676  -24.835493  0
-7.450669  -53.341431  -24.419527  0
-7.916518  -53.520607  -24.619370  0
-8.500185  -53.184505  -24.872042  0
-8.232584  -53.422943  -24.686857  0
-8.537198  -46.631542  -24.293882  0
-8.768546  -46.589474  -24.468369  0
-8.219687  -46.773655  -24.312092  0
-7.787222  -46.991409  -24.332380  0
-8.521025  -46.728241  -24.082508  0
-9.007008  -46.678150  -24.376108  0
-8.815272  -46.734940  -24.127378  0
-9.210122  -46.939148  -24.326719  0
-6.957226  -47.473412  -24.183514  0
-7.463566  -47.152534  -24.311867  0
-7.385275  -47.344303  -24.050699  0
-7.672435  -47.209530  -24.045408  0
-9.513549  -47.352970  -24.183031  0
-9.264937  -47.148987  -23.907024  0
-6.557828  -47.707817  -24.258902  0
-6.300698  -47.950188  -24.249231  0
-6.832958  -47.742611  -23.976461  0
-9.730807  -47.756042  -24.289803  0
-9.851539  -48.058270  -24.351343  0
-6.072390  -48.201046  -24.237028  0
-5.822466  -48.475090  -24.253790  0
-6.319199  -48.183601  -24.013229  0
-9.970534  -48.223400  -24.168049  0
-5.564507  -48.672573  -24.394474  0
-5.828114  -48.898933  -24.051256  0
-10.047983  -48.580296  -24.146742  0
-5.563361  -49.134121  -24.245331  0
-5.818505  -49.368114  -23.978596  0
-10.148406  -49.123730  -24.145531  0
-10.331572  -49.463577  -23.968098  0
-5.545750  -49.628895  -24.218868  0
-5.813426  -49.869167  -23.981894  0
-10.137189  -49.701294  -24.197298  0
-10.318865  -49.740372  -23.914690  0
-5.548815  -50.134808  -24.220215  0
-5.837386  -50.379711  -23.990055  0
-10.036066  -50.150410  -24.291456  0
-5.569923  -50.627586  -24.212433  0
-5.913861  -50.916721  -23.969131  0
-10.035074  -50.581753  -24.193308  0
-5.564113  -51.104816  -24.237825  0
-5.824525  -51.338959  -24.084217  0
-6.157863  -51.343407  -23.838905  0
-10.013865  -51.141132  -24.076906  0
-9.923892  -51.593891  -24.148411  0
-5.565235  -51.582203  -24.327520  0
-5.854367  -51.983616  -24.289907  0
-5.920377  -51.617233  -24.072369  0
-9.735878  -51.855202  -24.435209  0
-9.872087  -51.884094  -23.974680  0
-6.099579  -52.263767  -24.302160  0
-6.284760  -52.500328  -24.414186  0
-6.503320  -52.258980  -24.033663  0
-6.764258  -52.499344  -24.101175  0
-6.776784  -52.256287  -23.856226  0
-9.546096  -52.281456  -24.405205  0
-9.357157  -52.572155  -24.123064  0
-7.019186  -52.750336  -24.168674  0
-7.316382  -53.030937  -24.194950  0
-7.286912  -52.759457  -23.960798  0
-9.092591  -52.807091  -24.369749  0
-8.733789  -53.060623  -24.082109  0
-7.662179  -53.243168  -24.144793  0
-7.781289  -53.433510  -24.352888  0
-8.024117  -53.274105  -24.040901  0
-8.512238  -53.273540  -24.401417  0
-8.166937  -53.415798  -24.308920  0
-8.379150  -53.259888  -24.069326  0
-8.496945  -46.936653  -23.862099  0
-8.952916  -46.998405  -23.852455  0
-7.403788  -47.577080  -23.622723  0
-8.024870  -47.082954  -23.931993  0
-7.834097  -47.345825  -23.644091  0
-8.270083  -47.187664  -23.595787  0
-9.081080  -47.199986  -23.604843  0
-8.700997  -47.173546  -23.520899  0
-9.362057  -47.355007  -23.640406  0
-7.078495  -47.803730  -23.680704  0
-6.788538  -47.992352  -23.788481  0
-7.315151  -47.765152  -23.446909  0
-9.672626  -47.627678  -23.693167  0
-9.896215  -47.953510  -23.961920  0
-6.512558  -48.119041  -23.915306  0
-6.365107  -48.412762  -23.828260  0
-6.716670  -48.430676  -23.563648  0
-10.047901  -48.264462  -23.774473  0
-6.103279  -48.659973  -23.911533  0
-6.429120  -48.865082  -23.590309  0
-6.780760  -48.867092  -23.348272  0
-10.214724  -48.783806  -23.658554  0
-10.335416  -49.185993  -23.854988  0
-6.090609  -49.111374  -23.775034  0
-6.309651  -49.322819  -23.570850  0
-6.631459  -49.310345  -23.346107  0
-10.408143  -49.394062  -23.781427  0
-10.361768  -49.196056  -23.636705  0
-6.071550  -49.588978  -23.744263  0
-6.371237  -49.778496  -23.492416  0
-10.400702  -49.589844  -23.800499  0
-10.345769  -49.751842  -23.697483  0
-10.378088  -49.482826  -23.586201  0
-6.081526  -50.090176  -23.748629  0
-6.340706  -50.307583  -23.531612  0
-10.201569  -50.090321  -23.839643  0
-6.131116  -50.557152  -23.744843  0
-6.328596  -50.925133  -23.634577  0
-6.339709  -50.617275  -23.566814  0
-10.133763  -50.676796  -23.727631  0
-6.473629  -51.265060  -23.588549  0
-6.427039  -51.509663  -23.674776  0
-6.716533  -51.453373  -23.452612  0
-10.102075  -51.116283  -23.622810  0
-6.204324  -51.714561  -23.896650  0
-6.329311  -52.003437  -23.949173  0
-6.548055  -51.736382  -23.663469  0
-6.796189  -51.983967  -23.627827  0
-6.786762  -51.703972  -23.484356  0
-10.011258  -51.572483  -23.734512  0
-9.879799  -51.984047  -23.612844  0
-7.044233  -52.251961  -23.657467  0
-7.288807  -52.510265  -23.711405  0
-7.308394  -52.254959  -23.445923  0
-9.648583  -52.234882  -23.917269  0
-9.269868  -52.551231  -23.579180  0
-7.570962  -52.776817  -23.760870  0
-7.809155  -53.040398  -23.876900  0
-8.033792  -52.801357  -23.542234  0
-8.325219  -53.050354  -23.779406  0
-8.515867  -52.799007  -23.461315  0
-9.046360  -52.822586  -23.867327  0
-8.724604  -52.931469  -23.705059  0
-8.896325  -52.765656  -23.535004  0
-7.884381  -47.573193  -23.124298  0
-8.394083  -47.384254  -23.211849  0
-9.021259  -47.374187  -23.249525  0
-9.422914  -47.502579  -23.292341  0
-7.551724  -47.790356  -23.151773  0
-7.298202  -47.987480  -23.285885  0
-7.792700  -47.733673  -22.905331  0
-9.621906  -47.683422  -23.109524  0
-9.879670  -47.931885  -23.412907  0
-7.042414  -48.187271  -23.429251  0
-7.301574  -48.379021  -23.088568  0
-10.048807  -48.295692  -23.241709  0
-7.044760  -48.629383  -23.233673  0
-7.302700  -48.812820  -22.957886  0
-10.160522  -48.663551  -23.133371  0
-7.056694  -49.150337  -23.079771  0
-6.870659  -49.536545  -23.135345  0
-7.311489  -49.093754  -22.889576  0
-10.258277  -49.145901  -23.270361  0
-6.664935  -49.725582  -23.260698  0
-6.929504  -49.937836  -23.053686  0
-10.250530  -49.731136  -23.326084  0
-6.618358  -50.126213  -23.290791  0
-6.913534  -50.424286  -23.085392  0
-7.198224  -50.288837  -22.862190  0
-10.170300  -50.283913  -23.298721  0
-6.592571  -50.624386  -23.365437  0
-6.681917  -51.069508  -23.386061  0
-6.947379  -50.892479  -23.133966  0
-7.236221  -50.748539  -22.887417  0
-10.126876  -50.802555  -23.268040  0
-6.946834  -51.258381  -23.221411  0
-7.249500  -51.263935  -22.981089  0
-10.049685  -51.336693  -23.258987  0
-9.961980  -51.306812  -22.899811  0
-7.034322  -51.614643  -23.264978  0
-7.311969  -51.961597  -23.222687  0
-7.311799  -51.622147  -23.038013  0
-9.975589  -51.764530  -23.392929  0
-9.877198  -51.977165  -23.342478  0
-9.823005  -51.770027  -23.066814  0
-7.575368  -52.266254  -23.249454  0
-7.779373  -52.536575  -23.384874  0
-8.008009  -52.297440  -23.021765  0
-8.268867  -52.563309  -23.218452  0
-8.496619  -52.319344  -22.926495  0
-8.826125  -52.556332  -23.228552  0
-8.994787  -52.275433  -22.925152  0
-9.640035  -52.198486  -23.365072  0
-9.262080  -52.390587  -23.191059  0
-9.437816  -52.119431  -22.983356  0
-8.348775  -47.575157  -22.750467  0
-8.827918  -47.526588  -22.807186  0
-9.293714  -47.559395  -22.915571  0
-8.073220  -47.763390  -22.634022  0
-7.779131  -47.953102  -22.737661  0
-8.370555  -47.702404  -22.480206  0
-8.696809  -47.695789  -22.452980  0
-9.504109  -47.697121  -22.783279  0
-9.234032  -47.732769  -22.546730  0
-9.730498  -47.958633  -22.782932  0
-7.535367  -48.151085  -22.918171  0
-7.779799  -48.354671  -22.551952  0
-9.988586  -48.393761  -22.772961  0
-9.766338  -48.229267  -22.446901  0
-7.534316  -48.585594  -22.766268  0
-7.762261  -48.833042  -22.462482  0
-10.083656  -48.851891  -22.787512  0
-9.860064  -48.593338  -22.426407  0
-7.498450  -49.015228  -22.716406  0
-7.361106  -49.346756  -22.791616  0
-7.703634  -49.366699  -22.471548  0
-10.108795  -49.382736  -22.827112  0
-9.895910  -49.081612  -22.435835  0
-7.140883  -49.614243  -22.928020  0
-7.220823  -49.950962  -22.836063  0
-7.485415  -49.801414  -22.649874  0
-7.818743  -49.841812  -22.385969  0
-10.089024  -49.934605  -22.842667  0
-9.898707  -49.618736  -22.450405  0
-7.437705  -50.182091  -22.690914  0
-7.847880  -50.348347  -22.453697  0
-10.054815  -50.476738  -22.855766  0
-9.880441  -50.173481  -22.472359  0
-7.527029  -50.590210  -22.673134  0
-7.934715  -50.947277  -22.513260  0
-8.372860  -50.871586  -22.330070  0
-10.033882  -50.955841  -22.896339  0
-9.932830  -51.098625  -22.720072  0
-9.814514  -50.799805  -22.526922  0
-7.581532  -51.094753  -22.713629  0
-7.961253  -51.425499  -22.581642  0
-8.387265  -51.339542  -22.452044  0
-8.911599  -51.245411  -22.362875  0
-9.733027  -51.374573  -22.679520  0
-9.441659  -51.147953  -22.402870  0
-7.596585  -51.601860  -22.827351  0
-7.774003  -52.002151  -22.903084  0
-7.968822  -51.775341  -22.667246  0
-8.205092  -52.045254  -22.740820  0
-8.334020  -51.739025  -22.564281  0
-8.675353  -52.038124  -22.692745  0
-8.810269  -51.686604  -22.527184  0
-9.531869  -51.804394  -22.776655  0
-9.154157  -51.964283  -22.716280  0
-9.299820  -51.576694  -22.553793  0
-8.479961  -47.943787  -22.265898  0
-8.999924  -47.935493  -22.210625  0
-9.455349  -48.029545  -22.310720  0
-8.076309  -48.134571  -22.374462  0
-8.434985  -48.395798  -22.084583  0
-8.867592  -48.256950  -22.030212  0
-9.564778  -48.369396  -22.182188  0
-9.244250  -48.193909  -22.078726  0
-8.065446  -48.600319  -22.234407  0
-8.418852  -48.896210  -22.015404  0
-8.834000  -48.709312  -21.948940  0
-9.602996  -48.808704  -22.155689  0
-9.242793  -48.541916  -22.004034  0
-8.050150  -49.112785  -22.195055  0
-8.422688  -49.420105  -22.013916  0
-8.831845  -49.227230  -21.935032  0
-9.615001  -49.324955  -22.160404  0
-9.245421  -49.025719  -21.984247  0
-8.067144  -49.622635  -22.194880  0
-8.450993  -49.927311  -22.047815  0
-8.845403  -49.757450  -21.959473  0
-9.615870  -49.864735  -22.177883  0
-9.253401  -49.557777  -21.995186  0
-8.128260  -50.099487  -22.217936  0
-8.257556  -50.485954  -22.241272  0
-8.501837  -50.370319  -22.105886  0
-8.862326  -50.251263  -22.015673  0
-9.589627  -50.391834  -22.216131  0
-9.258030  -50.084759  -22.030304  0
-8.545631  -50.687176  -22.179207  0
-8.777442  -50.915108  -22.216440  0
-8.855381  -50.654785  -22.105768  0
-9.490019  -50.790356  -22.253363  0
-9.149520  -50.925495  -22.210051  0
-9.232301  -50.551506  -22.097178  0
9 15 0 0
1 11 0 0
0 11 9 0
1 18 11 0
13 20 2 0
3 16 2 0
2 16 13 0
16 3 15 0
3 0 15 0
3 4 0 0
0 5 1 0
0 4 5 0
18 1 23 0
23 1 5 0
20 22 2 0
25 6 22 0
6 2 22 0
6 3 2 0
3 7 4 0
3 6 7 0
4 8 5 0
4 7 8 0
23 5 29 0
29 5 8 0
25 27 6 0
6 27 7 0
7 27 28 0
7 28 8 0
8 28 30 0
8 30 29 0
36 42 10 0
12 38 10 0
10 38 36 0
12 45 38 0
41 48 14 0
17 43 14 0
14 43 41 0
43 17 42 0
42 17 10 0
17 15 10 0
15 9 10 0
10 9 11 0
10 11 12 0
19 46 18 0
18 46 11 0
46 45 11 0
45 12 11 0
19 50 46 0
49 52 21 0
49 21 48 0
48 21 14 0
21 20 14 0
20 13 14 0
14 13 16 0
14 16 17 0
17 16 15 0
23 24 19 0
23 19 18 0
50 19 55 0
55 19 24 0
52 53 21 0
53 58 26 0
53 26 22 0
21 53 22 0
20 21 22 0
26 25 22 0
29 31 24 0
29 24 23 0
55 24 60 0
60 24 31 0
58 59 26 0
59 63 32 0
59 32 27 0
26 59 27 0
25 26 27 0
33 28 27 0
33 27 32 0
34 30 28 0
34 28 33 0
31 29 30 0
34 31 30 0
35 31 34 0
60 31 67 0
67 31 35 0
63 64 32 0
32 64 33 0
33 64 65 0
33 65 34 0
34 65 66 0
34 66 35 0
35 66 68 0
35 68 67 0
86 93 37 0
39 87 37 0
37 87 86 0
40 89 39 0
39 89 87 0
40 95 89 0
94 98 44 0
94 44 93 0
93 44 37 0
44 42 37 0
42 36 37 0
37 36 38 0
37 38 39 0
39 38 45 0
47 39 45 0
40 39 47 0
95 40 100 0
100 40 47 0
99 104 41 0
41 104 48 0
43 44 98 0
99 43 98 0
41 43 99 0
44 43 42 0
46 47 45 0
51 101 50 0
50 101 46 0
101 100 46 0
100 47 46 0
51 105 101 0
54 52 49 0
108 54 49 0
48 108 49 0
104 108 48 0
55 56 51 0
55 51 50 0
105 51 106 0
51 57 106 0
51 56 57 0
57 109 106 0
54 53 52 0
58 53 54 0
108 58 54 0
111 58 108 0
60 61 56 0
60 56 55 0
56 62 57 0
56 61 62 0
109 57 113 0
113 57 62 0
111 112 58 0
58 112 59 0
63 59 112 0
63 112 115 0
67 69 61 0
67 61 60 0
61 70 62 0
61 69 70 0
113 62 119 0
119 62 70 0
115 117 63 0
63 117 64 0
117 122 71 0
65 117 71 0
64 117 65 0
72 66 65 0
72 65 71 0
73 68 66 0
73 66 72 0
73 126 68 0
68 126 67 0
126 118 67 0
118 69 67 0
69 118 70 0
70 118 120 0
70 120 119 0
122 124 71 0
71 124 72 0
72 124 125 0
133 74 125 0
74 72 125 0
74 73 72 0
126 73 127 0
73 75 127 0
73 74 75 0
76 129 75 0
75 129 127 0
76 136 129 0
134 138 77 0
134 77 133 0
77 74 133 0
77 78 74 0
74 79 75 0
74 78 79 0
75 80 76 0
75 79 80 0
136 76 141 0
141 76 80 0
138 140 77 0
144 81 140 0
81 77 140 0
81 78 77 0
78 82 79 0
78 81 82 0
142 80 147 0
80 82 147 0
80 79 82 0
80 142 141 0
144 146 81 0
81 146 82 0
82 146 148 0
82 148 147 0
152 154 83 0
83 157 152 0
155 160 84 0
155 84 154 0
84 83 154 0
84 85 83 0
157 83 163 0
163 83 85 0
159 165 88 0
90 161 88 0
88 161 159 0
161 90 160 0
90 84 160 0
90 91 84 0
84 92 85 0
84 91 92 0
163 85 167 0
167 85 92 0
166 169 86 0
86 169 93 0
87 88 165 0
166 87 165 0
86 87 166 0
88 87 89 0
88 89 90 0
90 89 95 0
96 90 95 0
91 90 96 0
91 97 92 0
91 96 97 0
167 92 171 0
171 92 97 0
170 173 94 0
94 173 98 0
94 93 169 0
94 169 170 0
100 102 96 0
100 96 95 0
96 103 97 0
96 102 103 0
171 97 176 0
176 97 103 0
174 178 99 0
99 178 104 0
99 98 173 0
99 173 174 0
101 102 100 0
102 101 105 0
107 102 105 0
103 102 107 0
176 103 180 0
180 103 107 0
178 108 104 0
184 108 178 0
106 107 105 0
110 181 109 0
109 181 106 0
181 180 106 0
180 107 106 0
110 186 181 0
184 111 108 0
188 111 184 0
113 114 110 0
113 110 109 0
186 110 189 0
189 110 114 0
112 111 116 0
111 192 116 0
111 188 192 0
116 115 112 0
119 121 114 0
119 114 113 0
189 114 195 0
195 114 121 0
192 193 116 0
193 198 123 0
193 123 117 0
116 193 117 0
115 116 117 0
123 122 117 0
126 128 118 0
130 120 118 0
130 118 128 0
121 119 120 0
130 121 120 0
131 121 130 0
195 121 200 0
200 121 131 0
198 199 123 0
199 203 132 0
199 132 124 0
123 199 124 0
122 123 124 0
135 125 124 0
135 124 132 0
135 133 125 0
127 128 126 0
128 127 129 0
128 129 130 0
130 129 136 0
137 130 136 0
131 130 137 0
200 131 204 0
204 131 137 0
132 203 139 0
139 203 207 0
139 138 134 0
135 139 134 0
132 139 135 0
135 134 133 0
141 143 137 0
141 137 136 0
204 137 210 0
210 137 143 0
207 208 139 0
208 213 145 0
208 145 140 0
139 208 140 0
138 139 140 0
145 144 140 0
147 149 142 0
149 216 142 0
142 216 141 0
216 211 141 0
211 143 141 0
143 211 210 0
213 214 145 0
214 219 150 0
214 150 146 0
145 214 146 0
144 145 146 0
151 148 146 0
151 146 150 0
151 222 148 0
148 222 147 0
222 217 147 0
217 149 147 0
149 217 216 0
219 220 150 0
150 220 151 0
151 220 223 0
151 223 222 0
225 226 153 0
153 228 225 0
227 231 156 0
227 156 226 0
226 156 153 0
156 154 153 0
154 152 153 0
158 229 157 0
157 229 152 0
229 228 152 0
228 153 152 0
158 233 229 0
232 236 162 0
232 162 231 0
231 162 156 0
162 160 156 0
160 155 156 0
156 155 154 0
163 164 158 0
163 158 157 0
233 158 238 0
238 158 164 0
237 241 159 0
159 241 165 0
161 162 236 0
237 161 236 0
159 161 237 0
162 161 160 0
167 168 164 0
167 164 163 0
238 164 244 0
244 164 168 0
242 247 166 0
166 247 169 0
166 165 241 0
166 241 242 0
171 172 168 0
171 168 167 0
244 168 249 0
249 168 172 0
175 173 170 0
252 175 170 0
169 252 170 0
247 252 169 0
176 177 172 0
176 172 171 0
249 172 254 0
254 172 177 0
179 178 174 0
258 179 174 0
258 174 173 0
253 258 173 0
175 253 173 0
253 175 252 0
180 182 177 0
180 177 176 0
254 177 255 0
177 183 255 0
177 182 183 0
183 260 255 0
185 184 179 0
179 184 178 0
179 258 263 0
179 263 185 0
181 182 180 0
182 181 186 0
187 182 186 0
183 182 187 0
260 183 265 0
265 183 187 0
264 270 185 0
270 184 185 0
270 188 184 0
264 185 263 0
189 190 187 0
189 187 186 0
265 187 266 0
187 191 266 0
187 190 191 0
191 273 266 0
194 192 271 0
192 270 271 0
192 188 270 0
276 194 271 0
195 196 190 0
195 190 189 0
190 197 191 0
190 196 197 0
273 191 277 0
277 191 197 0
194 193 192 0
198 193 194 0
276 198 194 0
280 198 276 0
200 201 196 0
200 196 195 0
196 202 197 0
196 201 202 0
277 197 282 0
282 197 202 0
280 281 198 0
198 281 199 0
203 199 281 0
203 281 285 0
204 205 201 0
204 201 200 0
201 206 202 0
201 205 206 0
282 202 287 0
287 202 206 0
209 207 286 0
207 285 286 0
207 203 285 0
290 209 286 0
210 212 205 0
210 205 204 0
288 206 293 0
206 212 293 0
206 205 212 0
206 288 287 0
209 208 207 0
291 215 213 0
291 213 208 0
290 291 208 0
209 290 208 0
296 215 291 0
216 218 211 0
218 299 211 0
211 299 210 0
299 294 210 0
294 212 210 0
212 294 293 0
215 214 213 0
297 221 219 0
297 219 214 0
296 297 214 0
215 296 214 0
302 221 297 0
222 224 217 0
224 305 217 0
217 305 216 0
305 300 216 0
300 218 216 0
218 300 299 0
221 220 219 0
302 303 221 0
303 220 221 0
303 223 220 0
222 223 224 0
223 306 224 0
223 303 306 0
224 306 305 0
308 310 225 0
225 310 226 0
230 309 228 0
309 225 228 0
309 308 225 0
230 313 309 0
311 318 227 0
227 318 231 0
227 226 310 0
227 310 311 0
229 230 228 0
234 314 233 0
233 314 229 0
314 313 229 0
313 230 229 0
235 316 234 0
234 316 314 0
235 321 316 0
319 324 232 0
232 324 236 0
232 231 318 0
232 318 319 0
238 239 234 0
238 234 233 0
234 240 235 0
234 239 240 0
321 235 326 0
326 235 240 0
243 241 237 0
329 243 237 0
236 329 237 0
324 329 236 0
244 245 239 0
244 239 238 0
239 246 240 0
239 245 246 0
326 240 331 0
331 240 246 0
248 247 242 0
334 248 242 0
334 242 241 0
330 334 241 0
243 330 241 0
330 243 329 0
249 250 245 0
249 245 244 0
245 251 246 0
245 250 251 0
331 246 336 0
336 246 251 0
335 339 248 0
339 247 248 0
339 252 247 0
335 248 334 0
254 256 250 0
254 250 249 0
250 257 251 0
250 256 257 0
336 251 341 0
341 251 257 0
259 258 253 0
345 259 253 0
252 345 253 0
339 345 252 0
255 256 254 0
256 255 260 0
261 256 260 0
257 256 261 0
341 257 342 0
257 262 342 0
257 261 262 0
262 348 342 0
346 351 259 0
351 258 259 0
351 263 258 0
346 259 345 0
265 267 261 0
265 261 260 0
261 268 262 0
261 267 268 0
348 262 349 0
262 269 349 0
262 268 269 0
269 353 349 0
272 270 264 0
355 272 264 0
263 355 264 0
351 355 263 0
266 267 265 0
267 266 273 0
274 267 273 0
268 267 274 0
268 275 269 0
268 274 275 0
353 269 357 0
357 269 275 0
272 271 270 0
276 271 272 0
355 276 272 0
359 276 355 0
277 278 274 0
277 274 273 0
274 279 275 0
274 278 279 0
357 275 361 0
361 275 279 0
359 280 276 0
363 280 359 0
282 283 278 0
282 278 277 0
278 284 279 0
278 283 284 0
361 279 366 0
366 279 284 0
363 364 280 0
280 364 281 0
285 281 364 0
285 364 369 0
287 289 283 0
287 283 282 0
367 284 374 0
284 289 374 0
284 283 289 0
284 367 366 0
369 370 285 0
285 370 286 0
372 292 290 0
286 372 290 0
370 372 286 0
377 292 372 0
293 295 288 0
295 380 288 0
288 380 287 0
380 375 287 0
375 289 287 0
289 375 374 0
292 291 290 0
378 298 296 0
378 296 291 0
377 378 291 0
292 377 291 0
383 298 378 0
299 301 294 0
301 386 294 0
294 386 293 0
386 381 293 0
381 295 293 0
295 381 380 0
298 297 296 0
384 304 302 0
384 302 297 0
383 384 297 0
298 383 297 0
389 304 384 0
305 307 300 0
307 392 300 0
300 392 299 0
392 387 299 0
387 301 299 0
301 387 386 0
304 303 302 0
389 390 304 0
390 303 304 0
390 306 303 0
305 306 307 0
306 393 307 0
306 390 393 0
307 393 392 0
312 310 308 0
312 308 399 0
308 396 399 0
308 309 396 0
315 397 313 0
397 309 313 0
397 396 309 0
317 398 315 0
315 398 397 0
317 403 398 0
320 318 311 0
409 320 311 0
409 311 310 0
400 409 310 0
312 400 310 0
400 312 399 0
314 315 313 0
315 314 316 0
315 316 317 0
322 405 321 0
321 405 316 0
405 403 316 0
403 317 316 0
323 407 322 0
322 407 405 0
323 412 407 0
325 324 319 0
414 325 319 0
414 319 318 0
410 414 318 0
320 410 318 0
410 320 409 0
326 327 322 0
326 322 321 0
322 328 323 0
322 327 328 0
412 323 417 0
417 323 328 0
415 419 325 0
419 324 325 0
419 329 324 0
415 325 414 0
331 332 327 0
331 327 326 0
327 333 328 0
327 332 333 0
417 328 422 0
422 328 333 0
420 424 330 0
330 424 334 0
330 329 419 0
330 419 420 0
336 337 332 0
336 332 331 0
332 338 333 0
332 337 338 0
422 333 426 0
426 333 338 0
340 339 335 0
428 340 335 0
334 428 335 0
424 428 334 0
341 343 337 0
341 337 336 0
337 344 338 0
337 343 344 0
426 338 430 0
430 338 344 0
347 345 340 0
340 345 339 0
340 428 432 0
340 432 347 0
342 343 341 0
343 342 348 0
350 343 348 0
344 343 350 0
430 344 435 0
435 344 350 0
352 351 346 0
438 352 346 0
438 346 345 0
433 438 345 0
347 433 345 0
433 347 432 0
349 350 348 0
354 436 353 0
353 436 349 0
436 435 349 0
435 350 349 0
354 440 436 0
356 355 352 0
352 355 351 0
352 438 441 0
352 441 356 0
357 358 354 0
357 354 353 0
440 354 443 0
443 354 358 0
360 359 356 0
356 359 355 0
356 441 444 0
356 444 360 0
361 362 358 0
361 358 357 0
443 358 446 0
446 358 362 0
365 363 360 0
360 363 359 0
360 444 447 0
360 447 365 0
366 368 362 0
366 362 361 0
446 362 452 0
452 362 368 0
365 364 363 0
448 371 369 0
448 369 364 0
447 448 364 0
365 447 364 0
450 373 371 0
450 371 448 0
454 373 450 0
374 376 367 0
376 457 367 0
367 457 366 0
457 453 366 0
453 368 366 0
368 453 452 0
371 370 369 0
370 371 372 0
372 371 373 0
455 379 377 0
455 377 372 0
454 455 372 0
373 454 372 0
460 379 455 0
380 382 375 0
382 463 375 0
375 463 374 0
463 458 374 0
458 376 374 0
376 458 457 0
379 378 377 0
461 385 383 0
461 383 378 0
460 461 378 0
379 460 378 0
466 385 461 0
386 388 381 0
388 471 381 0
381 471 380 0
471 464 380 0
464 382 380 0
382 464 463 0
385 384 383 0
467 391 389 0
467 389 384 0
466 467 384 0
385 466 384 0
469 394 391 0
469 391 467 0
469 392 394 0
469 387 392 0
469 474 395 0
387 469 395 0
395 475 387 0
387 475 386 0
475 472 386 0
472 388 386 0
388 472 471 0
391 390 389 0
390 391 393 0
393 391 394 0
393 474 394 0
393 476 474 0
393 392 395 0
476 393 395 0
395 476 475 0
401 399 396 0
397 402 396 0
396 402 401 0
398 404 397 0
397 404 402 0
478 404 482 0
478 398 404 0
478 406 403 0
398 478 403 0
408 479 406 0
406 479 478 0
408 484 479 0
411 409 400 0
486 411 400 0
486 400 399 0
480 486 399 0
401 480 399 0
480 401 402 0
480 402 481 0
481 402 404 0
481 404 483 0
483 406 482 0
483 405 406 0
483 404 403 0
405 483 403 0
406 405 407 0
406 407 408 0
413 485 412 0
412 485 407 0
485 484 407 0
484 408 407 0
413 490 485 0
416 414 410 0
491 416 410 0
491 410 409 0
487 491 409 0
411 487 409 0
487 411 486 0
417 418 413 0
417 413 412 0
490 413 494 0
494 413 418 0
421 419 415 0
495 421 415 0
495 415 414 0
492 495 414 0
416 492 414 0
492 416 491 0
422 423 418 0
422 418 417 0
494 418 498 0
498 418 423 0
425 424 420 0
500 425 420 0
500 420 419 0
496 500 419 0
421 496 419 0
496 421 495 0
426 427 423 0
426 423 422 0
498 423 502 0
502 423 427 0
429 428 425 0
425 428 424 0
425 500 504 0
425 504 429 0
430 431 427 0
430 427 426 0
502 427 506 0
506 427 431 0
434 432 429 0
429 432 428 0
429 504 508 0
429 508 434 0
435 437 431 0
435 431 430 0
506 431 511 0
511 431 437 0
439 438 433 0
513 439 433 0
513 433 432 0
509 513 432 0
434 509 432 0
509 434 508 0
436 437 435 0
436 440 437 0
440 511 437 0
440 516 511 0
442 441 439 0
439 441 438 0
439 513 518 0
439 518 442 0
443 516 440 0
443 521 516 0
445 444 442 0
442 444 441 0
442 518 523 0
442 523 445 0
446 521 443 0
446 527 521 0
449 447 445 0
445 447 444 0
445 523 524 0
451 445 524 0
449 445 451 0
529 451 524 0
452 527 446 0
452 532 527 0
449 448 447 0
448 449 450 0
450 449 451 0
530 456 454 0
530 454 450 0
529 530 450 0
451 529 450 0
533 456 530 0
457 459 453 0
459 536 453 0
536 452 453 0
536 532 452 0
456 455 454 0
534 462 460 0
534 460 455 0
533 534 455 0
456 533 455 0
538 462 534 0
463 465 458 0
465 543 458 0
458 543 457 0
543 537 457 0
537 459 457 0
459 537 536 0
462 461 460 0
539 468 466 0
539 466 461 0
538 539 461 0
462 538 461 0
541 470 468 0
541 468 539 0
545 470 541 0
471 473 464 0
473 549 464 0
464 549 463 0
549 544 463 0
544 465 463 0
465 544 543 0
468 467 466 0
467 468 469 0
469 468 470 0
546 477 474 0
546 474 469 0
545 546 469 0
470 545 469 0
472 475 477 0
546 472 477 0
548 472 546 0
471 472 473 0
472 550 473 0
472 548 550 0
473 550 549 0
477 476 474 0
476 477 475 0
551 553 478 0
478 553 482 0
552 478 479 0
552 551 478 0
479 484 552 0
552 484 556 0
488 486 480 0
481 489 480 0
480 489 488 0
489 481 560 0
481 554 560 0
481 483 554 0
483 482 553 0
483 553 554 0
558 556 484 0
558 484 485 0
485 490 558 0
558 490 563 0
493 491 487 0
565 493 487 0
565 487 486 0
559 565 486 0
488 559 486 0
559 488 489 0
559 489 561 0
561 489 560 0
494 563 490 0
494 568 563 0
497 495 492 0
570 497 492 0
570 492 491 0
566 570 491 0
493 566 491 0
566 493 565 0
498 499 569 0
568 498 569 0
494 498 568 0
499 573 569 0
501 500 496 0
574 501 496 0
574 496 495 0
571 574 495 0
497 571 495 0
571 497 570 0
502 503 499 0
502 499 498 0
573 499 576 0
576 499 503 0
505 504 501 0
501 504 500 0
501 574 577 0
501 577 505 0
506 507 503 0
506 503 502 0
576 503 579 0
579 503 507 0
510 508 505 0
505 508 504 0
505 577 581 0
505 581 510 0
511 512 507 0
511 507 506 0
579 507 583 0
583 507 512 0
514 513 509 0
508 510 509 0
510 514 509 0
510 515 514 0
510 581 585 0
510 585 515 0
516 517 512 0
516 512 511 0
583 512 587 0
587 512 517 0
519 518 514 0
514 518 513 0
520 514 515 0
519 514 520 0
515 585 588 0
515 588 520 0
521 522 517 0
521 517 516 0
587 517 590 0
590 517 522 0
525 523 519 0
519 523 518 0
526 519 520 0
525 519 526 0
520 588 591 0
520 591 526 0
527 528 522 0
527 522 521 0
590 522 594 0
594 522 528 0
525 524 523 0
524 525 529 0
525 531 529 0
525 526 531 0
526 591 596 0
526 596 531 0
599 595 528 0
527 599 528 0
532 599 527 0
528 595 594 0
531 530 529 0
597 535 533 0
597 533 530 0
596 597 530 0
531 596 530 0
601 535 597 0
536 599 532 0
536 606 599 0
535 534 533 0
602 540 538 0
602 538 534 0
601 602 534 0
535 601 534 0
604 542 540 0
604 540 602 0
608 542 604 0
611 607 537 0
611 537 543 0
536 537 606 0
606 537 607 0
540 539 538 0
539 540 541 0
541 540 542 0
609 547 545 0
609 545 541 0
608 609 541 0
542 608 541 0
613 547 609 0
616 612 544 0
616 544 549 0
543 544 611 0
611 544 612 0
547 546 545 0
613 614 547 0
614 546 547 0
614 548 546 0
548 617 550 0
614 617 548 0
549 550 616 0
616 550 617 0
555 553 551 0
552 557 551 0
551 557 555 0
556 557 552 0
562 560 554 0
622 562 554 0
622 554 553 0
619 622 553 0
555 619 553 0
619 555 557 0
619 557 620 0
625 620 564 0
564 620 558 0
620 557 558 0
557 556 558 0
563 564 558 0
567 565 559 0
567 559 628 0
559 621 628 0
559 561 621 0
561 560 562 0
623 561 562 0
621 561 623 0
623 562 622 0
627 625 564 0
564 563 627 0
563 631 627 0
563 568 631 0
572 570 566 0
633 572 566 0
633 566 565 0
629 633 565 0
567 629 565 0
629 567 628 0
632 631 568 0
632 568 569 0
569 573 632 0
632 573 636 0
575 574 571 0
637 575 571 0
637 571 570 0
634 637 570 0
572 634 570 0
634 572 633 0
576 636 573 0
576 640 636 0
578 577 575 0
575 577 574 0
575 637 642 0
575 642 578 0
579 580 641 0
640 579 641 0
576 579 640 0
580 645 641 0
582 581 578 0
578 581 577 0
578 642 647 0
578 647 582 0
583 584 580 0
583 580 579 0
645 580 649 0
649 580 584 0
586 585 582 0
582 585 581 0
582 647 652 0
582 652 586 0
654 650 584 0
583 654 584 0
587 654 583 0
584 650 649 0
589 588 586 0
586 588 585 0
586 652 655 0
586 655 589 0
590 654 587 0
590 658 654 0
592 591 589 0
589 591 588 0
589 655 656 0
593 589 656 0
592 589 593 0
659 593 656 0
594 658 590 0
594 662 658 0
598 596 592 0
592 596 591 0
593 660 663 0
598 593 663 0
592 593 598 0
660 593 659 0
599 600 595 0
600 668 595 0
668 594 595 0
668 662 594 0
598 597 596 0
664 603 601 0
664 601 597 0
663 664 597 0
598 663 597 0
666 605 603 0
666 603 664 0
670 605 666 0
673 669 600 0
599 673 600 0
606 673 599 0
600 669 668 0
603 602 601 0
602 603 604 0
604 603 605 0
671 610 608 0
671 608 604 0
670 671 604 0
605 670 604 0
675 610 671 0
680 674 607 0
680 607 611 0
606 607 673 0
673 607 674 0
610 609 608 0
676 615 613 0
676 613 609 0
675 676 609 0
610 675 609 0
678 618 615 0
678 615 676 0
612 616 618 0
678 612 618 0
681 612 678 0
611 612 680 0
680 612 681 0
615 614 613 0
614 615 617 0
617 615 618 0
617 618 616 0
624 622 619 0
620 626 619 0
619 626 624 0
625 626 620 0
630 628 621 0
630 621 687 0
621 683 687 0
621 623 683 0
623 622 624 0
684 623 624 0
683 623 684 0
684 624 626 0
684 626 685 0
685 626 625 0
627 685 625 0
686 685 627 0
627 631 686 0
686 631 690 0
635 633 629 0
692 635 629 0
692 629 628 0
688 692 628 0
630 688 628 0
688 630 687 0
691 690 631 0
691 631 632 0
632 636 691 0
691 636 694 0
638 637 634 0
633 635 634 0
635 638 634 0
635 639 638 0
635 692 695 0
635 695 639 0
640 694 636 0
640 697 694 0
643 642 638 0
638 642 637 0
644 638 639 0
643 638 644 0
639 695 698 0
639 698 644 0
640 641 646 0
701 640 646 0
697 640 701 0
