#!ascii version of /Users/gilles/git/nukkies/notebooks/data/WSFT_STh_L_dil.asc
806 1610
6.842027  -51.066174  -16.060341  0
6.513902  -51.052303  -16.087597  0
8.164916  -46.151554  -15.472100  0
7.204751  -46.333591  -15.705644  0
7.515969  -46.189964  -15.575906  0
8.367381  -46.602592  -15.600079  0
7.565095  -46.641747  -15.868026  0
7.893675  -46.346569  -15.639231  0
6.933080  -46.429073  -15.815857  0
6.784441  -46.631824  -15.938295  0
6.627922  -46.451290  -15.720970  0
6.372911  -46.745064  -15.790421  0
6.391171  -46.491920  -15.608946  0
8.696527  -47.022018  -15.556250  0
8.398564  -46.975677  -15.699564  0
7.762721  -47.108944  -15.984555  0
8.052627  -47.317444  -15.932923  0
8.072238  -46.898643  -15.808604  0
6.065143  -47.048412  -15.797368  0
5.808240  -47.221260  -15.597386  0
8.824327  -47.447933  -15.540854  0
8.189913  -47.631222  -15.943871  0
8.453702  -47.826809  -15.857140  0
8.443395  -47.375557  -15.760438  0
6.034166  -47.379288  -15.894249  0
5.754532  -47.639400  -15.671497  0
8.584462  -48.220379  -15.861097  0
8.785976  -47.880074  -15.635458  0
6.019830  -47.781265  -15.978354  0
5.935458  -48.213905  -16.132273  0
5.721286  -48.031380  -15.781636  0
8.676406  -48.706184  -15.896887  0
8.902436  -48.439442  -15.651107  0
5.513666  -48.510727  -15.730976  0
5.322788  -48.867809  -16.102734  0
8.728493  -49.101345  -15.936198  0
8.859603  -49.284103  -15.883835  0
8.991570  -49.037334  -15.710831  0
5.179272  -49.248917  -15.917082  0
5.299372  -48.984020  -15.680028  0
8.963742  -49.541775  -15.842913  0
9.240480  -49.529991  -15.595686  0
8.824803  -49.887169  -15.967880  0
5.175245  -49.561905  -15.969041  0
5.288538  -49.846016  -15.784446  0
9.370073  -49.992897  -15.589707  0
8.846525  -50.196976  -15.986051  0
9.003466  -50.371517  -15.916897  0
9.089978  -50.015511  -15.822213  0
5.434157  -50.074146  -16.000248  0
8.982453  -50.548691  -15.893839  0
9.257030  -50.438869  -15.691660  0
8.843634  -50.743916  -15.791692  0
8.256201  -50.820572  -15.900407  0
7.719970  -50.838375  -15.999710  0
7.218085  -50.927982  -16.077543  0
5.643116  -50.438404  -15.980304  0
5.873210  -50.780472  -15.835313  0
8.982279  -50.996296  -15.511420  0
8.532914  -51.056217  -15.632945  0
7.917586  -51.164406  -15.718732  0
7.035756  -51.234417  -15.824265  0
7.444858  -51.133224  -15.862467  0
6.632535  -51.232544  -15.787812  0
6.173922  -50.976917  -15.996952  0
6.335939  -51.149029  -15.772847  0
7.328700  -51.540482  -15.570680  0
7.386188  -51.926838  -15.431526  0
9.127095  -45.547569  -15.054764  0
8.794416  -45.480759  -15.076356  0
8.290712  -45.845856  -15.234997  0
8.523152  -45.585247  -15.095202  0
7.559231  -45.945900  -15.306159  0
9.300332  -45.992046  -15.107419  0
8.580231  -46.236832  -15.404872  0
8.822298  -45.848339  -15.218040  0
7.978705  -45.929050  -15.342163  0
7.710623  -46.056656  -15.488067  0
7.893539  -46.055340  -15.476213  0
7.774776  -45.923775  -15.353276  0
7.220976  -46.073711  -15.277544  0
6.823759  -46.275543  -15.452581  0
6.470864  -46.383465  -15.467963  0
9.428132  -46.440357  -15.094394  0
8.744867  -46.625156  -15.463314  0
8.985100  -46.847828  -15.374676  0
9.044134  -46.411804  -15.280797  0
6.207750  -46.554382  -15.360384  0
5.965987  -46.870380  -15.486940  0
9.054970  -47.238602  -15.355999  0
9.327732  -46.907009  -15.157630  0
5.737502  -47.073685  -15.264612  0
9.087250  -47.695229  -15.357102  0
9.357329  -47.455986  -15.127162  0
5.633714  -47.449821  -15.287609  0
9.115310  -48.179688  -15.377952  0
9.360972  -47.947647  -15.119333  0
5.566161  -47.987576  -15.360542  0
9.183393  -48.702248  -15.410848  0
9.388828  -48.457146  -15.137040  0
5.488999  -48.451141  -15.223198  0
9.253995  -49.121578  -15.451544  0
9.379141  -49.338837  -15.388166  0
9.480963  -49.066120  -15.193579  0
5.452659  -49.008110  -15.229981  0
5.274773  -49.304680  -15.513309  0
9.541393  -49.666660  -15.341269  0
9.780403  -49.495125  -15.055404  0
5.232729  -49.590897  -15.621438  0
5.332891  -49.837994  -15.501727  0
5.426851  -49.647717  -15.292871  0
9.602762  -50.208965  -15.413295  0
9.857731  -49.987942  -15.133822  0
5.517320  -50.143284  -15.503151  0
5.689913  -49.969086  -15.030195  0
9.562078  -50.518780  -15.440627  0
9.836286  -50.474869  -15.152869  0
9.403669  -50.794445  -15.378873  0
5.717539  -50.562546  -15.546827  0
5.875272  -50.738804  -15.362062  0
5.781642  -50.417839  -15.153692  0
9.204507  -51.059631  -15.272824  0
9.472291  -51.013668  -15.059560  0
8.852746  -51.190552  -15.317064  0
8.324258  -51.360554  -15.400113  0
7.835701  -51.470566  -15.523554  0
6.750186  -51.481407  -15.383341  0
6.091790  -50.990192  -15.452903  0
6.375522  -51.236267  -15.367964  0
8.335864  -51.673496  -15.162869  0
7.653846  -51.754757  -15.455750  0
8.001817  -51.634930  -15.371958  0
6.966152  -51.723911  -15.379664  0
6.789305  -51.827129  -15.165473  0
8.349064  -51.933872  -15.018086  0
7.571612  -51.997288  -15.389817  0
7.915172  -52.006058  -15.225775  0
7.068642  -52.032066  -15.245438  0
7.444913  -52.254196  -15.241110  0
6.820458  -52.046040  -15.044182  0
7.453128  -52.604881  -15.014437  0
9.245884  -45.329998  -14.901050  0
9.296164  -45.117329  -14.616879  0
8.914512  -45.245705  -14.850537  0
8.863842  -45.023285  -14.538994  0
8.565587  -45.372093  -14.916483  0
9.522605  -45.608772  -14.874786  0
9.764920  -45.385803  -14.553988  0
8.189994  -45.547760  -14.836687  0
7.828008  -45.802723  -15.097815  0
7.447110  -45.895134  -14.977803  0
9.671272  -46.182354  -14.929825  0
9.961903  -45.939217  -14.673169  0
7.200869  -46.006432  -14.948535  0
7.308169  -46.022366  -14.667271  0
6.919918  -46.214149  -14.892708  0
6.468288  -46.370754  -15.144732  0
10.235799  -46.464867  -14.581175  0
9.684975  -46.688446  -14.939263  0
9.933857  -46.441212  -14.783195  0
6.873659  -46.430519  -14.532031  0
6.208996  -46.522354  -15.033718  0
6.456669  -46.532394  -14.746776  0
5.976308  -46.800163  -14.984262  0
10.311127  -47.043991  -14.574922  0
9.667248  -47.189480  -14.924798  0
9.983960  -46.888561  -14.754034  0
5.702136  -47.210426  -14.923953  0
5.894410  -47.061344  -14.653804  0
10.322065  -47.580490  -14.570600  0
9.651808  -47.693714  -14.905199  0
9.986227  -47.401020  -14.734637  0
5.637004  -47.700401  -14.841961  0
5.814540  -47.356411  -14.556521  0
10.306853  -48.088715  -14.566879  0
9.643843  -48.188835  -14.903375  0
9.968372  -47.905651  -14.724760  0
5.542936  -48.169495  -14.959136  0
10.312477  -48.580414  -14.568329  0
9.681626  -48.695194  -14.923673  0
9.968280  -48.407719  -14.728484  0
5.554390  -48.577682  -14.860490  0
10.373332  -48.997261  -14.562086  0
9.765137  -49.111065  -14.942307  0
9.980488  -49.356125  -14.853294  0
10.033115  -48.946541  -14.742805  0
5.644912  -49.018246  -14.759041  0
5.783004  -48.976162  -14.478106  0
10.090818  -49.758778  -14.881803  0
10.308724  -49.440598  -14.656585  0
5.644381  -49.482399  -14.922121  0
5.841188  -49.745491  -14.719296  0
5.825692  -49.344028  -14.584791  0
10.161319  -50.213554  -14.887311  0
10.408444  -49.974640  -14.660971  0
5.926066  -50.146534  -14.746555  0
10.160805  -50.557648  -14.798232  0
10.428126  -50.385139  -14.610023  0
9.844105  -50.833725  -14.871944  0
6.012073  -50.655453  -14.907305  0
9.579509  -51.105057  -14.742575  0
9.213045  -51.198795  -15.000607  0
8.804341  -51.442814  -15.009796  0
6.190738  -51.035046  -14.905881  0
6.406109  -51.352043  -14.846563  0
8.634649  -51.760319  -14.901782  0
8.952847  -51.640999  -14.710078  0
6.605342  -51.656425  -14.941305  0
8.533195  -51.981792  -14.865221  0
8.804651  -51.972275  -14.636006  0
8.318365  -52.270432  -14.832912  0
7.774762  -52.472427  -15.034038  0
6.690933  -51.946007  -14.838019  0
6.877611  -52.256191  -14.825250  0
8.377659  -52.590324  -14.519360  0
7.650706  -52.735130  -14.850670  0
8.002206  -52.666870  -14.727083  0
7.181644  -52.468029  -14.966022  0
7.399282  -52.732677  -14.725554  0
9.286263  -44.890839  -14.227752  0
9.005888  -44.897572  -14.344902  0
9.595301  -45.061100  -14.347998  0
9.871749  -45.256142  -14.198337  0
8.712658  -44.963013  -14.225669  0
8.507682  -45.214249  -14.529168  0
10.056276  -45.602913  -14.401331  0
8.117037  -45.474178  -14.280984  0
7.728810  -45.781872  -14.566629  0
10.264940  -45.986485  -14.401860  0
10.425229  -46.291847  -14.401999  0
10.514935  -46.103931  -14.156377  0
7.497686  -46.136265  -14.193774  0
7.150250  -46.281769  -14.460547  0
10.570103  -46.632744  -14.356163  0
10.783694  -46.430538  -14.057851  0
7.029215  -46.474659  -14.354840  0
7.201949  -46.478447  -14.173700  0
6.780904  -46.709404  -14.296578  0
6.234173  -46.872524  -14.526875  0
10.635440  -47.218147  -14.386065  0
10.860851  -46.883690  -14.137429  0
6.767646  -47.072399  -14.002244  0
6.085792  -47.178230  -14.378730  0
6.440596  -47.042629  -14.242856  0
10.638302  -47.743984  -14.384900  0
10.896371  -47.382141  -14.139805  0
6.006943  -47.394043  -14.318377  0
6.350993  -47.373688  -14.089915  0
5.931454  -47.677483  -14.315185  0
10.617910  -48.249962  -14.380549  0
10.881858  -47.890697  -14.127420  0
5.695964  -48.162762  -14.529745  0
5.959730  -48.037125  -14.130403  0
10.615740  -48.740185  -14.384760  0
10.859543  -48.401848  -14.125527  0
5.702209  -48.646271  -14.506418  0
5.857484  -48.759186  -14.275566  0
5.872041  -48.409519  -14.194821  0
10.627365  -49.228130  -14.409556  0
10.865882  -48.921349  -14.145470  0
5.965564  -49.102882  -14.278506  0
10.659124  -49.729939  -14.431280  0
10.907156  -49.450386  -14.167517  0
6.071855  -49.657860  -14.356209  0
6.304184  -49.519917  -14.025793  0
10.673478  -50.187016  -14.421802  0
10.928467  -49.967751  -14.164635  0
6.142170  -50.271729  -14.427891  0
6.327219  -49.927860  -14.085257  0
10.604014  -50.468060  -14.411133  0
10.812882  -50.444813  -14.157217  0
10.342381  -50.767635  -14.411527  0
9.901217  -51.013420  -14.534965  0
6.203868  -50.763870  -14.477656  0
6.364298  -50.462566  -14.120963  0
10.346111  -51.129387  -14.058233  0
9.676348  -51.212463  -14.468908  0
9.988111  -51.169636  -14.287341  0
9.294474  -51.383034  -14.640835  0
6.273443  -51.095757  -14.533940  0
6.368614  -51.281513  -14.468369  0
6.432010  -51.056942  -14.190667  0
10.007595  -51.476677  -14.059920  0
9.228920  -51.721718  -14.436699  0
9.621294  -51.460445  -14.309721  0
6.559562  -51.635090  -14.480426  0
6.694684  -51.491573  -14.026783  0
9.156294  -52.058334  -14.291308  0
9.586116  -51.849060  -14.106295  0
8.785378  -52.373394  -14.344154  0
6.730117  -52.093647  -14.558427  0
6.853761  -52.306236  -14.517119  0
6.880727  -52.100048  -14.209729  0
8.560071  -52.665226  -14.153620  0
8.180016  -52.767670  -14.338619  0
7.755800  -52.811756  -14.522596  0
7.089963  -52.518841  -14.521133  0
7.464148  -52.729740  -14.301516  0
7.216489  -52.490074  -14.094132  0
9.237198  -44.874207  -13.937499  0
8.963431  -44.859360  -14.057944  0
9.559320  -44.980675  -14.024674  0
9.790428  -45.203552  -13.719922  0
9.396613  -44.983849  -13.740905  0
8.735009  -44.948231  -13.965704  0
8.976394  -44.992561  -13.746111  0
8.491882  -45.196789  -13.940619  0
10.196972  -45.601105  -14.033735  0
10.495698  -45.804676  -13.748322  0
8.164048  -45.472099  -13.920186  0
8.341189  -45.491474  -13.614587  0
7.947213  -45.782509  -13.895449  0
10.706655  -46.105892  -13.887829  0
10.906703  -46.312981  -13.749171  0
7.738163  -46.180286  -13.729461  0
7.991282  -45.998543  -13.530534  0
10.981209  -46.639103  -13.867656  0
7.463145  -46.472855  -13.835366  0
7.145554  -46.785419  -13.903253  0
11.054894  -47.028236  -13.834645  0
7.041086  -47.168056  -13.663899  0
6.713929  -47.328465  -13.853023  0
11.065321  -47.517059  -13.813452  0
6.552097  -47.499298  -13.859290  0
6.748896  -47.513275  -13.685291  0
6.349796  -47.778526  -13.862930  0
11.045465  -48.018024  -13.788496  0
6.155306  -48.241825  -13.881787  0
6.484236  -48.142960  -13.609488  0
11.045183  -48.543217  -13.801021  0
6.661642  -48.495129  -13.464960  0
6.105744  -48.723778  -13.984462  0
6.356939  -48.498684  -13.696383  0
11.092691  -49.086792  -13.850383  0
6.214602  -49.202103  -14.026339  0
6.381256  -49.309238  -13.877980  0
6.500003  -49.007519  -13.681030  0
11.186270  -49.643887  -13.854046  0
11.386595  -49.540417  -13.583211  0
6.521165  -49.590870  -13.799588  0
6.774534  -49.435379  -13.531739  0
11.159559  -50.200951  -13.808125  0
11.386714  -49.876419  -13.590667  0
6.573580  -50.148762  -13.833865  0
6.804141  -49.899910  -13.581503  0
10.996227  -50.579792  -13.800700  0
10.706077  -50.825226  -13.962980  0
6.616652  -50.690609  -13.857366  0
6.846066  -50.424080  -13.604103  0
10.599635  -51.184006  -13.702252  0
10.310760  -51.375717  -13.901797  0
6.669934  -51.110226  -13.876303  0
6.801143  -51.329815  -13.808142  0
6.918075  -51.050148  -13.636922  0
10.178209  -51.552189  -13.898836  0
10.342400  -51.541992  -13.707108  0
10.010822  -51.789814  -13.845228  0
6.990866  -51.693993  -13.791574  0
7.207179  -51.481575  -13.500826  0
9.726641  -52.043636  -13.887344  0
9.891809  -52.121563  -13.627644  0
9.363436  -52.320938  -13.871253  0
8.834527  -52.567959  -13.897896  0
7.145442  -52.205158  -13.890594  0
7.308153  -52.399357  -13.856385  0
7.391816  -52.107571  -13.640394  0
9.397588  -52.572880  -13.524477  0
8.665001  -52.681728  -13.756017  0
8.965978  -52.615089  -13.620014  0
8.431965  -52.752468  -13.910183  0
8.375352  -52.645245  -13.639788  0
7.512571  -52.558693  -13.909407  0
7.930103  -52.747540  -14.036911  0
7.826866  -52.471832  -13.651854  0
9.772478  -45.304802  -13.226498  0
9.355628  -45.147774  -13.434643  0
8.818738  -45.290768  -13.412017  0
10.170785  -45.479069  -13.489248  0
10.537144  -45.721733  -13.222941  0
8.557245  -45.506226  -13.327783  0
8.834116  -45.520584  -13.090240  0
8.346973  -45.761986  -13.324228  0
10.771906  -46.009808  -13.579786  0
10.961093  -46.226631  -13.514780  0
10.980440  -46.086426  -13.207543  0
8.134789  -46.007313  -13.321603  0
8.356437  -46.012329  -13.072865  0
7.990316  -46.211399  -13.320376  0
11.139624  -46.616322  -13.429149  0
11.302917  -46.365559  -12.980556  0
7.694754  -46.439186  -13.508098  0
7.892997  -46.504753  -13.143898  0
7.483851  -46.798874  -13.432088  0
11.171323  -47.178257  -13.515409  0
7.276776  -47.194279  -13.355911  0
7.512418  -47.080711  -13.129652  0
11.182837  -47.614079  -13.424915  0
7.033118  -47.509861  -13.427662  0
7.341257  -47.490356  -13.131476  0
6.732975  -47.824284  -13.521534  0
11.174221  -48.123253  -13.404679  0
7.352804  -47.936436  -13.044365  0
6.759825  -48.132568  -13.407788  0
6.919312  -48.321579  -13.294367  0
7.048028  -47.942451  -13.264824  0
11.227892  -48.658131  -13.423739  0
11.355730  -48.509651  -13.048970  0
6.924119  -48.613720  -13.297771  0
7.230803  -48.450428  -13.113679  0
6.781352  -48.836601  -13.416768  0
11.295810  -49.203037  -13.576166  0
11.445385  -49.276688  -13.365936  0
11.397240  -48.892750  -13.213737  0
7.360335  -48.945347  -13.048944  0
6.813148  -49.115299  -13.440545  0
6.991499  -49.326862  -13.341518  0
7.053885  -48.962578  -13.253015  0
11.513283  -49.567539  -13.320116  0
7.041654  -49.691063  -13.347828  0
7.282604  -49.392857  -13.125851  0
11.514943  -49.941265  -13.239271  0
11.367881  -50.198872  -13.465420  0
7.077730  -50.165470  -13.361688  0
7.319839  -49.918091  -13.120544  0
11.185278  -50.549698  -13.399460  0
10.916142  -50.855824  -13.566609  0
7.125606  -50.685310  -13.376872  0
7.352547  -50.433086  -13.128261  0
10.802083  -51.132309  -13.313106  0
7.187162  -51.096607  -13.392423  0
7.319407  -51.306679  -13.329317  0
7.438938  -51.050571  -13.162863  0
10.561961  -51.489231  -13.270073  0
10.246587  -51.840290  -13.461256  0
7.517562  -51.659138  -13.312033  0
7.824049  -51.564861  -13.045096  0
10.084836  -52.147892  -13.175892  0
9.709731  -52.414825  -13.349615  0
8.561904  -52.543259  -13.542573  0
8.308126  -52.138908  -13.124899  0
7.721147  -52.135265  -13.420675  0
8.097016  -52.348660  -13.410293  0
7.870397  -51.978325  -13.235386  0
9.470529  -52.603649  -13.296006  0
9.219799  -52.666687  -13.424262  0
9.197249  -52.590038  -13.173799  0
8.647846  -52.550781  -13.410768  0
8.813190  -52.670307  -13.500120  0
8.794516  -52.437382  -13.116789  0
9.744138  -45.407703  -12.891312  0
9.319905  -45.362717  -13.034420  0
10.830732  -45.837029  -12.731962  0
10.099730  -45.472244  -13.019944  0
10.311894  -45.641697  -12.723869  0
9.923629  -45.527824  -12.714444  0
9.135139  -45.530903  -12.863166  0
9.468744  -45.570637  -12.699398  0
8.856736  -45.778225  -12.833917  0
11.184970  -46.069855  -12.826171  0
11.416916  -46.256653  -12.615905  0
8.589108  -46.023762  -12.818096  0
8.808372  -46.053360  -12.596416  0
8.332007  -46.268459  -12.847515  0
11.494702  -46.593891  -12.690775  0
11.374575  -46.721149  -12.988355  0
8.091205  -46.516663  -12.858163  0
8.314395  -46.520935  -12.603308  0
7.889717  -46.795807  -12.866864  0
11.311350  -47.152042  -13.095702  0
11.469338  -46.934654  -12.749782  0
7.668728  -47.228210  -12.863441  0
7.961156  -47.062252  -12.597274  0
11.300530  -47.705044  -13.023330  0
11.452457  -47.329273  -12.675529  0
7.594040  -47.673626  -12.857518  0
7.863106  -47.427471  -12.605394  0
11.300995  -48.179504  -13.039803  0
11.422171  -48.227901  -12.778905  0
11.431619  -47.826710  -12.675679  0
7.579537  -48.172802  -12.861458  0
7.839589  -47.900288  -12.621027  0
11.498118  -48.562016  -12.805859  0
7.592778  -48.687565  -12.866117  0
7.853139  -48.414474  -12.632100  0
11.565648  -49.087864  -12.955862  0
7.599785  -49.181156  -12.868465  0
7.862589  -48.926079  -12.633468  0
11.625484  -49.562634  -12.902384  0
7.585359  -49.670269  -12.875655  0
7.856623  -49.426003  -12.629691  0
11.586552  -50.004658  -12.775694  0
11.416208  -50.321678  -13.077535  0
7.598425  -50.178295  -12.874791  0
7.858739  -49.931797  -12.626964  0
11.214887  -50.727924  -12.782083  0
11.003746  -50.923584  -13.107341  0
7.637267  -50.694580  -12.895364  0
7.918920  -50.492939  -12.624480  0
10.784598  -51.276917  -12.834761  0
10.987711  -51.042980  -12.670872  0
8.204221  -50.953167  -12.497133  0
7.728976  -51.118610  -12.915624  0
7.962550  -51.374512  -12.824607  0
7.937248  -51.013988  -12.721876  0
10.558351  -51.599236  -12.761321  0
10.361216  -51.855339  -12.963912  0
8.130555  -51.698200  -12.878934  0
8.331396  -51.875477  -12.848890  0
8.334723  -51.547276  -12.636645  0
10.133585  -52.118622  -12.680761  0
9.858657  -52.330269  -12.857883  0
9.524454  -52.481197  -12.985623  0
8.604862  -52.074623  -12.821349  0
9.092698  -52.317890  -12.768420  0
8.772888  -51.952194  -12.535141  0
10.920742  -45.864655  -12.288688  0
10.486463  -45.801289  -12.304091  0
9.869676  -45.752792  -12.421340  0
9.270897  -45.870773  -12.475084  0
11.199277  -46.005730  -12.452806  0
11.435616  -46.242626  -12.219998  0
10.489117  -45.926521  -11.977244  0
10.024527  -46.033417  -12.043932  0
9.048003  -46.137650  -12.338434  0
9.457335  -46.079266  -12.199495  0
8.678552  -46.313259  -12.453202  0
11.554313  -46.484898  -12.395320  0
9.507174  -46.358475  -11.957903  0
8.575305  -46.506660  -12.360809  0
8.942730  -46.457958  -12.157460  0
8.359190  -46.793381  -12.354085  0
11.568623  -46.910824  -12.374551  0
8.151378  -47.215202  -12.338966  0
8.424093  -47.089596  -12.109296  0
11.567974  -47.467800  -12.299486  0
8.088020  -47.651554  -12.354768  0
8.349891  -47.441296  -12.094841  0
11.582738  -48.056217  -12.389196  0
8.087747  -48.147934  -12.374130  0
8.324249  -47.902645  -12.104565  0
11.670285  -48.603230  -12.402551  0
8.100342  -48.662106  -12.382577  0
8.323859  -48.406612  -12.116355  0
11.709901  -49.131248  -12.448334  0
8.105227  -49.172142  -12.381152  0
8.332376  -48.918587  -12.121710  0
11.707356  -49.618267  -12.383637  0
8.116245  -49.685123  -12.378961  0
8.357254  -49.437038  -12.125507  0
11.630798  -50.106651  -12.199658  0
11.456127  -50.419685  -12.565505  0
8.142761  -50.189438  -12.392277  0
8.430614  -49.998734  -12.125587  0
11.279048  -50.750389  -12.243748  0
11.470704  -50.498077  -12.127071  0
8.701230  -50.437218  -11.990105  0
8.202416  -50.587685  -12.402643  0
8.407497  -50.850590  -12.300878  0
8.424622  -50.498390  -12.212494  0
11.049502  -51.010330  -12.306315  0
10.823573  -51.249668  -12.334420  0
8.537953  -51.271969  -12.329786  0
8.731927  -50.957199  -12.081316  0
10.606419  -51.506226  -12.370857  0
10.322180  -51.811756  -12.360587  0
10.455584  -51.604198  -12.108715  0
8.678958  -51.669437  -12.380733  0
8.862351  -51.854416  -12.336284  0
8.948799  -51.611370  -12.140713  0
10.032978  -52.076439  -12.298861  0
9.886899  -52.234306  -12.473557  0
9.736937  -52.093544  -12.160243  0
9.090791  -52.042988  -12.371140  0
9.526435  -52.268879  -12.504089  0
9.358473  -51.963066  -12.109021  0
10.776896  -45.885910  -12.011206  0
11.110623  -46.082993  -11.947597  0
11.403260  -46.353127  -11.852691  0
10.640882  -45.955673  -11.862008  0
10.779034  -46.031128  -11.799966  0
10.378176  -46.188194  -11.760182  0
9.880715  -46.341427  -11.828519  0
11.558133  -46.589096  -12.041698  0
11.448521  -46.702911  -11.620531  0
10.334679  -46.579277  -11.516260  0
9.565433  -46.597794  -11.786262  0
9.912464  -46.607113  -11.667220  0
9.170948  -46.714283  -11.870424  0
8.731850  -46.874939  -11.998240  0
11.602606  -47.111374  -11.848294  0
11.495440  -47.082439  -11.409788  0
9.918891  -47.008533  -11.489168  0
9.401008  -46.981369  -11.679041  0
8.646105  -47.239002  -11.901252  0
8.958928  -47.037766  -11.803601  0
11.662034  -47.651764  -11.942878  0
9.869728  -47.370880  -11.371933  0
9.441796  -47.477417  -11.503109  0
8.609560  -47.667492  -11.863890  0
8.971821  -47.388397  -11.710762  0
11.773289  -48.125271  -11.853644  0
11.896723  -48.030247  -11.464013  0
8.577758  -48.161705  -11.853992  0
8.956158  -47.899704  -11.613747  0
11.796175  -48.733879  -11.848701  0
11.926694  -48.328102  -11.516325  0
8.558764  -48.671101  -11.858463  0
8.827001  -48.430428  -11.612475  0
11.761782  -49.256828  -11.979663  0
8.585064  -49.191017  -11.866867  0
8.818517  -48.938931  -11.614220  0
11.761782  -49.681759  -11.745996  0
11.878140  -49.501743  -11.382627  0
8.641065  -49.702682  -11.891635  0
8.918378  -49.520317  -11.622541  0
11.674908  -50.067829  -11.806462  0
9.284580  -50.046104  -11.501266  0
8.716562  -50.095615  -11.906978  0
8.914648  -50.349064  -11.815722  0
8.936814  -50.023899  -11.727623  0
11.544824  -50.371059  -11.770805  0
11.314338  -50.695190  -11.774826  0
11.422654  -50.557472  -11.579202  0
9.699576  -50.650257  -11.467143  0
9.014426  -50.740650  -11.826165  0
9.206955  -50.463749  -11.653732  0
11.056215  -50.967541  -11.889804  0
10.861247  -51.174290  -11.996581  0
10.729421  -51.094322  -11.670340  0
10.576741  -51.372517  -11.952806  0
10.212233  -51.150951  -11.575871  0
9.737926  -51.170895  -11.576596  0
9.138431  -51.245010  -11.849378  0
9.384808  -50.963497  -11.649921  0
10.248192  -51.596092  -11.901661  0
9.976883  -51.868343  -11.997120  0
9.879903  -51.541092  -11.712168  0
9.295182  -51.648350  -11.885331  0
9.612810  -51.804493  -11.868379  0
9.499715  -51.426548  -11.705286  0
10.785611  -46.328007  -11.565765  0
11.178472  -46.455238  -11.540485  0
10.595428  -46.640282  -11.359905  0
10.874270  -46.677242  -11.288283  0
10.325481  -46.852074  -11.366027  0
11.187489  -46.942406  -11.202575  0
11.422925  -47.254234  -11.155405  0
10.786717  -47.021004  -11.101172  0
10.183469  -47.163525  -11.300350  0
10.540027  -46.934444  -11.222925  0
11.655998  -47.611309  -11.368904  0
11.878256  -47.994888  -11.249475  0
11.440884  -47.450428  -11.051181  0
10.054385  -47.415649  -11.255718  0
10.379670  -47.369389  -11.075272  0
9.799849  -47.703209  -11.230902  0
9.335567  -47.889534  -11.401899  0
11.982650  -48.179523  -11.327161  0
11.903422  -48.220951  -11.143122  0
9.764177  -48.132603  -11.052405  0
9.147384  -48.234959  -11.404433  0
9.466898  -48.078041  -11.254447  0
11.972273  -48.350838  -11.276638  0
11.818465  -48.599621  -11.287542  0
11.896747  -48.400642  -11.147913  0
9.720289  -48.571095  -10.984680  0
9.083271  -48.676411  -11.389573  0
9.401587  -48.421795  -11.200295  0
11.688403  -49.188927  -11.336997  0
11.877657  -49.455280  -11.253859  0
11.298494  -49.054623  -10.929660  0
11.031669  -49.085457  -10.772913  0
9.743597  -49.072620  -10.977475  0
9.118315  -49.175083  -11.393539  0
9.391559  -48.886154  -11.180515  0
11.941084  -49.538116  -11.280444  0
11.806730  -49.671432  -11.307923  0
11.893296  -49.544395  -11.219632  0
9.903147  -49.561596  -10.977047  0
9.224640  -49.608547  -11.404628  0
9.470433  -49.860954  -11.322171  0
9.491931  -49.450928  -11.198672  0
11.607190  -50.057449  -11.455934  0
11.447793  -50.399746  -11.445950  0
11.228271  -50.240807  -11.157540  0
10.715663  -50.157272  -10.975657  0
10.242180  -49.936977  -10.955712  0
9.636348  -50.196503  -11.342074  0
9.936983  -50.401878  -11.276855  0
9.841540  -49.984947  -11.166063  0
11.244443  -50.588757  -11.407697  0
10.989192  -50.830910  -11.511479  0
10.870454  -50.543587  -11.211545  0
10.163402  -50.707363  -11.335118  0
10.569480  -50.822903  -11.364107  0
10.339545  -50.391766  -11.150699  0
10.863087  -47.317162  -10.926292  0
11.222445  -47.366615  -10.942301  0
11.380619  -47.692486  -10.920678  0
10.581528  -47.624035  -10.818276  0
10.947051  -47.728645  -10.739910  0
10.185825  -47.829453  -10.916984  0
11.658273  -47.997520  -11.023680  0
11.232557  -48.144226  -10.746810  0
10.792714  -48.151543  -10.623732  0
10.102463  -48.259834  -10.813128  0
10.506134  -47.978600  -10.699597  0
11.645856  -48.389664  -10.973880  0
11.482413  -48.779888  -10.983172  0
11.265654  -48.551411  -10.771564  0
11.105940  -48.844105  -10.763402  0
10.862391  -48.579716  -10.647377  0
10.074115  -48.752224  -10.790528  0
10.453361  -48.435555  -10.654502  0
11.224929  -49.317951  -10.897965  0
10.832856  -48.951069  -10.682892  0
10.849423  -49.183453  -10.723398  0
10.100657  -49.246918  -10.809306  0
10.512011  -49.011593  -10.684284  0
11.650599  -49.524807  -11.109869  0
11.469909  -49.846970  -11.084311  0
11.254628  -49.623734  -10.889756  0
11.018335  -49.876919  -10.882105  0
10.813602  -49.478889  -10.753345  0
10.206489  -49.611267  -10.829690  0
10.550281  -49.774811  -10.808002  0
10.402480  -49.440918  -10.738288  0
6 13 0 0
1 8 0 0
0 8 6 0
2 10 1 0
1 10 8 0
2 15 10 0
0 13 3 0
3 13 17 0
0 4 1 0
0 3 4 0
1 5 2 0
1 4 5 0
15 2 21 0
21 2 5 0
17 19 3 0
3 19 4 0
4 19 20 0
4 20 5 0
5 20 22 0
5 22 21 0
40 48 7 0
9 42 7 0
7 42 40 0
11 44 9 0
9 44 42 0
11 51 44 0
46 53 12 0
14 49 12 0
12 49 46 0
49 14 48 0
48 14 7 0
14 13 7 0
13 6 7 0
7 6 8 0
7 8 9 0
9 8 10 0
9 10 11 0
16 52 15 0
15 52 10 0
52 51 10 0
51 11 10 0
16 56 52 0
53 55 12 0
59 18 55 0
18 12 55 0
18 14 12 0
18 17 13 0
18 13 14 0
21 23 16 0
21 16 15 0
56 16 62 0
62 16 23 0
59 61 18 0
61 66 24 0
61 24 19 0
18 61 19 0
17 18 19 0
25 20 19 0
25 19 24 0
26 22 20 0
26 20 25 0
26 68 22 0
22 68 21 0
68 63 21 0
63 23 21 0
23 63 62 0
24 66 27 0
27 66 73 0
24 28 25 0
24 27 28 0
69 26 76 0
26 28 76 0
26 25 28 0
26 69 68 0
73 75 27 0
27 75 28 0
28 75 77 0
28 77 76 0
82 85 29 0
29 87 82 0
29 85 30 0
30 85 94 0
87 29 88 0
29 31 88 0
29 30 31 0
32 90 31 0
31 90 88 0
32 97 90 0
95 100 33 0
95 33 94 0
33 30 94 0
33 34 30 0
30 35 31 0
30 34 35 0
31 36 32 0
31 35 36 0
97 32 103 0
103 32 36 0
101 105 37 0
101 37 100 0
37 33 100 0
37 38 33 0
33 39 34 0
33 38 39 0
34 41 35 0
34 39 41 0
35 43 36 0
35 41 43 0
103 36 107 0
107 36 43 0
37 105 45 0
45 105 110 0
37 47 38 0
37 45 47 0
38 50 39 0
38 47 50 0
50 48 40 0
41 50 40 0
39 50 41 0
41 40 42 0
41 42 43 0
108 107 43 0
42 108 43 0
44 108 42 0
44 51 108 0
108 51 112 0
45 110 54 0
54 110 114 0
54 53 46 0
47 54 46 0
45 54 47 0
47 46 49 0
47 49 50 0
50 49 48 0
113 112 51 0
113 51 52 0
52 56 113 0
113 56 117 0
115 119 57 0
115 57 114 0
57 54 114 0
57 58 54 0
60 55 53 0
54 60 53 0
58 60 54 0
60 59 55 0
62 117 56 0
62 122 117 0
119 121 57 0
125 64 121 0
64 57 121 0
64 58 57 0
58 65 60 0
58 64 65 0
67 61 59 0
60 67 59 0
65 67 60 0
67 66 61 0
128 123 63 0
128 63 68 0
62 63 122 0
122 63 123 0
126 129 70 0
126 70 125 0
70 64 125 0
70 71 64 0
64 72 65 0
64 71 72 0
65 74 67 0
65 72 74 0
74 73 66 0
74 66 67 0
76 78 69 0
78 135 69 0
135 68 69 0
135 128 68 0
129 131 70 0
70 131 71 0
71 131 132 0
71 132 72 0
72 132 133 0
72 133 74 0
74 133 134 0
134 140 79 0
134 79 75 0
74 134 75 0
73 74 75 0
80 77 75 0
80 75 79 0
80 143 77 0
77 143 76 0
143 136 76 0
136 78 76 0
78 136 135 0
140 142 79 0
79 142 80 0
80 142 144 0
80 144 143 0
149 153 81 0
81 155 149 0
151 156 83 0
83 159 151 0
81 153 84 0
84 153 163 0
155 81 157 0
81 86 157 0
81 84 86 0
157 86 156 0
156 86 83 0
86 85 83 0
85 82 83 0
89 160 87 0
87 160 82 0
160 159 82 0
159 83 82 0
91 161 89 0
89 161 160 0
91 166 161 0
164 168 92 0
164 92 163 0
92 84 163 0
92 93 84 0
84 96 86 0
84 93 96 0
96 94 85 0
96 85 86 0
88 89 87 0
89 88 90 0
89 90 91 0
98 167 97 0
97 167 90 0
167 166 90 0
166 91 90 0
98 170 167 0
92 168 99 0
99 168 171 0
92 102 93 0
92 99 102 0
102 100 95 0
96 102 95 0
93 102 96 0
96 95 94 0
103 104 98 0
103 98 97 0
170 98 173 0
173 98 104 0
99 171 106 0
106 171 174 0
106 105 101 0
102 106 101 0
99 106 102 0
102 101 100 0
107 109 104 0
107 104 103 0
173 104 176 0
176 104 109 0
106 174 111 0
111 174 177 0
111 110 105 0
111 105 106 0
108 109 107 0
108 112 109 0
112 176 109 0
112 179 176 0
111 177 116 0
116 177 180 0
116 114 110 0
116 110 111 0
112 113 118 0
183 112 118 0
179 112 183 0
117 118 113 0
181 185 120 0
181 120 180 0
180 120 116 0
120 119 116 0
119 115 116 0
116 115 114 0
184 183 118 0
118 117 184 0
117 187 184 0
117 122 187 0
120 185 124 0
124 185 190 0
127 121 119 0
120 127 119 0
124 127 120 0
127 125 121 0
192 188 123 0
192 123 128 0
122 123 187 0
187 123 188 0
124 190 130 0
130 190 194 0
130 129 126 0
127 130 126 0
124 130 127 0
127 126 125 0
135 192 128 0
135 197 192 0
194 196 130 0
196 200 137 0
196 137 131 0
130 196 131 0
129 130 131 0
138 132 131 0
138 131 137 0
139 133 132 0
139 132 138 0
141 134 133 0
141 133 139 0
141 140 134 0
206 198 136 0
206 136 143 0
135 136 197 0
197 136 198 0
200 202 137 0
137 202 138 0
138 202 203 0
138 203 139 0
139 203 204 0
209 145 204 0
145 139 204 0
145 141 139 0
141 145 140 0
145 205 140 0
205 142 140 0
145 211 205 0
142 207 144 0
205 207 142 0
143 144 206 0
206 144 207 0
145 209 146 0
146 209 214 0
211 145 216 0
216 145 146 0
214 217 146 0
146 217 216 0
220 225 147 0
148 222 147 0
147 222 220 0
150 224 148 0
148 224 222 0
150 227 224 0
147 225 152 0
152 225 230 0
147 154 148 0
147 152 154 0
154 153 149 0
150 154 149 0
148 154 150 0
158 228 155 0
155 228 149 0
228 227 149 0
227 150 149 0
156 151 158 0
151 228 158 0
151 229 228 0
151 159 229 0
229 159 232 0
152 230 162 0
162 230 237 0
152 165 154 0
152 162 165 0
165 163 153 0
165 153 154 0
157 158 155 0
158 157 156 0
234 232 159 0
234 159 160 0
235 160 161 0
235 234 160 0
161 166 235 0
235 166 240 0
162 237 169 0
169 237 244 0
169 168 164 0
165 169 164 0
162 169 165 0
165 164 163 0
242 240 166 0
242 166 167 0
167 170 242 0
242 170 246 0
169 244 172 0
172 244 249 0
172 171 168 0
172 168 169 0
173 246 170 0
173 251 246 0
172 249 175 0
175 249 254 0
175 174 171 0
175 171 172 0
176 251 173 0
176 256 251 0
175 254 178 0
178 254 258 0
178 177 174 0
178 174 175 0
179 256 176 0
179 260 256 0
178 258 182 0
182 258 262 0
182 180 177 0
182 177 178 0
183 260 179 0
183 265 260 0
263 267 186 0
263 186 262 0
262 186 182 0
186 185 182 0
185 181 182 0
182 181 180 0
183 184 189 0
269 183 189 0
265 183 269 0
187 189 184 0
186 267 191 0
191 267 272 0
191 190 185 0
191 185 186 0
274 270 193 0
193 270 269 0
193 269 189 0
192 193 189 0
188 192 189 0
188 189 187 0
191 272 195 0
195 272 275 0
195 194 190 0
195 190 191 0
274 193 199 0
274 199 278 0
197 199 192 0
192 199 193 0
275 277 195 0
277 279 201 0
277 201 196 0
195 277 196 0
194 195 196 0
201 200 196 0
278 199 198 0
206 278 198 0
282 278 206 0
198 199 197 0
279 280 201 0
201 280 200 0
280 202 200 0
280 281 202 0
281 284 208 0
203 281 208 0
202 281 203 0
210 204 203 0
210 203 208 0
210 209 204 0
211 212 205 0
205 212 286 0
283 205 286 0
207 205 283 0
206 207 282 0
282 207 283 0
208 284 213 0
213 284 287 0
208 215 210 0
208 213 215 0
215 214 209 0
215 209 210 0
216 218 212 0
216 212 211 0
286 212 291 0
291 212 218 0
287 289 213 0
213 289 215 0
215 289 290 0
290 294 219 0
290 219 217 0
215 290 217 0
214 215 217 0
219 296 217 0
217 296 216 0
296 292 216 0
292 218 216 0
218 292 291 0
294 297 219 0
219 297 296 0
298 300 221 0
223 299 221 0
221 299 298 0
223 302 299 0
301 304 226 0
301 226 300 0
300 226 221 0
226 225 221 0
225 220 221 0
221 220 222 0
221 222 223 0
303 302 223 0
222 303 223 0
224 303 222 0
224 227 303 0
303 227 305 0
226 304 231 0
231 304 307 0
231 230 225 0
231 225 226 0
306 305 227 0
306 227 228 0
310 306 233 0
306 229 233 0
306 228 229 0
232 233 229 0
308 312 236 0
308 236 307 0
236 231 307 0
236 238 231 0
238 237 230 0
238 230 231 0
311 310 233 0
314 311 239 0
239 311 234 0
311 233 234 0
233 232 234 0
235 241 234 0
234 241 239 0
240 241 235 0
236 312 243 0
243 312 318 0
236 245 238 0
236 243 245 0
245 244 237 0
245 237 238 0
316 314 239 0
316 239 241 0
316 241 317 0
321 317 247 0
247 317 242 0
317 241 242 0
241 240 242 0
246 247 242 0
243 318 248 0
248 318 323 0
243 250 245 0
243 248 250 0
250 249 244 0
250 244 245 0
321 247 252 0
321 252 325 0
251 252 246 0
246 252 247 0
248 323 253 0
253 323 328 0
248 255 250 0
248 253 255 0
255 254 249 0
255 249 250 0
327 325 252 0
252 251 327 0
251 330 327 0
251 256 330 0
253 328 257 0
257 328 332 0
253 259 255 0
253 257 259 0
259 258 254 0
259 254 255 0
260 330 256 0
260 334 330 0
257 332 261 0
261 332 337 0
257 264 259 0
257 261 264 0
264 262 258 0
264 258 259 0
339 335 266 0
335 334 266 0
334 265 266 0
334 260 265 0
261 337 268 0
268 337 340 0
268 267 263 0
264 268 263 0
261 268 264 0
264 263 262 0
339 266 271 0
339 271 342 0
269 271 265 0
265 271 266 0
268 340 273 0
273 340 344 0
273 272 267 0
273 267 268 0
342 271 270 0
274 342 270 0
346 342 274 0
270 271 269 0
273 344 276 0
276 344 348 0
276 275 272 0
276 272 273 0
278 346 274 0
278 352 346 0
348 350 276 0
276 350 275 0
350 277 275 0
350 351 277 0
279 277 351 0
279 351 355 0
282 352 278 0
282 358 352 0
355 357 279 0
279 357 280 0
357 362 285 0
281 357 285 0
280 357 281 0
285 284 281 0
364 359 283 0
364 283 286 0
282 283 358 0
358 283 359 0
285 362 288 0
288 362 366 0
288 287 284 0
288 284 285 0
291 364 286 0
291 369 364 0
366 368 288 0
368 372 293 0
368 293 289 0
288 368 289 0
287 288 289 0
295 290 289 0
295 289 293 0
295 294 290 0
375 370 292 0
375 292 296 0
291 292 369 0
369 292 370 0
372 373 293 0
293 373 295 0
295 373 374 0
295 374 294 0
374 297 294 0
374 376 297 0
296 297 375 0
375 297 376 0
378 380 298 0
298 380 300 0
379 298 299 0
379 378 298 0
299 302 379 0
379 302 383 0
381 386 301 0
301 386 304 0
301 300 380 0
301 380 381 0
385 383 302 0
385 302 303 0
303 305 385 0
385 305 388 0
387 391 309 0
386 387 309 0
307 386 309 0
304 386 307 0
390 388 305 0
390 305 306 0
306 310 390 0
390 310 393 0
392 395 313 0
392 313 391 0
391 313 309 0
313 312 309 0
312 308 309 0
309 308 307 0
310 311 315 0
396 310 315 0
393 310 396 0
314 315 311 0
313 395 319 0
319 395 398 0
319 318 312 0
319 312 313 0
397 396 315 0
399 397 320 0
320 397 316 0
397 315 316 0
315 314 316 0
317 322 316 0
316 322 320 0
321 322 317 0
319 398 324 0
324 398 401 0
324 323 318 0
324 318 319 0
400 399 320 0
326 402 400 0
320 326 400 0
322 326 320 0
325 326 321 0
321 326 322 0
324 401 329 0
329 401 405 0
329 328 323 0
329 323 324 0
404 402 326 0
406 404 331 0
331 404 327 0
404 326 327 0
326 325 327 0
330 331 327 0
329 405 333 0
333 405 408 0
333 332 328 0
333 328 329 0
406 331 336 0
406 336 410 0
334 336 330 0
330 336 331 0
333 408 338 0
338 408 412 0
338 337 332 0
338 332 333 0
410 336 335 0
339 410 335 0
413 410 339 0
335 336 334 0
338 412 341 0
341 412 416 0
341 340 337 0
341 337 338 0
418 414 343 0
414 413 343 0
413 342 343 0
413 339 342 0
341 416 345 0
345 416 420 0
345 344 340 0
345 340 341 0
418 343 347 0
418 347 422 0
346 347 342 0
342 347 343 0
345 420 349 0
349 420 424 0
349 348 344 0
349 344 345 0
422 347 353 0
422 353 426 0
352 353 346 0
346 353 347 0
424 425 349 0
425 428 354 0
425 354 350 0
349 425 350 0
348 349 350 0
356 351 350 0
356 350 354 0
356 355 351 0
426 353 360 0
426 360 430 0
358 360 352 0
352 360 353 0
428 429 354 0
433 361 429 0
361 354 429 0
361 356 354 0
363 357 355 0
356 363 355 0
361 363 356 0
363 362 357 0
436 431 365 0
365 431 430 0
365 430 360 0
364 365 360 0
359 364 360 0
359 360 358 0
433 435 361 0
438 367 435 0
367 361 435 0
367 363 361 0
367 366 362 0
367 362 363 0
436 365 371 0
436 371 442 0
369 371 364 0
364 371 365 0
438 440 367 0
367 440 366 0
440 368 366 0
440 441 368 0
372 368 441 0
372 441 446 0
450 443 377 0
377 443 442 0
377 442 371 0
375 377 371 0
370 375 371 0
370 371 369 0
446 448 372 0
372 448 373 0
373 451 374 0
448 451 373 0
377 376 450 0
376 451 450 0
376 374 451 0
376 377 375 0
382 380 378 0
379 384 378 0
378 384 382 0
383 384 379 0
453 456 381 0
381 456 386 0
381 380 382 0
454 381 382 0
453 381 454 0
454 382 384 0
454 384 455 0
458 455 389 0
389 455 385 0
455 384 385 0
384 383 385 0
388 389 385 0
457 461 387 0
387 461 391 0
387 386 456 0
387 456 457 0
460 458 389 0
464 460 394 0
394 460 390 0
460 389 390 0
389 388 390 0
393 394 390 0
462 467 392 0
392 467 395 0
392 391 461 0
392 461 462 0
466 464 394 0
394 393 466 0
393 469 466 0
393 396 469 0
467 398 395 0
472 398 467 0
471 469 396 0
471 396 397 0
397 399 471 0
471 399 473 0
472 401 398 0
475 401 472 0
399 400 403 0
476 399 403 0
473 399 476 0
402 403 400 0
475 405 401 0
479 405 475 0
478 476 403 0
481 478 407 0
407 478 404 0
478 403 404 0
403 402 404 0
406 407 404 0
479 408 405 0
484 408 479 0
486 482 409 0
409 482 481 0
407 409 481 0
411 409 407 0
410 411 406 0
406 411 407 0
484 412 408 0
489 412 484 0
488 486 409 0
415 493 488 0
409 415 488 0
411 415 409 0
413 415 410 0
410 415 411 0
490 496 417 0
489 490 417 0
416 489 417 0
412 489 416 0
497 494 419 0
419 494 493 0
419 493 415 0
418 419 415 0
414 418 415 0
414 415 413 0
417 496 421 0
421 496 499 0
421 420 416 0
421 416 417 0
497 419 423 0
497 423 501 0
422 423 418 0
418 423 419 0
499 500 421 0
420 421 500 0
503 420 500 0
424 420 503 0
501 423 427 0
501 427 505 0
426 427 422 0
422 427 423 0
503 504 424 0
424 504 425 0
428 425 504 0
428 504 507 0
505 427 432 0
505 432 508 0
430 432 426 0
426 432 427 0
429 428 434 0
428 511 434 0
428 507 511 0
434 433 429 0
513 509 437 0
437 509 508 0
437 508 432 0
436 437 432 0
431 436 432 0
431 432 430 0
511 512 434 0
512 515 439 0
512 439 435 0
434 512 435 0
433 434 435 0
439 438 435 0
513 437 444 0
513 444 519 0
442 444 436 0
436 444 437 0
515 516 439 0
516 522 445 0
516 445 440 0
439 516 440 0
438 439 440 0
447 441 440 0
447 440 445 0
517 447 525 0
517 441 447 0
517 449 446 0
441 517 446 0
520 452 449 0
520 449 517 0
452 520 519 0
452 519 444 0
450 452 444 0
443 450 444 0
443 444 442 0
522 523 445 0
445 523 447 0
447 523 526 0
526 449 525 0
526 448 449 0
526 447 446 0
448 526 446 0
448 449 451 0
451 449 452 0
451 452 450 0
528 531 453 0
453 531 456 0
529 453 454 0
529 528 453 0
534 529 459 0
529 455 459 0
529 454 455 0
458 459 455 0
530 537 463 0
461 457 463 0
457 530 463 0
457 532 530 0
457 456 531 0
457 531 532 0
536 534 459 0
539 536 465 0
465 536 460 0
536 459 460 0
459 458 460 0
464 465 460 0
538 542 468 0
538 468 537 0
537 468 463 0
468 467 463 0
467 462 463 0
463 462 461 0
541 539 465 0
544 541 470 0
470 541 466 0
541 465 466 0
465 464 466 0
469 470 466 0
542 543 468 0
467 468 543 0
547 467 543 0
472 467 547 0
546 544 470 0
549 546 474 0
474 546 471 0
546 470 471 0
470 469 471 0
473 474 471 0
547 475 472 0
551 475 547 0
549 474 477 0
549 477 553 0
476 477 473 0
473 477 474 0
551 479 475 0
555 479 551 0
553 477 480 0
553 480 558 0
478 483 476 0
483 477 476 0
483 480 477 0
481 483 478 0
556 560 485 0
555 556 485 0
484 555 485 0
479 555 484 0
558 480 487 0
558 487 561 0
486 487 482 0
487 483 482 0
487 480 483 0
482 483 481 0
485 560 491 0
491 560 563 0
491 489 484 0
491 484 485 0
561 487 492 0
561 492 564 0
488 495 486 0
495 487 486 0
495 492 487 0
493 495 488 0
491 563 490 0
563 496 490 0
563 566 496 0
491 490 489 0
564 492 498 0
564 498 567 0
497 498 494 0
498 495 494 0
498 492 495 0
494 495 493 0
566 499 496 0
569 499 566 0
567 498 502 0
567 502 571 0
501 502 497 0
497 502 498 0
569 570 499 0
499 570 500 0
503 500 570 0
503 570 573 0
571 502 506 0
571 506 575 0
505 506 501 0
501 506 502 0
573 574 503 0
503 574 504 0
507 504 574 0
507 574 577 0
575 506 510 0
575 510 580 0
508 510 505 0
505 510 506 0
577 511 507 0
583 511 577 0
585 581 514 0
514 581 580 0
514 580 510 0
513 514 510 0
509 513 510 0
509 510 508 0
583 584 511 0
511 584 512 0
515 512 584 0
515 584 588 0
591 586 518 0
518 586 585 0
514 518 585 0
521 518 514 0
519 521 513 0
513 521 514 0
588 589 515 0
515 589 516 0
590 524 522 0
516 590 522 0
589 590 516 0
592 527 524 0
592 524 590 0
527 592 591 0
527 591 518 0
525 527 518 0
517 525 518 0
517 518 520 0
520 518 521 0
520 521 519 0
524 523 522 0
523 524 526 0
526 524 527 0
526 527 525 0
533 531 528 0
529 535 528 0
528 535 533 0
534 535 529 0
594 598 530 0
530 598 537 0
595 530 532 0
595 594 530 0
532 531 533 0
596 532 533 0
595 532 596 0
596 533 535 0
596 535 597 0
602 597 540 0
540 597 536 0
597 535 536 0
535 534 536 0
539 540 536 0
599 605 538 0
538 605 542 0
538 537 598 0
538 598 599 0
604 602 540 0
607 604 545 0
545 604 541 0
604 540 541 0
540 539 541 0
544 545 541 0
543 542 548 0
542 610 548 0
542 605 610 0
548 547 543 0
609 607 545 0
611 609 550 0
550 609 546 0
609 545 546 0
545 544 546 0
549 550 546 0
548 610 552 0
552 610 613 0
552 551 547 0
552 547 548 0
611 550 554 0
611 554 614 0
553 554 549 0
549 554 550 0
552 613 557 0
557 613 616 0
557 555 551 0
557 551 552 0
614 554 559 0
614 559 617 0
558 559 553 0
553 559 554 0
557 616 556 0
616 560 556 0
616 619 560 0
557 556 555 0
617 559 562 0
617 562 620 0
561 562 558 0
558 562 559 0
619 563 560 0
622 563 619 0
620 562 565 0
620 565 623 0
564 565 561 0
561 565 562 0
622 566 563 0
625 566 622 0
623 565 568 0
623 568 626 0
567 568 564 0
564 568 565 0
625 569 566 0
628 569 625 0
626 568 572 0
626 572 630 0
571 572 567 0
567 572 568 0
628 629 569 0
569 629 570 0
573 570 629 0
573 629 632 0
630 572 576 0
630 576 635 0
575 576 571 0
571 576 572 0
574 573 578 0
573 638 578 0
573 632 638 0
578 577 574 0
640 636 579 0
579 636 635 0
576 579 635 0
582 579 576 0
580 582 575 0
575 582 576 0
638 639 578 0
577 578 639 0
642 577 639 0
583 577 642 0
640 579 587 0
640 587 645 0
585 587 581 0
587 582 581 0
587 579 582 0
581 582 580 0
642 643 583 0
583 643 584 0
588 584 643 0
588 643 648 0
651 646 593 0
593 646 645 0
593 645 587 0
591 593 587 0
586 591 587 0
586 587 585 0
648 649 588 0
588 649 589 0
589 652 590 0
649 652 589 0
593 592 651 0
592 652 651 0
592 590 652 0
592 593 591 0
654 655 594 0
594 655 598 0
657 654 600 0
654 595 600 0
654 594 595 0
596 601 595 0
595 601 600 0
597 603 596 0
596 603 601 0
602 603 597 0
656 661 599 0
599 661 605 0
599 598 655 0
599 655 656 0
659 657 600 0
659 600 601 0
659 601 660 0
606 664 660 0
601 606 660 0
603 606 601 0
604 608 602 0
608 603 602 0
608 606 603 0
607 608 604 0
661 610 605 0
668 610 661 0
666 664 606 0
666 606 608 0
666 608 667 0
672 667 612 0
612 667 609 0
667 608 609 0
608 607 609 0
611 612 609 0
668 613 610 0
674 613 668 0
672 612 615 0
672 615 677 0
614 615 611 0
611 615 612 0
674 616 613 0
679 616 674 0
677 615 618 0
677 618 681 0
617 618 614 0
614 618 615 0
679 619 616 0
683 619 679 0
681 618 621 0
681 621 685 0
620 621 617 0
617 621 618 0
683 622 619 0
687 622 683 0
685 621 624 0
685 624 688 0
623 624 620 0
620 624 621 0
687 625 622 0
690 625 687 0
688 624 627 0
688 627 692 0
626 627 623 0
623 627 624 0
690 628 625 0
694 628 690 0
692 627 631 0
692 631 696 0
630 631 626 0
626 631 627 0
629 628 633 0
628 699 633 0
628 694 699 0
633 632 629 0
703 697 634 0
634 697 696 0
631 634 696 0
637 634 631 0
635 637 630 0
630 637 631 0
699 700 633 0
632 633 700 0
705 632 700 0
638 632 705 0
703 634 641 0
703 641 711 0
640 641 636 0
641 637 636 0
641 634 637 0
636 637 635 0
705 706 638 0
638 706 639 0
708 644 642 0
639 708 642 0
706 708 639 0
713 644 708 0
711 641 647 0
711 647 716 0
645 647 640 0
640 647 641 0
644 643 642 0
714 650 648 0
714 648 643 0
713 714 643 0
644 713 643 0
717 653 650 0
717 650 714 0
653 717 716 0
653 716 647 0
651 653 647 0
646 651 647 0
646 647 645 0
650 649 648 0
649 650 652 0
652 650 653 0
652 653 651 0
658 655 654 0
657 658 654 0
662 661 656 0
720 662 656 0
720 656 655 0
719 720 655 0
658 719 655 0
721 719 663 0
663 719 659 0
719 658 659 0
658 657 659 0
660 665 659 0
659 665 663 0
664 665 660 0
669 668 662 0
662 668 661 0
662 720 724 0
662 724 669 0
723 721 663 0
670 727 723 0
663 670 723 0
665 670 663 0
666 671 664 0
671 665 664 0
671 670 665 0
667 673 666 0
666 673 671 0
672 673 667 0
725 729 669 0
729 668 669 0
729 674 668 0
725 669 724 0
727 670 675 0
727 675 732 0
676 670 671 0
675 670 676 0
678 671 673 0
676 671 678 0
677 678 672 0
672 678 673 0
730 736 680 0
729 730 680 0
679 729 680 0
674 729 679 0
734 732 675 0
734 675 676 0
734 676 735 0
682 739 735 0
676 682 735 0
678 682 676 0
681 682 677 0
677 682 678 0
680 736 684 0
684 736 741 0
684 683 679 0
684 679 680 0
739 682 686 0
739 686 745 0
685 686 681 0
681 686 682 0
741 742 684 0
683 684 742 0
747 683 742 0
687 683 747 0
745 686 689 0
745 689 752 0
688 689 685 0
685 689 686 0
748 754 691 0
747 748 691 0
690 747 691 0
687 747 690 0
752 689 693 0
752 693 758 0
692 693 688 0
688 693 689 0
754 755 691 0
690 691 755 0
761 690 755 0
694 690 761 0
766 759 695 0
695 759 758 0
693 695 758 0
698 695 693 0
696 698 692 0
692 698 693 0
701 699 762 0
699 761 762 0
699 694 761 0
769 701 762 0
772 767 702 0
702 767 766 0
695 702 766 0
704 702 695 0
703 704 697 0
704 698 697 0
704 695 698 0
697 698 696 0
701 700 699 0
770 707 705 0
770 705 700 0
769 770 700 0
701 769 700 0
773 709 707 0
773 707 770 0
709 773 772 0
702 709 772 0
710 709 702 0
712 702 704 0
710 702 712 0
711 712 703 0
703 712 704 0
707 706 705 0
706 707 708 0
708 707 709 0
708 709 713 0
709 715 713 0
709 710 715 0
718 710 712 0
715 710 718 0
716 718 711 0
711 718 712 0
715 714 713 0
714 715 717 0
717 715 718 0
717 718 716 0
722 720 719 0
721 722 719 0
726 724 722 0
722 724 720 0
723 728 721 0
728 722 721 0
728 726 722 0
727 728 723 0
731 729 725 0
776 731 725 0
776 725 724 0
775 776 724 0
726 775 724 0
733 778 775 0
726 733 775 0
728 733 726 0
732 733 727 0
727 733 728 0
737 736 730 0
781 737 730 0
781 730 729 0
777 781 729 0
731 777 729 0
777 731 776 0
780 778 733 0
784 780 738 0
738 780 734 0
780 733 734 0
733 732 734 0
735 740 734 0
734 740 738 0
739 740 735 0
743 741 737 0
737 741 736 0
737 781 786 0
737 786 743 0
784 738 744 0
784 744 791 0
746 738 740 0
744 738 746 0
745 746 739 0
739 746 740 0
743 742 741 0
787 749 747 0
787 747 742 0
786 787 742 0
743 786 742 0
789 750 749 0
789 749 787 0
794 750 789 0
791 744 751 0
791 751 796 0
753 744 746 0
751 744 753 0
752 753 745 0
745 753 746 0
756 754 748 0
798 756 748 0
798 748 747 0
793 798 747 0
749 793 747 0
793 749 750 0
793 750 795 0
795 750 794 0
796 751 757 0
796 757 803 0
760 751 753 0
757 751 760 0
758 760 752 0
752 760 753 0
756 755 754 0
799 763 761 0
799 761 755 0
798 799 755 0
756 798 755 0
801 764 763 0
801 763 799 0
804 765 764 0
804 764 801 0
765 804 803 0
757 765 803 0
768 765 757 0
766 768 759 0
768 760 759 0
768 757 760 0
759 760 758 0
763 762 761 0
762 763 769 0
763 771 769 0
763 764 771 0
774 764 765 0
771 764 774 0
772 774 767 0
774 768 767 0
774 765 768 0
767 768 766 0
771 770 769 0
770 771 773 0
773 771 774 0
773 774 772 0
779 776 775 0
778 779 775 0
782 781 777 0
776 779 777 0
779 782 777 0
779 783 782 0
780 785 778 0
785 779 778 0
785 783 779 0
784 785 780 0
788 786 782 0
782 786 781 0
790 782 783 0
