#!ascii version of /Users/gilles/git/nukkies/notebooks/data/WW2T_STh_L.asc
744 1484
7.056526  -58.346317  -26.978371  0
6.556526  -58.346317  -26.978371  0
8.556526  -56.846317  -26.478371  0
8.056526  -56.846317  -26.478371  0
7.556526  -56.846317  -26.478371  0
7.056526  -56.846317  -26.478371  0
8.556526  -57.346317  -26.478371  0
8.056526  -57.346317  -26.478371  0
7.556526  -57.346317  -26.478371  0
7.056526  -57.346317  -26.478371  0
6.556526  -57.346317  -26.478371  0
8.556526  -57.846317  -26.478371  0
8.056526  -57.846317  -26.478371  0
7.556526  -57.846317  -26.478371  0
7.056526  -58.096317  -26.728371  0
7.056526  -57.846317  -26.478371  0
6.556526  -58.096317  -26.728371  0
6.556526  -57.846317  -26.478371  0
8.556526  -58.346317  -26.478371  0
8.056526  -58.346317  -26.478371  0
7.306526  -58.346317  -26.728371  0
7.556526  -58.346317  -26.478371  0
7.056526  -58.596317  -26.728371  0
6.306526  -58.346317  -26.728371  0
6.556526  -58.596317  -26.728371  0
8.056526  -58.846317  -26.478371  0
7.556526  -58.846317  -26.478371  0
7.056526  -58.846317  -26.478371  0
6.556526  -58.846317  -26.478371  0
8.556526  -59.346317  -26.478371  0
8.056526  -59.346317  -26.478371  0
7.556526  -59.346317  -26.478371  0
7.056526  -59.346317  -26.478371  0
6.556526  -59.346317  -26.478371  0
8.056526  -59.846317  -26.478371  0
7.556526  -59.846317  -26.478371  0
7.056526  -59.846317  -26.478371  0
9.056526  -55.846317  -25.978371  0
8.556526  -55.846317  -25.978371  0
8.056526  -55.846317  -25.978371  0
9.056526  -56.346317  -25.978371  0
8.556526  -56.596317  -26.228371  0
8.556526  -56.346317  -25.978371  0
8.056526  -56.596317  -26.228371  0
8.056526  -56.346317  -25.978371  0
7.556526  -56.596317  -26.228371  0
7.556526  -56.346317  -25.978371  0
7.056526  -56.596317  -26.228371  0
9.556526  -56.846317  -25.978371  0
8.806526  -56.846317  -26.228371  0
9.056526  -56.846317  -25.978371  0
6.806526  -56.846317  -26.228371  0
6.556526  -57.096317  -26.228371  0
9.556526  -57.346317  -25.978371  0
8.806526  -57.346317  -26.228371  0
9.056526  -57.346317  -25.978371  0
6.306526  -57.346317  -26.228371  0
9.556526  -57.846317  -25.978371  0
8.806526  -57.846317  -26.228371  0
9.056526  -57.846317  -25.978371  0
6.306526  -57.846317  -26.228371  0
9.556526  -58.346317  -25.978371  0
8.806526  -58.346317  -26.228371  0
9.056526  -58.346317  -25.978371  0
8.556526  -58.596317  -26.228371  0
6.306526  -58.346317  -26.228371  0
9.556526  -58.846317  -25.978371  0
9.056526  -58.846317  -25.978371  0
8.306526  -58.846317  -26.228371  0
8.556526  -59.096317  -26.228371  0
8.556526  -58.846317  -25.978371  0
6.306526  -58.846317  -26.228371  0
8.806526  -59.346317  -26.228371  0
9.056526  -59.346317  -25.978371  0
8.556526  -59.596317  -26.228371  0
6.306526  -59.346317  -26.228371  0
6.556526  -59.596317  -26.228371  0
9.056526  -59.846317  -25.978371  0
8.306526  -59.846317  -26.228371  0
8.556526  -59.846317  -25.978371  0
8.056526  -60.096317  -26.228371  0
7.556526  -60.096317  -26.228371  0
6.806526  -59.846317  -26.228371  0
7.056526  -60.096317  -26.228371  0
8.556526  -60.346317  -25.978371  0
8.056526  -60.346317  -25.978371  0
7.556526  -60.346317  -25.978371  0
10.056526  -55.346317  -25.478371  0
9.556526  -55.346317  -25.478371  0
9.056526  -55.596317  -25.728371  0
9.056526  -55.346317  -25.478371  0
8.556526  -55.596317  -25.728371  0
8.556526  -55.346317  -25.478371  0
8.056526  -55.596317  -25.728371  0
9.306526  -55.846317  -25.728371  0
9.556526  -55.846317  -25.478371  0
7.806526  -55.846317  -25.728371  0
8.056526  -55.846317  -25.478371  0
7.556526  -56.096317  -25.728371  0
10.056526  -56.346317  -25.478371  0
9.306526  -56.346317  -25.728371  0
9.556526  -56.596317  -25.728371  0
9.556526  -56.346317  -25.478371  0
7.306526  -56.346317  -25.728371  0
7.056526  -56.596317  -25.728371  0
9.806526  -56.846317  -25.728371  0
10.056526  -56.846317  -25.478371  0
6.806526  -56.846317  -25.728371  0
7.056526  -56.846317  -25.478371  0
6.556526  -57.096317  -25.728371  0
9.806526  -57.346317  -25.728371  0
10.056526  -57.346317  -25.478371  0
6.306526  -57.346317  -25.728371  0
6.556526  -57.346317  -25.478371  0
9.806526  -57.846317  -25.728371  0
10.056526  -57.846317  -25.478371  0
6.306526  -57.846317  -25.728371  0
6.556526  -57.846317  -25.478371  0
9.806526  -58.346317  -25.728371  0
10.056526  -58.346317  -25.478371  0
6.306526  -58.346317  -25.728371  0
6.556526  -58.346317  -25.478371  0
9.806526  -58.846317  -25.728371  0
9.556526  -59.096317  -25.728371  0
6.306526  -58.846317  -25.728371  0
6.556526  -58.846317  -25.478371  0
10.056526  -59.346317  -25.478371  0
9.306526  -59.346317  -25.728371  0
9.556526  -59.346317  -25.478371  0
6.306526  -59.346317  -25.728371  0
6.556526  -59.596317  -25.728371  0
6.556526  -59.346317  -25.478371  0
9.306526  -59.846317  -25.728371  0
9.556526  -59.846317  -25.478371  0
9.056526  -60.096317  -25.728371  0
6.806526  -59.846317  -25.728371  0
7.056526  -60.096317  -25.728371  0
9.556526  -60.346317  -25.478371  0
8.806526  -60.346317  -25.728371  0
9.056526  -60.346317  -25.478371  0
8.556526  -60.596317  -25.728371  0
8.056526  -60.596317  -25.728371  0
7.306526  -60.346317  -25.728371  0
7.556526  -60.596317  -25.728371  0
7.056526  -60.346317  -25.478371  0
10.056526  -55.096317  -25.228371  0
9.556526  -55.096317  -25.228371  0
9.056526  -55.096317  -25.228371  0
8.556526  -55.096317  -25.228371  0
10.306526  -55.346317  -25.228371  0
10.556526  -55.346317  -24.978371  0
10.056526  -55.596317  -25.228371  0
8.306526  -55.346317  -25.228371  0
10.556526  -55.846317  -24.978371  0
9.806526  -55.846317  -25.228371  0
10.056526  -56.096317  -25.228371  0
10.056526  -55.846317  -24.978371  0
8.306526  -55.846317  -25.228371  0
8.056526  -56.096317  -25.228371  0
7.556526  -56.096317  -25.228371  0
11.056526  -56.346317  -24.978371  0
10.306526  -56.346317  -25.228371  0
10.556526  -56.346317  -24.978371  0
7.306526  -56.346317  -25.228371  0
7.556526  -56.346317  -24.978371  0
11.056526  -56.846317  -24.978371  0
10.306526  -56.846317  -25.228371  0
10.556526  -56.846317  -24.978371  0
7.306526  -56.846317  -25.228371  0
7.056526  -57.096317  -25.228371  0
11.056526  -57.346317  -24.978371  0
10.306526  -57.346317  -25.228371  0
10.556526  -57.346317  -24.978371  0
6.806526  -57.346317  -25.228371  0
7.056526  -57.346317  -24.978371  0
11.056526  -57.846317  -24.978371  0
10.306526  -57.846317  -25.228371  0
10.556526  -57.846317  -24.978371  0
6.806526  -57.846317  -25.228371  0
7.056526  -57.846317  -24.978371  0
10.306526  -58.346317  -25.228371  0
10.556526  -58.346317  -24.978371  0
10.056526  -58.596317  -25.228371  0
6.806526  -58.346317  -25.228371  0
7.056526  -58.346317  -24.978371  0
10.556526  -58.846317  -24.978371  0
9.806526  -58.846317  -25.228371  0
10.056526  -59.096317  -25.228371  0
10.056526  -58.846317  -24.978371  0
6.806526  -58.846317  -25.228371  0
7.056526  -58.846317  -24.978371  0
10.306526  -59.346317  -25.228371  0
10.556526  -59.346317  -24.978371  0
10.056526  -59.596317  -25.228371  0
6.806526  -59.346317  -25.228371  0
7.056526  -59.346317  -24.978371  0
9.806526  -59.846317  -25.228371  0
10.056526  -59.846317  -24.978371  0
6.806526  -59.846317  -25.228371  0
7.056526  -59.846317  -24.978371  0
9.806526  -60.346317  -25.228371  0
9.556526  -60.596317  -25.228371  0
9.056526  -60.596317  -25.228371  0
8.556526  -60.596317  -25.228371  0
8.056526  -60.596317  -25.228371  0
7.556526  -60.596317  -25.228371  0
6.806526  -60.346317  -25.228371  0
7.056526  -60.596317  -25.228371  0
7.056526  -60.346317  -24.978371  0
9.056526  -60.846317  -24.978371  0
8.556526  -60.846317  -24.978371  0
8.056526  -60.846317  -24.978371  0
10.556526  -55.096317  -24.728371  0
10.056526  -55.096317  -24.728371  0
9.556526  -55.096317  -24.728371  0
9.056526  -55.096317  -24.728371  0
8.556526  -55.096317  -24.728371  0
10.806526  -55.346317  -24.728371  0
11.056526  -55.346317  -24.478371  0
9.056526  -55.346317  -24.478371  0
8.306526  -55.346317  -24.728371  0
8.556526  -55.346317  -24.478371  0
10.806526  -55.846317  -24.728371  0
11.056526  -56.096317  -24.728371  0
11.056526  -55.846317  -24.478371  0
8.306526  -55.846317  -24.728371  0
8.556526  -55.846317  -24.478371  0
8.056526  -56.096317  -24.728371  0
12.056526  -56.346317  -24.478371  0
11.306526  -56.346317  -24.728371  0
11.556526  -56.346317  -24.478371  0
7.806526  -56.346317  -24.728371  0
8.056526  -56.346317  -24.478371  0
7.556526  -56.596317  -24.728371  0
11.306526  -56.846317  -24.728371  0
11.556526  -56.846317  -24.478371  0
8.056526  -56.846317  -24.478371  0
7.306526  -56.846317  -24.728371  0
7.556526  -56.846317  -24.478371  0
11.306526  -57.346317  -24.728371  0
11.556526  -57.346317  -24.478371  0
7.306526  -57.346317  -24.728371  0
7.556526  -57.346317  -24.478371  0
11.306526  -57.846317  -24.728371  0
11.556526  -57.846317  -24.478371  0
11.056526  -58.096317  -24.728371  0
7.306526  -57.846317  -24.728371  0
7.556526  -57.846317  -24.478371  0
11.556526  -58.346317  -24.478371  0
10.806526  -58.346317  -24.728371  0
11.056526  -58.346317  -24.478371  0
7.306526  -58.346317  -24.728371  0
7.556526  -58.346317  -24.478371  0
10.806526  -58.846317  -24.728371  0
11.056526  -58.846317  -24.478371  0
7.306526  -58.846317  -24.728371  0
7.556526  -58.846317  -24.478371  0
10.806526  -59.346317  -24.728371  0
11.056526  -59.346317  -24.478371  0
10.556526  -59.596317  -24.728371  0
7.306526  -59.346317  -24.728371  0
7.556526  -59.346317  -24.478371  0
10.306526  -59.846317  -24.728371  0
10.556526  -59.846317  -24.478371  0
10.056526  -60.096317  -24.728371  0
7.306526  -59.846317  -24.728371  0
7.556526  -59.846317  -24.478371  0
9.806526  -60.346317  -24.728371  0
10.056526  -60.346317  -24.478371  0
9.556526  -60.596317  -24.728371  0
7.306526  -60.346317  -24.728371  0
7.556526  -60.596317  -24.728371  0
7.556526  -60.346317  -24.478371  0
9.306526  -60.846317  -24.728371  0
9.556526  -60.846317  -24.478371  0
9.056526  -61.096317  -24.728371  0
8.556526  -61.096317  -24.728371  0
7.806526  -60.846317  -24.728371  0
8.056526  -61.096317  -24.728371  0
8.056526  -60.846317  -24.478371  0
11.056526  -55.096317  -24.228371  0
10.556526  -55.096317  -24.228371  0
10.056526  -55.096317  -24.228371  0
9.556526  -55.096317  -24.228371  0
12.056526  -55.346317  -23.978371  0
11.306526  -55.346317  -24.228371  0
11.556526  -55.346317  -23.978371  0
9.306526  -55.346317  -24.228371  0
9.056526  -55.596317  -24.228371  0
12.056526  -56.096317  -24.228371  0
12.056526  -55.846317  -23.978371  0
11.306526  -55.846317  -24.228371  0
11.556526  -56.096317  -24.228371  0
11.556526  -55.846317  -23.978371  0
8.806526  -55.846317  -24.228371  0
9.056526  -55.846317  -23.978371  0
8.556526  -56.096317  -24.228371  0
12.306526  -56.346317  -24.228371  0
12.556526  -56.346317  -23.978371  0
12.056526  -56.596317  -24.228371  0
8.306526  -56.346317  -24.228371  0
8.556526  -56.346317  -23.978371  0
11.806526  -56.846317  -24.228371  0
12.056526  -56.846317  -23.978371  0
8.306526  -56.846317  -24.228371  0
8.556526  -56.846317  -23.978371  0
8.056526  -57.096317  -24.228371  0
11.806526  -57.346317  -24.228371  0
12.056526  -57.346317  -23.978371  0
7.806526  -57.346317  -24.228371  0
8.056526  -57.346317  -23.978371  0
11.806526  -57.846317  -24.228371  0
12.056526  -57.846317  -23.978371  0
7.806526  -57.846317  -24.228371  0
8.056526  -57.846317  -23.978371  0
11.806526  -58.346317  -24.228371  0
11.556526  -58.596317  -24.228371  0
7.806526  -58.346317  -24.228371  0
8.056526  -58.346317  -23.978371  0
11.306526  -58.846317  -24.228371  0
11.556526  -58.846317  -23.978371  0
7.806526  -58.846317  -24.228371  0
8.056526  -58.846317  -23.978371  0
11.306526  -59.346317  -24.228371  0
11.056526  -59.596317  -24.228371  0
7.806526  -59.346317  -24.228371  0
8.056526  -59.346317  -23.978371  0
10.806526  -59.846317  -24.228371  0
11.056526  -59.846317  -23.978371  0
10.556526  -60.096317  -24.228371  0
7.806526  -59.846317  -24.228371  0
8.056526  -59.846317  -23.978371  0
10.306526  -60.346317  -24.228371  0
10.556526  -60.346317  -23.978371  0
10.056526  -60.596317  -24.228371  0
8.556526  -60.346317  -23.978371  0
7.806526  -60.346317  -24.228371  0
8.056526  -60.596317  -24.228371  0
8.056526  -60.346317  -23.978371  0
9.806526  -60.846317  -24.228371  0
9.556526  -61.096317  -24.228371  0
9.056526  -61.096317  -24.228371  0
8.306526  -60.846317  -24.228371  0
8.556526  -61.096317  -24.228371  0
8.556526  -60.846317  -23.978371  0
12.056526  -55.096317  -23.728371  0
11.556526  -55.096317  -23.728371  0
11.056526  -55.096317  -23.728371  0
10.556526  -55.096317  -23.728371  0
10.056526  -55.096317  -23.728371  0
9.556526  -55.096317  -23.728371  0
13.056526  -55.346317  -23.478371  0
12.306526  -55.346317  -23.728371  0
12.556526  -55.346317  -23.478371  0
9.306526  -55.346317  -23.728371  0
9.556526  -55.346317  -23.478371  0
12.306526  -55.846317  -23.728371  0
12.556526  -56.096317  -23.728371  0
12.556526  -55.846317  -23.478371  0
10.056526  -55.846317  -23.478371  0
9.306526  -55.846317  -23.728371  0
9.556526  -55.846317  -23.478371  0
9.056526  -56.096317  -23.728371  0
12.806526  -56.346317  -23.728371  0
13.056526  -56.346317  -23.478371  0
12.556526  -56.596317  -23.728371  0
9.556526  -56.346317  -23.478371  0
8.806526  -56.346317  -23.728371  0
9.056526  -56.346317  -23.478371  0
13.056526  -56.846317  -23.478371  0
12.306526  -56.846317  -23.728371  0
12.556526  -56.846317  -23.478371  0
9.556526  -56.846317  -23.478371  0
8.806526  -56.846317  -23.728371  0
9.056526  -56.846317  -23.478371  0
8.556526  -57.096317  -23.728371  0
13.056526  -57.346317  -23.478371  0
12.306526  -57.346317  -23.728371  0
12.556526  -57.346317  -23.478371  0
8.306526  -57.346317  -23.728371  0
8.556526  -57.346317  -23.478371  0
12.306526  -57.846317  -23.728371  0
12.056526  -58.096317  -23.728371  0
8.306526  -57.846317  -23.728371  0
8.556526  -57.846317  -23.478371  0
11.806526  -58.346317  -23.728371  0
12.056526  -58.346317  -23.478371  0
8.306526  -58.346317  -23.728371  0
8.556526  -58.346317  -23.478371  0
11.806526  -58.846317  -23.728371  0
11.556526  -59.096317  -23.728371  0
8.306526  -58.846317  -23.728371  0
8.556526  -58.846317  -23.478371  0
11.306526  -59.346317  -23.728371  0
11.556526  -59.346317  -23.478371  0
9.056526  -59.346317  -23.478371  0
8.306526  -59.346317  -23.728371  0
8.556526  -59.346317  -23.478371  0
11.306526  -59.846317  -23.728371  0
11.056526  -60.096317  -23.728371  0
8.306526  -59.846317  -23.728371  0
8.556526  -60.096317  -23.728371  0
8.556526  -59.846317  -23.478371  0
10.806526  -60.346317  -23.728371  0
11.056526  -60.346317  -23.478371  0
10.556526  -60.596317  -23.728371  0
10.056526  -60.596317  -23.728371  0
8.806526  -60.346317  -23.728371  0
9.806526  -60.846317  -23.728371  0
10.056526  -60.846317  -23.478371  0
9.556526  -61.096317  -23.728371  0
8.806526  -60.846317  -23.728371  0
9.056526  -61.096317  -23.728371  0
9.056526  -60.846317  -23.478371  0
13.056526  -55.096317  -23.228371  0
12.556526  -55.096317  -23.228371  0
12.056526  -55.096317  -23.228371  0
11.556526  -55.096317  -23.228371  0
11.056526  -55.096317  -23.228371  0
10.556526  -55.096317  -23.228371  0
10.056526  -55.096317  -23.228371  0
13.306526  -55.346317  -23.228371  0
13.056526  -55.596317  -23.228371  0
10.556526  -55.346317  -22.978371  0
9.806526  -55.346317  -23.228371  0
10.056526  -55.596317  -23.228371  0
10.056526  -55.346317  -22.978371  0
13.556526  -55.846317  -22.978371  0
12.806526  -55.846317  -23.228371  0
13.056526  -56.096317  -23.228371  0
13.056526  -55.846317  -22.978371  0
11.556526  -55.846317  -22.978371  0
11.056526  -55.846317  -22.978371  0
10.306526  -55.846317  -23.228371  0
10.556526  -55.846317  -22.978371  0
10.056526  -56.096317  -23.228371  0
13.306526  -56.346317  -23.228371  0
13.556526  -56.346317  -22.978371  0
9.806526  -56.346317  -23.228371  0
10.056526  -56.346317  -22.978371  0
13.306526  -56.846317  -23.228371  0
13.556526  -56.846317  -22.978371  0
9.806526  -56.846317  -23.228371  0
9.556526  -57.096317  -23.228371  0
9.056526  -57.096317  -23.228371  0
13.306526  -57.346317  -23.228371  0
13.056526  -57.596317  -23.228371  0
12.556526  -57.596317  -23.228371  0
9.556526  -57.346317  -22.978371  0
8.806526  -57.346317  -23.228371  0
9.056526  -57.346317  -22.978371  0
13.056526  -57.846317  -22.978371  0
12.306526  -57.846317  -23.228371  0
12.556526  -57.846317  -22.978371  0
9.556526  -57.846317  -22.978371  0
8.806526  -57.846317  -23.228371  0
9.056526  -57.846317  -22.978371  0
13.056526  -58.346317  -22.978371  0
12.306526  -58.346317  -23.228371  0
12.556526  -58.346317  -22.978371  0
12.056526  -58.596317  -23.228371  0
8.806526  -58.346317  -23.228371  0
9.056526  -58.346317  -22.978371  0
11.806526  -58.846317  -23.228371  0
12.056526  -58.846317  -22.978371  0
9.556526  -58.846317  -22.978371  0
8.806526  -58.846317  -23.228371  0
9.056526  -59.096317  -23.228371  0
9.056526  -58.846317  -22.978371  0
11.806526  -59.346317  -23.228371  0
12.056526  -59.346317  -22.978371  0
11.556526  -59.596317  -23.228371  0
9.306526  -59.346317  -23.228371  0
9.556526  -59.346317  -22.978371  0
9.056526  -59.596317  -23.228371  0
11.306526  -59.846317  -23.228371  0
11.556526  -59.846317  -22.978371  0
9.556526  -59.846317  -22.978371  0
8.806526  -59.846317  -23.228371  0
9.056526  -59.846317  -22.978371  0
11.306526  -60.346317  -23.228371  0
11.056526  -60.596317  -23.228371  0
11.056526  -60.346317  -22.978371  0
10.556526  -60.596317  -23.228371  0
10.056526  -60.346317  -22.978371  0
9.556526  -60.346317  -22.978371  0
8.806526  -60.346317  -23.228371  0
9.056526  -60.596317  -23.228371  0
9.056526  -60.346317  -22.978371  0
10.306526  -60.846317  -23.228371  0
10.056526  -61.096317  -23.228371  0
10.056526  -60.846317  -22.978371  0
9.306526  -60.846317  -23.228371  0
9.556526  -61.096317  -23.228371  0
9.556526  -60.846317  -22.978371  0
13.056526  -55.096317  -22.728371  0
12.556526  -55.096317  -22.728371  0
12.056526  -55.096317  -22.728371  0
11.556526  -55.096317  -22.728371  0
11.056526  -55.096317  -22.728371  0
13.306526  -55.346317  -22.728371  0
13.556526  -55.596317  -22.728371  0
13.056526  -55.346317  -22.478371  0
12.556526  -55.346317  -22.478371  0
12.056526  -55.346317  -22.478371  0
11.556526  -55.596317  -22.728371  0
11.556526  -55.346317  -22.478371  0
10.806526  -55.346317  -22.728371  0
11.056526  -55.596317  -22.728371  0
11.056526  -55.346317  -22.478371  0
13.806526  -55.846317  -22.728371  0
11.806526  -55.846317  -22.728371  0
12.056526  -55.846317  -22.478371  0
11.556526  -56.096317  -22.728371  0
11.056526  -56.096317  -22.728371  0
10.556526  -56.096317  -22.728371  0
13.806526  -56.346317  -22.728371  0
14.056526  -56.346317  -22.478371  0
10.306526  -56.346317  -22.728371  0
10.556526  -56.346317  -22.478371  0
10.056526  -56.596317  -22.728371  0
13.806526  -56.846317  -22.728371  0
14.056526  -56.846317  -22.478371  0
13.556526  -57.096317  -22.728371  0
10.556526  -56.846317  -22.478371  0
9.806526  -56.846317  -22.728371  0
10.056526  -56.846317  -22.478371  0
13.306526  -57.346317  -22.728371  0
13.556526  -57.346317  -22.478371  0
9.806526  -57.346317  -22.728371  0
10.056526  -57.346317  -22.478371  0
13.306526  -57.846317  -22.728371  0
13.556526  -57.846317  -22.478371  0
9.806526  -57.846317  -22.728371  0
9.556526  -58.096317  -22.728371  0
13.306526  -58.346317  -22.728371  0
13.556526  -58.346317  -22.478371  0
13.056526  -58.596317  -22.728371  0
12.556526  -58.596317  -22.728371  0
9.306526  -58.346317  -22.728371  0
9.556526  -58.596317  -22.728371  0
9.556526  -58.346317  -22.478371  0
12.306526  -58.846317  -22.728371  0
12.556526  -58.846317  -22.478371  0
9.806526  -58.846317  -22.728371  0
10.056526  -58.846317  -22.478371  0
12.306526  -59.346317  -22.728371  0
12.056526  -59.596317  -22.728371  0
9.806526  -59.346317  -22.728371  0
10.056526  -59.346317  -22.478371  0
11.806526  -59.846317  -22.728371  0
11.556526  -60.096317  -22.728371  0
11.056526  -60.096317  -22.728371  0
9.806526  -59.846317  -22.728371  0
10.056526  -60.096317  -22.728371  0
10.056526  -59.846317  -22.478371  0
10.806526  -60.346317  -22.728371  0
10.306526  -60.346317  -22.728371  0
10.556526  -60.596317  -22.728371  0
10.556526  -60.346317  -22.478371  0
13.556526  -55.596317  -22.228371  0
13.056526  -55.596317  -22.228371  0
12.556526  -55.596317  -22.228371  0
13.806526  -55.846317  -22.228371  0
14.056526  -56.096317  -22.228371  0
14.056526  -55.846317  -21.978371  0
12.306526  -55.846317  -22.228371  0
12.556526  -55.846317  -21.978371  0
12.056526  -56.096317  -22.228371  0
11.556526  -56.096317  -22.228371  0
11.056526  -56.096317  -22.228371  0
14.306526  -56.346317  -22.228371  0
14.556526  -56.346317  -21.978371  0
11.556526  -56.346317  -21.978371  0
10.806526  -56.346317  -22.228371  0
11.056526  -56.346317  -21.978371  0
14.306526  -56.846317  -22.228371  0
14.056526  -57.096317  -22.228371  0
10.806526  -56.846317  -22.228371  0
11.056526  -56.846317  -21.978371  0
10.556526  -57.096317  -22.228371  0
13.806526  -57.346317  -22.228371  0
11.056526  -57.346317  -21.978371  0
10.306526  -57.346317  -22.228371  0
10.556526  -57.346317  -21.978371  0
10.056526  -57.596317  -22.228371  0
13.806526  -57.846317  -22.228371  0
10.556526  -57.846317  -21.978371  0
9.806526  -57.846317  -22.228371  0
10.056526  -57.846317  -21.978371  0
13.806526  -58.346317  -22.228371  0
13.556526  -58.596317  -22.228371  0
13.056526  -58.596317  -22.228371  0
10.556526  -58.346317  -21.978371  0
9.806526  -58.346317  -22.228371  0
10.056526  -58.596317  -22.228371  0
10.056526  -58.346317  -21.978371  0
12.806526  -58.846317  -22.228371  0
13.056526  -58.846317  -21.978371  0
12.556526  -59.096317  -22.228371  0
11.056526  -58.846317  -21.978371  0
10.306526  -58.846317  -22.228371  0
10.556526  -58.846317  -21.978371  0
12.306526  -59.346317  -22.228371  0
12.056526  -59.596317  -22.228371  0
12.056526  -59.346317  -21.978371  0
11.556526  -59.346317  -21.978371  0
11.056526  -59.346317  -21.978371  0
10.306526  -59.346317  -22.228371  0
10.556526  -59.346317  -21.978371  0
11.806526  -59.846317  -22.228371  0
11.556526  -60.096317  -22.228371  0
11.556526  -59.846317  -21.978371  0
11.056526  -60.096317  -22.228371  0
11.056526  -59.846317  -21.978371  0
10.306526  -59.846317  -22.228371  0
10.556526  -60.096317  -22.228371  0
10.556526  -59.846317  -21.978371  0
14.056526  -55.596317  -21.728371  0
13.556526  -55.596317  -21.728371  0
13.056526  -55.596317  -21.728371  0
14.306526  -55.846317  -21.728371  0
14.556526  -56.096317  -21.728371  0
14.556526  -55.846317  -21.478371  0
13.556526  -55.846317  -21.478371  0
12.806526  -55.846317  -21.728371  0
13.056526  -55.846317  -21.478371  0
12.556526  -56.096317  -21.728371  0
12.056526  -56.096317  -21.728371  0
14.806526  -56.346317  -21.728371  0
14.556526  -56.596317  -21.728371  0
12.556526  -56.346317  -21.478371  0
11.806526  -56.346317  -21.728371  0
12.056526  -56.346317  -21.478371  0
11.556526  -56.596317  -21.728371  0
15.056526  -56.846317  -21.478371  0
14.306526  -56.846317  -21.728371  0
14.556526  -56.846317  -21.478371  0
14.056526  -57.096317  -21.728371  0
11.306526  -56.846317  -21.728371  0
11.556526  -56.846317  -21.478371  0
14.556526  -57.346317  -21.478371  0
13.806526  -57.346317  -21.728371  0
14.056526  -57.346317  -21.478371  0
11.306526  -57.346317  -21.728371  0
11.556526  -57.346317  -21.478371  0
11.056526  -57.596317  -21.728371  0
13.806526  -57.846317  -21.728371  0
14.056526  -57.846317  -21.478371  0
11.556526  -57.846317  -21.478371  0
10.806526  -57.846317  -21.728371  0
11.056526  -57.846317  -21.478371  0
13.806526  -58.346317  -21.728371  0
13.556526  -58.596317  -21.728371  0
12.056526  -58.346317  -21.478371  0
11.556526  -58.346317  -21.478371  0
10.806526  -58.346317  -21.728371  0
11.056526  -58.596317  -21.728371  0
11.056526  -58.346317  -21.478371  0
13.306526  -58.846317  -21.728371  0
13.056526  -59.096317  -21.728371  0
12.556526  -59.096317  -21.728371  0
12.556526  -58.846317  -21.478371  0
12.056526  -59.096317  -21.728371  0
12.056526  -58.846317  -21.478371  0
11.306526  -58.846317  -21.728371  0
11.556526  -59.096317  -21.728371  0
11.556526  -58.846317  -21.478371  0
14.556526  -55.596317  -21.228371  0
14.056526  -55.596317  -21.228371  0
14.806526  -55.846317  -21.228371  0
13.806526  -55.846317  -21.228371  0
14.056526  -55.846317  -20.978371  0
13.556526  -56.096317  -21.228371  0
13.056526  -56.096317  -21.228371  0
14.806526  -56.346317  -21.228371  0
15.056526  -56.596317  -21.228371  0
13.556526  -56.346317  -20.978371  0
12.806526  -56.346317  -21.228371  0
13.056526  -56.346317  -20.978371  0
12.556526  -56.596317  -21.228371  0
12.056526  -56.596317  -21.228371  0
15.306526  -56.846317  -21.228371  0
15.056526  -57.096317  -21.228371  0
13.056526  -56.846317  -20.978371  0
12.556526  -56.846317  -20.978371  0
11.806526  -56.846317  -21.228371  0
12.056526  -56.846317  -20.978371  0
14.806526  -57.346317  -21.228371  0
15.056526  -57.346317  -20.978371  0
14.556526  -57.596317  -21.228371  0
13.056526  -57.346317  -20.978371  0
12.556526  -57.346317  -20.978371  0
11.806526  -57.346317  -21.228371  0
12.056526  -57.346317  -20.978371  0
14.306526  -57.846317  -21.228371  0
14.056526  -58.096317  -21.228371  0
13.056526  -57.846317  -20.978371  0
12.556526  -57.846317  -20.978371  0
11.806526  -57.846317  -21.228371  0
12.056526  -58.096317  -21.228371  0
12.056526  -57.846317  -20.978371  0
13.806526  -58.346317  -21.228371  0
13.556526  -58.596317  -21.228371  0
13.556526  -58.346317  -20.978371  0
13.056526  -58.346317  -20.978371  0
12.306526  -58.346317  -21.228371  0
12.556526  -58.596317  -21.228371  0
12.556526  -58.346317  -20.978371  0
13.306526  -58.846317  -21.228371  0
12.806526  -58.846317  -21.228371  0
13.056526  -59.096317  -21.228371  0
13.056526  -58.846317  -20.978371  0
14.556526  -55.596317  -20.728371  0
14.806526  -55.846317  -20.728371  0
14.306526  -55.846317  -20.728371  0
14.556526  -55.846317  -20.478371  0
14.056526  -56.096317  -20.728371  0
14.806526  -56.346317  -20.728371  0
15.056526  -56.596317  -20.728371  0
14.556526  -56.346317  -20.478371  0
13.806526  -56.346317  -20.728371  0
14.056526  -56.346317  -20.478371  0
13.556526  -56.596317  -20.728371  0
15.306526  -56.846317  -20.728371  0
15.056526  -56.846317  -20.478371  0
14.556526  -56.846317  -20.478371  0
14.056526  -56.846317  -20.478371  0
13.306526  -56.846317  -20.728371  0
13.556526  -56.846317  -20.478371  0
15.306526  -57.346317  -20.728371  0
15.056526  -57.596317  -20.728371  0
15.056526  -57.346317  -20.478371  0
14.556526  -57.596317  -20.728371  0
14.556526  -57.346317  -20.478371  0
14.056526  -57.346317  -20.478371  0
13.306526  -57.346317  -20.728371  0
13.556526  -57.346317  -20.478371  0
14.306526  -57.846317  -20.728371  0
14.056526  -58.096317  -20.728371  0
14.056526  -57.846317  -20.478371  0
13.306526  -57.846317  -20.728371  0
13.556526  -58.096317  -20.728371  0
13.556526  -57.846317  -20.478371  0
14 20 0 0
1 16 0 0
0 16 14 0
1 23 16 0
20 22 0 0
0 22 1 0
1 22 24 0
1 24 23 0
41 49 2 0
3 43 2 0
2 43 41 0
4 45 3 0
3 45 43 0
5 47 4 0
4 47 45 0
5 51 47 0
2 49 6 0
6 49 54 0
2 7 3 0
2 6 7 0
3 8 4 0
3 7 8 0
4 9 5 0
4 8 9 0
51 5 52 0
5 10 52 0
5 9 10 0
10 56 52 0
6 54 11 0
11 54 58 0
6 12 7 0
6 11 12 0
7 13 8 0
7 12 13 0
8 15 9 0
8 13 15 0
9 17 10 0
9 15 17 0
56 10 60 0
60 10 17 0
11 58 18 0
18 58 62 0
11 19 12 0
11 18 19 0
12 21 13 0
12 19 21 0
21 20 14 0
15 21 14 0
13 21 15 0
15 14 16 0
15 16 17 0
16 23 17 0
23 60 17 0
23 65 60 0
62 64 18 0
68 25 64 0
25 18 64 0
25 19 18 0
19 26 21 0
19 25 26 0
27 22 20 0
21 27 20 0
26 27 21 0
28 24 22 0
28 22 27 0
28 71 24 0
71 23 24 0
71 65 23 0
69 72 29 0
69 29 68 0
29 25 68 0
29 30 25 0
25 31 26 0
25 30 31 0
26 32 27 0
26 31 32 0
27 33 28 0
27 32 33 0
71 28 75 0
75 28 33 0
72 74 29 0
78 34 74 0
34 29 74 0
34 30 29 0
30 35 31 0
30 34 35 0
31 36 32 0
31 35 36 0
76 33 82 0
33 36 82 0
33 32 36 0
33 76 75 0
78 80 34 0
34 80 35 0
35 80 81 0
35 81 36 0
36 81 83 0
36 83 82 0
89 94 37 0
38 91 37 0
37 91 89 0
39 93 38 0
38 93 91 0
39 96 93 0
37 94 40 0
40 94 100 0
37 42 38 0
37 40 42 0
38 44 39 0
38 42 44 0
96 39 98 0
39 46 98 0
39 44 46 0
46 103 98 0
101 105 48 0
101 48 100 0
48 40 100 0
48 50 40 0
50 49 41 0
42 50 41 0
40 50 42 0
42 41 43 0
42 43 44 0
44 43 45 0
44 45 46 0
104 103 46 0
45 104 46 0
47 104 45 0
47 51 104 0
104 51 107 0
48 105 53 0
53 105 110 0
48 55 50 0
48 53 55 0
55 54 49 0
55 49 50 0
109 107 51 0
109 51 52 0
52 56 109 0
109 56 112 0
53 110 57 0
57 110 114 0
53 59 55 0
53 57 59 0
59 58 54 0
59 54 55 0
60 112 56 0
60 116 112 0
57 114 61 0
61 114 118 0
57 63 59 0
57 61 63 0
63 62 58 0
63 58 59 0
65 116 60 0
65 120 116 0
61 118 66 0
66 118 122 0
61 67 63 0
61 66 67 0
70 64 62 0
63 70 62 0
67 70 63 0
70 68 64 0
71 120 65 0
71 124 120 0
122 123 66 0
127 73 123 0
73 66 123 0
73 67 66 0
73 72 69 0
70 73 69 0
67 73 70 0
70 69 68 0
75 124 71 0
75 129 124 0
73 127 77 0
77 127 132 0
79 74 72 0
73 79 72 0
77 79 73 0
79 78 74 0
135 130 76 0
135 76 82 0
75 76 129 0
129 76 130 0
132 134 77 0
138 84 134 0
84 77 134 0
84 79 77 0
85 80 78 0
79 85 78 0
84 85 79 0
86 81 80 0
86 80 85 0
81 86 142 0
136 81 142 0
83 81 136 0
82 83 135 0
135 83 136 0
138 140 84 0
84 140 85 0
85 140 141 0
85 141 86 0
86 141 143 0
86 143 142 0
145 149 87 0
88 146 87 0
87 146 145 0
90 147 88 0
88 147 146 0
92 148 90 0
90 148 147 0
92 152 148 0
149 151 87 0
154 95 151 0
95 87 151 0
95 88 87 0
95 94 89 0
90 95 89 0
88 95 90 0
90 89 91 0
90 91 92 0
91 93 92 0
93 157 92 0
157 152 92 0
93 97 157 0
96 97 93 0
155 161 99 0
155 99 154 0
99 95 154 0
99 102 95 0
102 100 94 0
102 94 95 0
158 157 97 0
158 97 96 0
98 158 96 0
159 158 98 0
98 103 159 0
159 103 163 0
99 161 106 0
106 161 166 0
106 105 101 0
102 106 101 0
99 106 102 0
102 101 100 0
103 104 108 0
168 103 108 0
163 103 168 0
107 108 104 0
106 166 111 0
111 166 171 0
111 110 105 0
111 105 106 0
169 168 108 0
173 169 113 0
113 169 109 0
169 108 109 0
108 107 109 0
112 113 109 0
111 171 115 0
115 171 176 0
115 114 110 0
115 110 111 0
173 113 117 0
173 117 178 0
116 117 112 0
112 117 113 0
115 176 119 0
119 176 180 0
119 118 114 0
119 114 115 0
178 117 121 0
178 121 183 0
120 121 116 0
116 121 117 0
180 182 119 0
118 119 182 0
186 118 182 0
122 118 186 0
183 121 125 0
183 125 189 0
124 125 120 0
120 125 121 0
187 191 126 0
126 128 123 0
186 126 123 0
122 186 123 0
126 186 187 0
128 127 123 0
189 125 131 0
189 131 194 0
129 131 124 0
124 131 125 0
191 193 126 0
196 133 193 0
133 126 193 0
133 128 126 0
133 132 127 0
133 127 128 0
194 131 130 0
135 194 130 0
198 194 135 0
130 131 129 0
133 196 137 0
137 196 200 0
139 134 132 0
133 139 132 0
137 139 133 0
139 138 134 0
142 144 136 0
144 206 136 0
206 135 136 0
206 198 135 0
200 201 137 0
137 201 139 0
139 201 202 0
139 202 138 0
202 140 138 0
202 203 140 0
140 204 141 0
203 204 140 0
141 205 143 0
204 205 141 0
142 143 144 0
143 207 144 0
143 205 207 0
144 207 206 0
212 217 150 0
149 145 150 0
145 212 150 0
145 213 212 0
214 145 146 0
214 213 145 0
215 146 147 0
215 214 146 0
216 147 148 0
216 215 147 0
148 152 216 0
216 152 220 0
150 217 153 0
153 217 222 0
156 151 149 0
150 156 149 0
153 156 150 0
156 154 151 0
157 220 152 0
157 225 220 0
223 229 160 0
223 160 222 0
160 153 222 0
160 162 153 0
162 161 155 0
156 162 155 0
153 162 156 0
156 155 154 0
227 225 157 0
227 157 158 0
231 227 164 0
227 159 164 0
227 158 159 0
163 164 159 0
160 229 165 0
165 229 234 0
160 167 162 0
160 165 167 0
167 166 161 0
167 161 162 0
233 231 164 0
164 163 233 0
163 237 233 0
163 168 237 0
165 234 170 0
170 234 239 0
165 172 167 0
165 170 172 0
172 171 166 0
172 166 167 0
168 169 174 0
241 168 174 0
237 168 241 0
173 174 169 0
170 239 175 0
175 239 243 0
170 177 172 0
170 175 177 0
177 176 171 0
177 171 172 0
241 174 179 0
241 179 246 0
178 179 173 0
173 179 174 0
243 245 175 0
249 181 245 0
181 175 245 0
181 177 175 0
181 180 176 0
181 176 177 0
246 179 184 0
246 184 251 0
183 184 178 0
178 184 179 0
181 249 185 0
185 249 253 0
188 182 180 0
181 188 180 0
185 188 181 0
188 186 182 0
251 184 190 0
251 190 255 0
189 190 183 0
183 190 184 0
185 253 192 0
192 253 257 0
192 191 187 0
188 192 187 0
185 192 188 0
188 187 186 0
255 190 195 0
255 195 260 0
194 195 189 0
189 195 190 0
257 259 192 0
259 262 197 0
259 197 193 0
192 259 193 0
191 192 193 0
197 196 193 0
260 195 199 0
260 199 265 0
198 199 194 0
194 199 195 0
262 264 197 0
196 197 264 0
267 196 264 0
200 196 267 0
265 199 208 0
265 208 270 0
206 208 198 0
198 208 199 0
267 269 200 0
200 269 201 0
269 273 209 0
202 269 209 0
201 269 202 0
210 203 202 0
210 202 209 0
211 204 203 0
211 203 210 0
204 211 277 0
271 204 277 0
205 204 271 0
208 207 270 0
207 271 270 0
207 205 271 0
207 208 206 0
273 275 209 0
209 275 210 0
210 275 276 0
210 276 211 0
211 276 278 0
211 278 277 0
280 285 218 0
217 212 218 0
212 280 218 0
212 281 280 0
282 212 213 0
282 281 212 0
283 213 214 0
283 282 213 0
287 283 219 0
283 215 219 0
283 214 215 0
216 221 215 0
215 221 219 0
220 221 216 0
218 285 224 0
224 285 291 0
224 222 217 0
224 217 218 0
288 287 219 0
226 294 288 0
219 226 288 0
221 226 219 0
225 226 220 0
220 226 221 0
289 297 228 0
230 292 228 0
228 292 289 0
292 230 291 0
291 230 224 0
230 229 224 0
229 223 224 0
224 223 222 0
296 294 226 0
300 296 232 0
232 296 227 0
296 226 227 0
226 225 227 0
231 232 227 0
297 299 228 0
302 235 299 0
235 228 299 0
235 230 228 0
235 234 229 0
235 229 230 0
300 232 236 0
300 236 304 0
233 238 231 0
238 232 231 0
238 236 232 0
237 238 233 0
235 302 240 0
240 302 307 0
240 239 234 0
240 234 235 0
306 304 236 0
242 309 306 0
236 242 306 0
238 242 236 0
241 242 237 0
237 242 238 0
240 307 244 0
244 307 311 0
244 243 239 0
244 239 240 0
309 242 247 0
309 247 313 0
246 247 241 0
241 247 242 0
244 311 248 0
248 311 315 0
250 245 243 0
244 250 243 0
248 250 244 0
250 249 245 0
313 247 252 0
313 252 317 0
251 252 246 0
246 252 247 0
315 316 248 0
319 254 316 0
254 248 316 0
254 250 248 0
254 253 249 0
254 249 250 0
317 252 256 0
317 256 321 0
255 256 251 0
251 256 252 0
254 319 258 0
258 319 323 0
258 257 253 0
258 253 254 0
321 256 261 0
321 261 325 0
260 261 255 0
255 261 256 0
323 324 258 0
324 327 263 0
324 263 259 0
258 324 259 0
257 258 259 0
263 262 259 0
325 261 266 0
325 266 330 0
265 266 260 0
260 266 261 0
327 329 263 0
329 332 268 0
329 268 264 0
263 329 264 0
262 263 264 0
268 267 264 0
330 266 272 0
330 272 336 0
270 272 265 0
265 272 266 0
332 334 268 0
334 339 274 0
334 274 269 0
268 334 269 0
267 268 269 0
274 273 269 0
342 337 279 0
279 337 336 0
279 336 272 0
277 279 272 0
271 277 272 0
271 272 270 0
339 340 274 0
274 340 273 0
340 275 273 0
340 341 275 0
275 343 276 0
341 343 275 0
279 278 342 0
278 343 342 0
278 276 343 0
278 279 277 0
345 352 284 0
286 346 284 0
284 346 345 0
285 280 286 0
280 346 286 0
280 347 346 0
348 280 281 0
348 347 280 0
349 281 282 0
349 348 281 0
350 282 283 0
350 349 282 0
283 287 350 0
350 287 354 0
284 352 290 0
290 352 356 0
284 293 286 0
284 290 293 0
293 291 285 0
293 285 286 0
287 288 295 0
360 287 295 0
354 287 360 0
294 295 288 0
357 363 298 0
357 298 356 0
356 298 290 0
298 297 290 0
297 289 290 0
290 289 292 0
290 292 293 0
293 292 291 0
362 360 295 0
367 362 301 0
301 362 296 0
362 295 296 0
295 294 296 0
300 301 296 0
363 365 298 0
365 370 303 0
365 303 299 0
298 365 299 0
297 298 299 0
303 302 299 0
367 301 305 0
367 305 373 0
304 305 300 0
300 305 301 0
303 370 308 0
308 370 377 0
308 307 302 0
308 302 303 0
375 373 305 0
379 375 310 0
310 375 306 0
375 305 306 0
305 304 306 0
309 310 306 0
308 377 312 0
312 377 381 0
312 311 307 0
312 307 308 0
379 310 314 0
379 314 383 0
313 314 309 0
309 314 310 0
381 382 312 0
311 312 382 0
385 311 382 0
315 311 385 0
383 314 318 0
383 318 387 0
317 318 313 0
313 318 314 0
316 315 320 0
315 389 320 0
315 385 389 0
320 319 316 0
387 318 322 0
387 322 391 0
321 322 317 0
317 322 318 0
389 390 320 0
319 320 390 0
393 319 390 0
323 319 393 0
391 322 326 0
391 326 396 0
325 326 321 0
321 326 322 0
324 323 328 0
323 398 328 0
323 393 398 0
328 327 324 0
396 326 331 0
396 331 400 0
330 331 325 0
325 331 326 0
398 399 328 0
399 403 333 0
399 333 329 0
328 399 329 0
327 328 329 0
333 332 329 0
407 401 335 0
335 401 400 0
331 335 400 0
338 335 331 0
336 338 330 0
330 338 331 0
403 405 333 0
333 405 332 0
405 334 332 0
405 406 334 0
339 334 406 0
339 406 408 0
407 335 344 0
407 344 411 0
342 344 337 0
344 338 337 0
344 335 338 0
337 338 336 0
408 410 339 0
339 410 340 0
340 412 341 0
410 412 340 0
344 343 411 0
343 412 411 0
343 341 412 0
343 344 342 0
414 421 351 0
353 415 351 0
351 415 414 0
352 345 353 0
345 415 353 0
345 416 415 0
417 345 346 0
417 416 345 0
418 346 347 0
418 417 346 0
419 347 348 0
419 418 347 0
420 348 349 0
420 419 348 0
424 420 355 0
420 350 355 0
420 349 350 0
354 355 350 0
421 422 351 0
428 358 422 0
358 351 422 0
358 353 351 0
358 356 352 0
358 352 353 0
433 425 359 0
359 425 424 0
355 359 424 0
361 359 355 0
360 361 354 0
354 361 355 0
429 436 364 0
429 364 428 0
428 364 358 0
364 363 358 0
363 357 358 0
358 357 356 0
435 433 359 0
366 438 435 0
359 366 435 0
361 366 359 0
362 368 360 0
368 361 360 0
368 366 361 0
367 368 362 0
364 436 369 0
369 436 440 0
371 365 363 0
364 371 363 0
369 371 364 0
371 370 365 0
438 366 372 0
438 372 442 0
374 366 368 0
372 366 374 0
373 374 367 0
367 374 368 0
369 440 376 0
376 440 445 0
369 378 371 0
369 376 378 0
378 377 370 0
378 370 371 0
443 442 372 0
443 372 374 0
443 374 444 0
449 444 380 0
380 444 375 0
444 374 375 0
374 373 375 0
379 380 375 0
445 446 376 0
376 446 378 0
378 446 447 0
377 378 447 0
452 377 447 0
381 377 452 0
449 380 384 0
449 384 455 0
383 384 379 0
379 384 380 0
382 381 386 0
381 458 386 0
381 452 458 0
386 385 382 0
455 384 388 0
455 388 461 0
387 388 383 0
383 388 384 0
458 460 386 0
385 386 460 0
463 385 460 0
389 385 463 0
461 388 392 0
461 392 466 0
391 392 387 0
387 392 388 0
390 389 394 0
389 469 394 0
389 463 469 0
394 393 390 0
472 467 395 0
395 467 466 0
392 395 466 0
397 395 392 0
396 397 391 0
391 397 392 0
469 471 394 0
393 394 471 0
475 393 471 0
398 393 475 0
474 472 395 0
402 478 474 0
395 402 474 0
397 402 395 0
400 402 396 0
396 402 397 0
399 398 404 0
398 480 404 0
398 475 480 0
404 403 399 0
478 402 401 0
407 478 401 0
486 478 407 0
401 402 400 0
480 481 404 0
404 481 403 0
481 405 403 0
481 483 405 0
483 489 409 0
406 483 409 0
405 483 406 0
409 408 406 0
492 487 413 0
487 486 413 0
486 411 413 0
486 407 411 0
489 490 409 0
409 490 408 0
490 410 408 0
490 493 410 0
413 412 492 0
412 493 492 0
412 410 493 0
412 413 411 0
495 500 414 0
414 500 421 0
496 414 415 0
496 495 414 0
497 415 416 0
497 496 415 0
498 416 417 0
498 497 416 0
499 417 418 0
499 498 417 0
507 499 423 0
499 419 423 0
499 418 419 0
420 426 419 0
419 426 423 0
424 426 420 0
501 510 427 0
427 430 422 0
500 427 422 0
421 500 422 0
427 500 501 0
430 428 422 0
511 505 431 0
508 432 431 0
508 431 505 0
432 508 507 0
423 432 507 0
434 432 423 0
433 434 425 0
434 426 425 0
434 423 426 0
425 426 424 0
427 510 437 0
437 510 516 0
437 436 429 0
430 437 429 0
427 437 430 0
430 429 428 0
513 511 431 0
513 431 432 0
513 432 514 0
514 432 434 0
514 434 515 0
518 515 439 0
439 515 435 0
515 434 435 0
434 433 435 0
438 439 435 0
437 516 441 0
441 516 521 0
441 440 436 0
441 436 437 0
520 518 439 0
439 438 520 0
438 525 520 0
438 442 525 0
521 523 441 0
440 441 523 0
527 440 523 0
445 440 527 0
442 443 448 0
529 442 448 0
525 442 529 0
444 450 443 0
443 450 448 0
449 450 444 0
446 445 451 0
445 531 451 0
445 527 531 0
453 447 446 0
453 446 451 0
453 452 447 0
529 448 454 0
529 454 533 0
456 448 450 0
454 448 456 0
455 456 449 0
449 456 450 0
451 531 457 0
457 531 535 0
451 459 453 0
451 457 459 0
459 458 452 0
459 452 453 0
534 533 454 0
462 539 534 0
454 462 534 0
456 462 454 0
461 462 455 0
455 462 456 0
535 537 457 0
457 537 459 0
459 537 538 0
538 542 464 0
538 464 460 0
459 538 460 0
458 459 460 0
464 463 460 0
544 540 465 0
465 540 539 0
462 465 539 0
468 465 462 0
466 468 461 0
461 468 462 0
464 542 470 0
470 542 546 0
470 469 463 0
470 463 464 0
544 465 473 0
544 473 548 0
472 473 467 0
473 468 467 0
473 465 468 0
467 468 466 0
546 547 470 0
547 550 476 0
547 476 471 0
470 547 471 0
469 470 471 0
476 475 471 0
548 473 477 0
548 477 553 0
474 479 472 0
479 473 472 0
479 477 473 0
478 479 474 0
550 551 476 0
480 475 476 0
552 480 476 0
551 552 476 0
480 552 482 0
556 482 552 0
557 554 484 0
484 554 553 0
477 484 553 0
485 484 477 0
488 477 479 0
485 477 488 0
486 488 478 0
478 488 479 0
482 481 480 0
556 558 482 0
558 481 482 0
558 483 481 0
484 491 489 0
558 484 489 0
483 558 489 0
557 484 558 0
494 484 485 0
491 484 494 0
492 494 487 0
494 488 487 0
494 485 488 0
487 488 486 0
491 490 489 0
490 491 493 0
493 491 494 0
493 494 492 0
502 500 495 0
496 503 495 0
495 503 502 0
497 504 496 0
496 504 503 0
498 506 497 0
497 506 504 0
499 509 498 0
498 509 506 0
507 509 499 0
560 563 501 0
501 563 510 0
501 500 502 0
561 501 502 0
560 501 561 0
561 502 503 0
561 503 562 0
512 566 562 0
503 512 562 0
504 512 503 0
511 512 505 0
512 506 505 0
512 504 506 0
505 506 508 0
508 506 509 0
508 509 507 0
564 571 517 0
563 564 517 0
516 563 517 0
510 563 516 0
568 566 512 0
568 512 511 0
513 568 511 0
569 568 513 0
570 513 514 0
570 569 513 0
574 570 519 0
570 515 519 0
570 514 515 0
518 519 515 0
517 571 522 0
522 571 576 0
522 521 516 0
522 516 517 0
574 519 524 0
574 524 578 0
520 526 518 0
526 519 518 0
526 524 519 0
525 526 520 0
576 577 522 0
577 581 528 0
577 528 523 0
522 577 523 0
521 522 523 0
528 527 523 0
580 578 524 0
530 583 580 0
524 530 580 0
526 530 524 0
529 530 525 0
525 530 526 0
528 581 532 0
532 581 586 0
532 531 527 0
532 527 528 0
585 583 530 0
530 529 585 0
529 588 585 0
529 533 588 0
532 586 536 0
536 586 590 0
536 535 531 0
536 531 532 0
533 534 541 0
594 533 541 0
588 533 594 0
539 541 534 0
590 591 536 0
536 591 535 0
591 537 535 0
591 592 537 0
592 597 543 0
538 592 543 0
537 592 538 0
543 542 538 0
601 595 545 0
545 595 594 0
545 594 541 0
544 545 541 0
540 544 541 0
540 541 539 0
597 599 543 0
542 543 599 0
603 542 599 0
546 542 603 0
601 545 549 0
601 549 608 0
548 549 544 0
544 549 545 0
603 604 546 0
546 604 547 0
550 547 604 0
550 604 610 0
608 549 555 0
608 555 615 0
553 555 548 0
548 555 549 0
610 611 550 0
550 611 551 0
551 613 552 0
611 613 551 0
616 559 556 0
552 616 556 0
613 616 552 0
559 616 615 0
559 615 555 0
557 559 555 0
554 557 555 0
554 555 553 0
559 558 556 0
558 559 557 0
618 621 565 0
563 560 565 0
560 618 565 0
560 619 618 0
620 560 561 0
620 619 560 0
625 620 567 0
620 562 567 0
620 561 562 0
566 567 562 0
622 629 572 0
622 572 621 0
621 572 565 0
572 571 565 0
571 564 565 0
565 564 563 0
627 625 567 0
627 567 566 0
568 627 566 0
628 627 568 0
632 628 573 0
628 569 573 0
628 568 569 0
570 575 569 0
569 575 573 0
574 575 570 0
629 630 572 0
571 572 630 0
636 571 630 0
576 571 636 0
634 632 573 0
579 639 634 0
573 579 634 0
575 579 573 0
578 579 574 0
574 579 575 0
636 638 576 0
576 638 577 0
581 577 638 0
581 638 642 0
639 579 582 0
639 582 644 0
580 584 578 0
584 579 578 0
584 582 579 0
583 584 580 0
642 586 581 0
647 586 642 0
646 644 582 0
587 650 646 0
582 587 646 0
584 587 582 0
585 589 583 0
589 584 583 0
589 587 584 0
588 589 585 0
647 590 586 0
652 590 647 0
650 587 593 0
650 593 656 0
596 587 589 0
593 587 596 0
594 596 588 0
588 596 589 0
652 653 590 0
590 653 591 0
653 659 598 0
592 653 598 0
591 653 592 0
598 597 592 0
665 657 600 0
600 657 656 0
593 600 656 0
602 600 593 0
601 602 595 0
602 596 595 0
602 593 596 0
595 596 594 0
659 660 598 0
598 660 597 0
660 599 597 0
660 661 599 0
663 605 603 0
599 663 603 0
661 663 599 0
666 606 605 0
666 605 663 0
606 666 665 0
600 606 665 0
607 606 600 0
609 600 602 0
607 600 609 0
608 609 601 0
601 609 602 0
605 604 603 0
604 605 610 0
605 612 610 0
605 606 612 0
614 606 607 0
612 606 614 0
617 607 609 0
614 607 617 0
615 617 608 0
608 617 609 0
612 611 610 0
611 612 613 0
613 612 614 0
613 614 616 0
616 614 617 0
616 617 615 0
668 670 623 0
621 618 623 0
618 668 623 0
618 669 668 0
671 669 624 0
669 619 624 0
669 618 619 0
620 626 619 0
619 626 624 0
625 626 620 0
623 670 622 0
670 629 622 0
670 675 629 0
623 622 621 0
673 671 624 0
673 624 626 0
673 626 674 0
678 674 631 0
631 674 627 0
674 626 627 0
626 625 627 0
628 633 627 0
627 633 631 0
632 633 628 0
676 682 635 0
635 637 630 0
675 635 630 0
629 675 630 0
635 675 676 0
637 636 630 0
680 678 631 0
680 631 633 0
680 633 681 0
686 681 640 0
640 681 634 0
681 633 634 0
633 632 634 0
639 640 634 0
682 683 635 0
688 641 683 0
641 635 683 0
641 637 635 0
643 638 636 0
637 643 636 0
641 643 637 0
643 642 638 0
686 640 645 0
686 645 693 0
644 645 639 0
639 645 640 0
688 690 641 0
695 648 690 0
648 641 690 0
648 643 641 0
648 647 642 0
648 642 643 0
693 645 649 0
693 649 699 0
646 651 644 0
651 645 644 0
651 649 645 0
650 651 646 0
695 696 648 0
647 648 696 0
702 647 696 0
652 647 702 0
706 700 654 0
654 700 699 0
649 654 699 0
655 654 649 0
658 649 651 0
655 649 658 0
656 658 650 0
650 658 651 0
702 703 652 0
652 703 653 0
659 653 703 0
659 703 709 0
710 707 662 0
662 707 706 0
654 662 706 0
664 662 654 0
667 654 655 0
664 654 667 0
665 667 657 0
667 658 657 0
667 655 658 0
657 658 656 0
709 711 659 0
659 711 660 0
662 661 710 0
661 711 710 0
661 660 711 0
661 662 663 0
663 662 664 0
663 664 666 0
666 664 667 0
666 667 665 0
713 714 668 0
668 714 670 0
715 713 672 0
713 669 672 0
713 668 669 0
671 672 669 0
714 675 670 0
718 675 714 0
717 715 672 0
721 717 677 0
677 717 673 0
717 672 673 0
672 671 673 0
674 679 673 0
673 679 677 0
678 679 674 0
719 724 676 0
676 724 682 0
676 675 718 0
676 718 719 0
723 721 677 0
684 728 723 0
677 684 723 0
679 684 677 0
680 685 678 0
685 679 678 0
685 684 679 0
681 687 680 0
680 687 685 0
686 687 681 0
683 682 689 0
682 730 689 0
682 724 730 0
689 688 683 0
728 684 691 0
728 691 736 0
692 684 685 0
691 684 692 0
694 685 687 0
692 685 694 0
693 694 686 0
686 694 687 0
730 731 689 0
689 731 688 0
731 690 688 0
731 733 690 0
695 690 733 0
695 733 738 0
736 691 697 0
736 697 741 0
698 691 692 0
697 691 698 0
701 692 694 0
698 692 701 0
699 701 693 0
693 701 694 0
738 739 695 0
695 739 696 0
742 704 702 0
696 742 702 0
739 742 696 0
704 742 741 0
697 704 741 0
705 704 697 0
708 697 698 0
705 697 708 0
706 708 700 0
708 701 700 0
708 698 701 0
700 701 699 0
704 703 702 0
703 704 709 0
704 712 709 0
704 705 712 0
710 712 707 0
712 708 707 0
712 705 708 0
707 708 706 0
712 711 709 0
711 712 710 0
716 714 713 0
715 716 713 0
720 718 716 0
716 718 714 0
717 722 715 0
722 716 715 0
722 720 716 0
721 722 717 0
725 724 719 0
718 720 719 0
720 725 719 0
720 726 725 0
727 720 722 0
726 720 727 0
723 729 721 0
729 722 721 0
729 727 722 0
728 729 723 0
732 730 725 0
725 730 724 0
734 725 726 0
732 725 734 0
735 726 727 0
734 726 735 0
737 727 729 0
735 727 737 0
736 737 728 0
728 737 729 0
732 731 730 0
731 732 733 0
733 732 734 0
733 734 738 0
734 740 738 0
734 735 740 0
743 735 737 0
740 735 743 0
741 743 736 0
736 743 737 0
740 739 738 0
739 740 742 0
742 740 743 0
742 743 741 0
