#!ascii version in FreeSurfer format (SUMA)
656 1308
-6.709045  -52.343674  -36.576248  0
-7.209045  -52.343674  -36.576248  0
-6.709045  -52.843674  -36.576248  0
-7.209045  -52.843674  -36.576248  0
-7.709045  -52.843674  -36.576248  0
-8.209045  -52.843674  -36.576248  0
-6.709045  -53.343674  -36.576248  0
-7.209045  -53.343674  -36.576248  0
-7.709045  -53.343674  -36.576248  0
-6.709045  -53.843674  -36.576248  0
-7.209045  -53.843674  -36.576248  0
-7.709045  -53.843674  -36.576248  0
-6.209045  -54.343674  -36.576248  0
-6.709045  -54.343674  -36.576248  0
-7.209045  -54.343674  -36.576248  0
-7.709045  -54.343674  -36.576248  0
-6.209045  -54.843674  -36.576248  0
-6.709045  -54.843674  -36.576248  0
-7.209045  -54.843674  -36.576248  0
-6.209045  -55.343674  -36.576248  0
-6.709045  -55.343674  -36.576248  0
-7.209045  -55.343674  -36.576248  0
-6.709045  -52.093674  -36.326248  0
-7.209045  -52.093674  -36.326248  0
-8.209045  -51.843674  -36.076248  0
-8.709045  -51.843674  -36.076248  0
-6.459045  -52.343674  -36.326248  0
-6.209045  -52.343674  -36.076248  0
-7.459045  -52.343674  -36.326248  0
-7.709045  -52.593674  -36.326248  0
-7.709045  -52.343674  -36.076248  0
-8.209045  -52.593674  -36.326248  0
-8.209045  -52.343674  -36.076248  0
-8.709045  -52.343674  -36.076248  0
-6.459045  -52.843674  -36.326248  0
-6.209045  -52.843674  -36.076248  0
-8.459045  -52.843674  -36.326248  0
-8.209045  -53.093674  -36.326248  0
-8.709045  -52.843674  -36.076248  0
-9.209045  -52.843674  -36.076248  0
-6.459045  -53.343674  -36.326248  0
-6.209045  -53.343674  -36.076248  0
-7.959045  -53.343674  -36.326248  0
-8.209045  -53.343674  -36.076248  0
-8.709045  -53.343674  -36.076248  0
-9.209045  -53.343674  -36.076248  0
-6.459045  -53.843674  -36.326248  0
-6.209045  -54.093674  -36.326248  0
-6.209045  -53.843674  -36.076248  0
-7.959045  -53.843674  -36.326248  0
-8.209045  -53.843674  -36.076248  0
-8.709045  -53.843674  -36.076248  0
-5.959045  -54.343674  -36.326248  0
-7.959045  -54.343674  -36.326248  0
-7.709045  -54.593674  -36.326248  0
-8.209045  -54.343674  -36.076248  0
-8.709045  -54.343674  -36.076248  0
-5.959045  -54.843674  -36.326248  0
-7.459045  -54.843674  -36.326248  0
-7.709045  -54.843674  -36.076248  0
-8.209045  -54.843674  -36.076248  0
-8.709045  -54.843674  -36.076248  0
-5.959045  -55.343674  -36.326248  0
-6.209045  -55.593674  -36.326248  0
-6.709045  -55.593674  -36.326248  0
-7.459045  -55.343674  -36.326248  0
-7.209045  -55.593674  -36.326248  0
-7.709045  -55.343674  -36.076248  0
-8.209045  -55.343674  -36.076248  0
-6.709045  -55.843674  -36.076248  0
-7.209045  -55.843674  -36.076248  0
-7.709045  -55.843674  -36.076248  0
-8.209045  -51.593674  -35.826244  0
-8.209045  -51.343674  -35.576241  0
-8.709045  -51.593674  -35.826244  0
-8.709045  -51.343674  -35.576241  0
-6.209045  -52.093674  -35.826244  0
-6.709045  -52.093674  -35.826244  0
-7.209045  -52.093674  -35.826244  0
-7.209045  -51.843674  -35.576241  0
-7.959045  -51.843674  -35.826244  0
-7.709045  -52.093674  -35.826244  0
-7.709045  -51.843674  -35.576241  0
-8.959045  -51.843674  -35.826244  0
-9.209045  -51.843674  -35.576241  0
-9.709045  -51.843674  -35.576241  0
-5.959045  -52.343674  -35.826244  0
-8.959045  -52.343674  -35.826244  0
-9.209045  -52.593674  -35.826244  0
-9.209045  -52.343674  -35.576241  0
-9.709045  -52.343674  -35.576241  0
-10.209045  -52.343674  -35.576241  0
-5.959045  -52.843674  -35.826244  0
-9.459045  -52.843674  -35.826244  0
-9.709045  -52.843674  -35.576241  0
-10.209045  -52.843674  -35.576241  0
-5.959045  -53.343674  -35.826244  0
-9.459045  -53.343674  -35.826244  0
-9.209045  -53.593674  -35.826244  0
-9.709045  -53.343674  -35.576241  0
-10.209045  -53.343674  -35.576241  0
-5.959045  -53.843674  -35.826244  0
-8.959045  -53.843674  -35.826244  0
-9.209045  -53.843674  -35.576241  0
-9.709045  -53.843674  -35.576241  0
-5.959045  -54.343674  -35.826244  0
-8.959045  -54.343674  -35.826244  0
-9.209045  -54.343674  -35.576241  0
-5.959045  -54.843674  -35.826244  0
-8.959045  -54.843674  -35.826244  0
-8.709045  -55.093674  -35.826244  0
-9.209045  -54.843674  -35.576241  0
-5.959045  -55.343674  -35.826244  0
-6.209045  -55.593674  -35.826244  0
-8.459045  -55.343674  -35.826244  0
-8.209045  -55.593674  -35.826244  0
-8.709045  -55.343674  -35.576241  0
-6.459045  -55.843674  -35.826244  0
-6.709045  -56.093674  -35.826244  0
-6.709045  -55.843674  -35.576241  0
-7.209045  -56.093674  -35.826244  0
-7.959045  -55.843674  -35.826244  0
-7.709045  -56.093674  -35.826244  0
-8.209045  -55.843674  -35.576241  0
-7.209045  -56.343674  -35.576241  0
-9.209045  -50.343674  -35.076241  0
-9.709045  -50.343674  -35.076241  0
-8.209045  -51.093674  -35.326241  0
-8.209045  -50.843674  -35.076241  0
-8.709045  -51.093674  -35.326241  0
-8.709045  -50.843674  -35.076241  0
-9.209045  -50.843674  -35.076241  0
-9.709045  -50.843674  -35.076241  0
-10.209045  -50.843674  -35.076241  0
-7.209045  -51.593674  -35.326241  0
-7.959045  -51.343674  -35.326241  0
-7.709045  -51.593674  -35.326241  0
-7.709045  -51.343674  -35.076241  0
-8.959045  -51.343674  -35.326241  0
-9.209045  -51.593674  -35.326241  0
-9.209045  -51.343674  -35.076241  0
-9.709045  -51.593674  -35.326241  0
-9.709045  -51.343674  -35.076241  0
-10.209045  -51.343674  -35.076241  0
-10.709045  -51.343674  -35.076241  0
-6.209045  -52.093674  -35.326241  0
-6.959045  -51.843674  -35.326241  0
-6.709045  -52.093674  -35.326241  0
-9.959045  -51.843674  -35.326241  0
-10.209045  -52.093674  -35.326241  0
-10.209045  -51.843674  -35.076241  0
-10.709045  -51.843674  -35.076241  0
-5.959045  -52.343674  -35.326241  0
-6.209045  -52.343674  -35.076241  0
-10.459045  -52.343674  -35.326241  0
-10.709045  -52.343674  -35.076241  0
-5.959045  -52.843674  -35.326241  0
-6.209045  -52.843674  -35.076241  0
-10.459045  -52.843674  -35.326241  0
-10.709045  -52.843674  -35.076241  0
-5.959045  -53.343674  -35.326241  0
-10.459045  -53.343674  -35.326241  0
-10.209045  -53.593674  -35.326241  0
-5.959045  -53.843674  -35.326241  0
-9.959045  -53.843674  -35.326241  0
-9.709045  -54.093674  -35.326241  0
-10.209045  -53.843674  -35.076241  0
-5.959045  -54.343674  -35.326241  0
-9.459045  -54.343674  -35.326241  0
-9.709045  -54.343674  -35.076241  0
-10.209045  -54.343674  -35.076241  0
-5.959045  -54.843674  -35.326241  0
-6.209045  -54.843674  -35.076241  0
-9.459045  -54.843674  -35.326241  0
-9.209045  -55.093674  -35.326241  0
-9.709045  -54.843674  -35.076241  0
-5.959045  -55.343674  -35.326241  0
-6.209045  -55.593674  -35.326241  0
-6.209045  -55.343674  -35.076241  0
-6.709045  -55.593674  -35.326241  0
-8.959045  -55.343674  -35.326241  0
-8.709045  -55.593674  -35.326241  0
-9.209045  -55.343674  -35.076241  0
-6.959045  -55.843674  -35.326241  0
-7.209045  -55.843674  -35.076241  0
-7.709045  -56.093674  -35.326241  0
-8.459045  -55.843674  -35.326241  0
-8.209045  -56.093674  -35.326241  0
-8.709045  -55.843674  -35.076241  0
-6.959045  -56.343674  -35.326241  0
-7.459045  -56.343674  -35.326241  0
-7.209045  -56.593674  -35.326241  0
-7.209045  -56.343674  -35.076241  0
-9.209045  -50.093674  -34.826241  0
-9.709045  -50.093674  -34.826241  0
-8.209045  -50.593674  -34.826241  0
-8.959045  -50.343674  -34.826241  0
-8.709045  -50.593674  -34.826241  0
-9.959045  -50.343674  -34.826241  0
-10.209045  -50.593674  -34.826241  0
-10.209045  -50.343674  -34.576241  0
-10.709045  -50.343674  -34.576241  0
-7.959045  -50.843674  -34.826241  0
-7.709045  -51.093674  -34.826241  0
-10.459045  -50.843674  -34.826241  0
-10.709045  -51.093674  -34.826241  0
-10.709045  -50.843674  -34.576241  0
-11.209045  -50.843674  -34.576241  0
-7.459045  -51.343674  -34.826241  0
-7.209045  -51.593674  -34.826241  0
-10.959045  -51.343674  -34.826241  0
-11.209045  -51.343674  -34.576241  0
-6.959045  -51.843674  -34.826241  0
-6.709045  -52.093674  -34.826241  0
-10.959045  -51.843674  -34.826241  0
-11.209045  -51.843674  -34.576241  0
-6.459045  -52.343674  -34.826241  0
-6.709045  -52.343674  -34.576241  0
-10.959045  -52.343674  -34.826241  0
-11.209045  -52.343674  -34.576241  0
-6.459045  -52.843674  -34.826241  0
-6.209045  -53.093674  -34.826241  0
-10.959045  -52.843674  -34.826241  0
-10.709045  -53.093674  -34.826241  0
-11.209045  -52.843674  -34.576241  0
-5.959045  -53.343674  -34.826241  0
-6.209045  -53.343674  -34.576241  0
-10.459045  -53.343674  -34.826241  0
-10.709045  -53.343674  -34.576241  0
-11.209045  -53.343674  -34.576241  0
-5.959045  -53.843674  -34.826241  0
-6.209045  -53.843674  -34.576241  0
-10.459045  -53.843674  -34.826241  0
-10.709045  -53.843674  -34.576241  0
-5.959045  -54.343674  -34.826241  0
-6.209045  -54.593674  -34.826241  0
-6.209045  -54.343674  -34.576241  0
-10.459045  -54.343674  -34.826241  0
-10.209045  -54.593674  -34.826241  0
-10.709045  -54.343674  -34.576241  0
-6.459045  -54.843674  -34.826241  0
-6.709045  -54.843674  -34.576241  0
-9.959045  -54.843674  -34.826241  0
-9.709045  -55.093674  -34.826241  0
-10.209045  -54.843674  -34.576241  0
-6.459045  -55.343674  -34.826241  0
-6.709045  -55.593674  -34.826241  0
-6.709045  -55.343674  -34.576241  0
-7.209045  -55.593674  -34.826241  0
-9.459045  -55.343674  -34.826241  0
-9.209045  -55.593674  -34.826241  0
-7.459045  -55.843674  -34.826241  0
-7.709045  -56.093674  -34.826241  0
-7.709045  -55.843674  -34.576241  0
-8.209045  -56.093674  -34.826241  0
-8.959045  -55.843674  -34.826241  0
-8.709045  -56.093674  -34.826241  0
-9.209045  -55.843674  -34.576241  0
-9.209045  -50.093674  -34.326237  0
-9.709045  -50.093674  -34.326237  0
-10.209045  -50.093674  -34.326237  0
-10.709045  -50.093674  -34.326237  0
-8.209045  -50.593674  -34.326237  0
-8.959045  -50.343674  -34.326237  0
-8.709045  -50.593674  -34.326237  0
-10.959045  -50.343674  -34.326237  0
-11.209045  -50.593674  -34.326237  0
-11.209045  -50.343674  -34.076233  0
-7.959045  -50.843674  -34.326237  0
-7.709045  -51.093674  -34.326237  0
-8.209045  -50.843674  -34.076233  0
-11.459045  -50.843674  -34.326237  0
-11.709045  -50.843674  -34.076233  0
-7.459045  -51.343674  -34.326237  0
-7.209045  -51.593674  -34.326237  0
-7.709045  -51.343674  -34.076233  0
-8.209045  -51.343674  -34.076233  0
-11.459045  -51.343674  -34.326237  0
-11.709045  -51.343674  -34.076233  0
-6.959045  -51.843674  -34.326237  0
-7.209045  -51.843674  -34.076233  0
-11.459045  -51.843674  -34.326237  0
-11.709045  -51.843674  -34.076233  0
-6.959045  -52.343674  -34.326237  0
-6.709045  -52.593674  -34.326237  0
-7.209045  -52.343674  -34.076233  0
-11.459045  -52.343674  -34.326237  0
-11.709045  -52.343674  -34.076233  0
-12.209045  -52.343674  -34.076233  0
-6.459045  -52.843674  -34.326237  0
-6.709045  -52.843674  -34.076233  0
-11.459045  -52.843674  -34.326237  0
-11.709045  -52.843674  -34.076233  0
-6.459045  -53.343674  -34.326237  0
-6.709045  -53.343674  -34.076233  0
-7.209045  -53.343674  -34.076233  0
-11.459045  -53.343674  -34.326237  0
-11.209045  -53.593674  -34.326237  0
-11.709045  -53.343674  -34.076233  0
-6.459045  -53.843674  -34.326237  0
-6.709045  -53.843674  -34.076233  0
-10.959045  -53.843674  -34.326237  0
-11.209045  -53.843674  -34.076233  0
-11.709045  -53.843674  -34.076233  0
-6.459045  -54.343674  -34.326237  0
-6.709045  -54.593674  -34.326237  0
-6.709045  -54.343674  -34.076233  0
-7.209045  -54.343674  -34.076233  0
-10.959045  -54.343674  -34.326237  0
-10.709045  -54.593674  -34.326237  0
-6.959045  -54.843674  -34.326237  0
-7.209045  -54.843674  -34.076233  0
-7.709045  -54.843674  -34.076233  0
-9.709045  -55.093674  -34.326237  0
-10.459045  -54.843674  -34.326237  0
-10.209045  -55.093674  -34.326237  0
-10.709045  -54.843674  -34.076233  0
-6.959045  -55.343674  -34.326237  0
-7.209045  -55.593674  -34.326237  0
-7.209045  -55.343674  -34.076233  0
-7.709045  -55.593674  -34.326237  0
-7.709045  -55.343674  -34.076233  0
-9.459045  -55.343674  -34.326237  0
-9.709045  -55.343674  -34.076233  0
-7.959045  -55.843674  -34.326237  0
-8.209045  -56.093674  -34.326237  0
-8.209045  -55.843674  -34.076233  0
-8.709045  -56.093674  -34.326237  0
-8.709045  -55.843674  -34.076233  0
-9.459045  -55.843674  -34.326237  0
-9.209045  -56.093674  -34.326237  0
-9.209045  -55.843674  -34.076233  0
-9.209045  -50.093674  -33.826233  0
-9.709045  -50.093674  -33.826233  0
-10.209045  -50.093674  -33.826233  0
-10.709045  -50.093674  -33.826233  0
-11.209045  -50.093674  -33.826233  0
-8.959045  -50.343674  -33.826233  0
-8.709045  -50.593674  -33.826233  0
-9.209045  -50.343674  -33.576233  0
-9.709045  -50.343674  -33.576233  0
-11.459045  -50.343674  -33.826233  0
-11.709045  -50.593674  -33.826233  0
-11.709045  -50.343674  -33.576233  0
-8.459045  -50.843674  -33.826233  0
-8.709045  -50.843674  -33.576233  0
-9.209045  -50.843674  -33.576233  0
-11.959045  -50.843674  -33.826233  0
-7.709045  -51.593674  -33.826233  0
-8.459045  -51.343674  -33.826233  0
-8.209045  -51.593674  -33.826233  0
-8.709045  -51.343674  -33.576233  0
-11.959045  -51.343674  -33.826233  0
-12.209045  -51.343674  -33.576233  0
-12.709045  -51.343674  -33.576233  0
-7.459045  -51.843674  -33.826233  0
-7.709045  -51.843674  -33.576233  0
-8.209045  -51.843674  -33.576233  0
-11.959045  -51.843674  -33.826233  0
-12.209045  -52.093674  -33.826233  0
-12.209045  -51.843674  -33.576233  0
-7.459045  -52.343674  -33.826233  0
-7.209045  -52.593674  -33.826233  0
-7.709045  -52.343674  -33.576233  0
-8.209045  -52.343674  -33.576233  0
-12.459045  -52.343674  -33.826233  0
-12.209045  -52.593674  -33.826233  0
-6.959045  -52.843674  -33.826233  0
-7.209045  -53.093674  -33.826233  0
-7.209045  -52.843674  -33.576233  0
-7.709045  -52.843674  -33.576233  0
-11.959045  -52.843674  -33.826233  0
-12.209045  -52.843674  -33.576233  0
-7.459045  -53.343674  -33.826233  0
-7.209045  -53.593674  -33.826233  0
-7.709045  -53.343674  -33.576233  0
-11.959045  -53.343674  -33.826233  0
-12.209045  -53.343674  -33.576233  0
-6.959045  -53.843674  -33.826233  0
-7.209045  -54.093674  -33.826233  0
-7.209045  -53.843674  -33.576233  0
-7.709045  -53.843674  -33.576233  0
-8.209045  -53.843674  -33.576233  0
-11.209045  -54.093674  -33.826233  0
-11.959045  -53.843674  -33.826233  0
-11.709045  -54.093674  -33.826233  0
-12.209045  -53.843674  -33.576233  0
-7.459045  -54.343674  -33.826233  0
-7.709045  -54.593674  -33.826233  0
-7.709045  -54.343674  -33.576233  0
-8.209045  -54.343674  -33.576233  0
-10.959045  -54.343674  -33.826233  0
-11.209045  -54.343674  -33.576233  0
-11.709045  -54.343674  -33.576233  0
-7.959045  -54.843674  -33.826233  0
-8.209045  -54.843674  -33.576233  0
-8.709045  -54.843674  -33.576233  0
-10.209045  -55.093674  -33.826233  0
-10.959045  -54.843674  -33.826233  0
-10.709045  -55.093674  -33.826233  0
-7.959045  -55.343674  -33.826233  0
-8.209045  -55.593674  -33.826233  0
-8.209045  -55.343674  -33.576233  0
-8.709045  -55.593674  -33.826233  0
-8.709045  -55.343674  -33.576233  0
-9.209045  -55.593674  -33.826233  0
-9.959045  -55.343674  -33.826233  0
-9.709045  -55.593674  -33.826233  0
-10.209045  -50.093674  -33.326233  0
-10.709045  -50.093674  -33.326233  0
-11.209045  -50.093674  -33.326233  0
-11.709045  -50.093674  -33.326233  0
-9.959045  -50.343674  -33.326233  0
-9.709045  -50.593674  -33.326233  0
-10.209045  -50.343674  -33.076233  0
-10.709045  -50.343674  -33.076233  0
-11.959045  -50.343674  -33.326233  0
-9.459045  -50.843674  -33.326233  0
-9.209045  -51.093674  -33.326233  0
-9.709045  -50.843674  -33.076233  0
-10.209045  -50.843674  -33.076233  0
-11.959045  -50.843674  -33.326233  0
-12.209045  -51.093674  -33.326233  0
-12.709045  -51.093674  -33.326233  0
-8.959045  -51.343674  -33.326233  0
-8.709045  -51.593674  -33.326233  0
-9.209045  -51.343674  -33.076233  0
-9.709045  -51.343674  -33.076233  0
-12.959045  -51.343674  -33.326233  0
-12.709045  -51.593674  -33.326233  0
-8.459045  -51.843674  -33.326233  0
-8.709045  -51.843674  -33.076233  0
-9.209045  -51.843674  -33.076233  0
-12.459045  -51.843674  -33.326233  0
-12.709045  -51.843674  -33.076233  0
-8.459045  -52.343674  -33.326233  0
-8.209045  -52.593674  -33.326233  0
-8.709045  -52.343674  -33.076233  0
-12.459045  -52.343674  -33.326233  0
-12.709045  -52.343674  -33.076233  0
-13.209045  -52.343674  -33.076233  0
-7.959045  -52.843674  -33.326233  0
-8.209045  -52.843674  -33.076233  0
-12.459045  -52.843674  -33.326233  0
-12.709045  -52.843674  -33.076233  0
-13.209045  -52.843674  -33.076233  0
-7.959045  -53.343674  -33.326233  0
-8.209045  -53.593674  -33.326233  0
-8.209045  -53.343674  -33.076233  0
-12.459045  -53.343674  -33.326233  0
-12.709045  -53.343674  -33.076233  0
-13.209045  -53.343674  -33.076233  0
-8.459045  -53.843674  -33.326233  0
-12.459045  -53.843674  -33.326233  0
-12.209045  -54.093674  -33.326233  0
-12.709045  -53.843674  -33.076233  0
-8.459045  -54.343674  -33.326233  0
-8.709045  -54.593674  -33.326233  0
-8.709045  -54.343674  -33.076233  0
-11.209045  -54.593674  -33.326233  0
-11.959045  -54.343674  -33.326233  0
-11.709045  -54.593674  -33.326233  0
-12.209045  -54.343674  -33.076233  0
-8.959045  -54.843674  -33.326233  0
-9.209045  -54.843674  -33.076233  0
-9.709045  -54.843674  -33.076233  0
-10.209045  -55.093674  -33.326233  0
-10.959045  -54.843674  -33.326233  0
-10.709045  -55.093674  -33.326233  0
-11.209045  -54.843674  -33.076233  0
-8.959045  -55.343674  -33.326233  0
-9.209045  -55.593674  -33.326233  0
-9.209045  -55.343674  -33.076233  0
-9.959045  -55.343674  -33.326233  0
-9.709045  -55.593674  -33.326233  0
-9.709045  -55.343674  -33.076233  0
-11.209045  -50.093674  -32.826229  0
-11.709045  -50.093674  -32.826229  0
-10.959045  -50.343674  -32.826229  0
-10.709045  -50.593674  -32.826229  0
-11.209045  -50.343674  -32.576225  0
-11.959045  -50.343674  -32.826229  0
-11.709045  -50.343674  -32.576225  0
-10.459045  -50.843674  -32.826229  0
-10.209045  -51.093674  -32.826229  0
-10.709045  -50.843674  -32.576225  0
-11.959045  -50.843674  -32.826229  0
-12.209045  -51.093674  -32.826229  0
-12.709045  -51.093674  -32.826229  0
-9.959045  -51.343674  -32.826229  0
-9.709045  -51.593674  -32.826229  0
-10.209045  -51.343674  -32.576225  0
-12.959045  -51.343674  -32.826229  0
-9.459045  -51.843674  -32.826229  0
-9.209045  -52.093674  -32.826229  0
-9.709045  -51.843674  -32.576225  0
-12.959045  -51.843674  -32.826229  0
-13.209045  -52.093674  -32.826229  0
-8.959045  -52.343674  -32.826229  0
-8.709045  -52.593674  -32.826229  0
-9.209045  -52.343674  -32.576225  0
-13.459045  -52.343674  -32.826229  0
-8.459045  -52.843674  -32.826229  0
-8.709045  -52.843674  -32.576225  0
-9.209045  -52.843674  -32.576225  0
-13.459045  -52.843674  -32.826229  0
-8.459045  -53.343674  -32.826229  0
-8.709045  -53.343674  -32.576225  0
-9.209045  -53.343674  -32.576225  0
-13.459045  -53.343674  -32.826229  0
-13.209045  -53.593674  -32.826229  0
-8.459045  -53.843674  -32.826229  0
-8.709045  -54.093674  -32.826229  0
-8.709045  -53.843674  -32.576225  0
-9.209045  -53.843674  -32.576225  0
-12.959045  -53.843674  -32.826229  0
-12.709045  -54.093674  -32.826229  0
-8.959045  -54.343674  -32.826229  0
-9.209045  -54.593674  -32.826229  0
-9.209045  -54.343674  -32.576225  0
-9.709045  -54.593674  -32.826229  0
-9.709045  -54.343674  -32.576225  0
-11.709045  -54.593674  -32.826229  0
-12.459045  -54.343674  -32.826229  0
-12.209045  -54.593674  -32.826229  0
-9.959045  -54.843674  -32.826229  0
-10.209045  -55.093674  -32.826229  0
-10.209045  -54.843674  -32.576225  0
-10.709045  -55.093674  -32.826229  0
-10.709045  -54.843674  -32.576225  0
-11.459045  -54.843674  -32.826229  0
-11.209045  -55.093674  -32.826229  0
-11.209045  -54.843674  -32.576225  0
-11.209045  -50.593674  -32.326225  0
-11.709045  -50.593674  -32.326225  0
-10.959045  -50.843674  -32.326225  0
-10.709045  -51.093674  -32.326225  0
-11.209045  -50.843674  -32.076225  0
-11.959045  -50.843674  -32.326225  0
-11.709045  -50.843674  -32.076225  0
-12.209045  -51.093674  -32.326225  0
-12.709045  -51.093674  -32.326225  0
-10.459045  -51.343674  -32.326225  0
-10.209045  -51.593674  -32.326225  0
-10.709045  -51.343674  -32.076225  0
-11.209045  -51.343674  -32.076225  0
-11.709045  -51.343674  -32.076225  0
-12.959045  -51.343674  -32.326225  0
-9.959045  -51.843674  -32.326225  0
-9.709045  -52.093674  -32.326225  0
-10.209045  -51.843674  -32.076225  0
-10.709045  -51.843674  -32.076225  0
-12.959045  -51.843674  -32.326225  0
-13.209045  -52.093674  -32.326225  0
-9.459045  -52.343674  -32.326225  0
-9.709045  -52.343674  -32.076225  0
-10.209045  -52.343674  -32.076225  0
-13.459045  -52.343674  -32.326225  0
-9.459045  -52.843674  -32.326225  0
-9.709045  -52.843674  -32.076225  0
-10.209045  -52.843674  -32.076225  0
-13.459045  -52.843674  -32.326225  0
-13.709045  -52.843674  -32.076225  0
-9.459045  -53.343674  -32.326225  0
-9.709045  -53.343674  -32.076225  0
-10.209045  -53.343674  -32.076225  0
-13.459045  -53.343674  -32.326225  0
-13.209045  -53.593674  -32.326225  0
-9.459045  -53.843674  -32.326225  0
-9.709045  -54.093674  -32.326225  0
-9.709045  -53.843674  -32.076225  0
-10.209045  -53.843674  -32.076225  0
-10.709045  -53.843674  -32.076225  0
-12.959045  -53.843674  -32.326225  0
-12.709045  -54.093674  -32.326225  0
-9.959045  -54.343674  -32.326225  0
-10.209045  -54.593674  -32.326225  0
-10.209045  -54.343674  -32.076225  0
-10.709045  -54.593674  -32.326225  0
-10.709045  -54.343674  -32.076225  0
-11.209045  -54.593674  -32.326225  0
-11.209045  -54.343674  -32.076225  0
-11.709045  -54.593674  -32.326225  0
-12.459045  -54.343674  -32.326225  0
-12.209045  -54.593674  -32.326225  0
-12.209045  -51.093674  -31.826223  0
-12.709045  -51.093674  -31.826223  0
-11.209045  -51.593674  -31.826223  0
-11.959045  -51.343674  -31.826223  0
-11.709045  -51.593674  -31.826223  0
-12.209045  -51.343674  -31.576223  0
-12.959045  -51.343674  -31.826223  0
-12.709045  -51.343674  -31.576223  0
-10.959045  -51.843674  -31.826223  0
-10.709045  -52.093674  -31.826223  0
-11.209045  -51.843674  -31.576223  0
-11.709045  -51.843674  -31.576223  0
-12.209045  -51.843674  -31.576223  0
-12.959045  -51.843674  -31.826223  0
-12.709045  -51.843674  -31.576223  0
-13.209045  -52.093674  -31.826223  0
-10.459045  -52.343674  -31.826223  0
-10.709045  -52.343674  -31.576223  0
-11.209045  -52.343674  -31.576223  0
-11.709045  -52.343674  -31.576223  0
-12.209045  -52.343674  -31.576223  0
-12.709045  -52.343674  -31.576223  0
-13.459045  -52.343674  -31.826223  0
-13.209045  -52.343674  -31.576223  0
-13.709045  -52.593674  -31.826223  0
-10.459045  -52.843674  -31.826223  0
-10.709045  -52.843674  -31.576223  0
-11.209045  -52.843674  -31.576223  0
-11.709045  -52.843674  -31.576223  0
-13.959045  -52.843674  -31.826223  0
-13.709045  -53.093674  -31.826223  0
-13.709045  -52.843674  -31.576223  0
-10.459045  -53.343674  -31.826223  0
-10.709045  -53.593674  -31.826223  0
-10.709045  -53.343674  -31.576223  0
-11.209045  -53.343674  -31.576223  0
-11.709045  -53.343674  -31.576223  0
-13.459045  -53.343674  -31.826223  0
-13.209045  -53.593674  -31.826223  0
-10.959045  -53.843674  -31.826223  0
-11.209045  -54.093674  -31.826223  0
-11.209045  -53.843674  -31.576223  0
-11.709045  -53.843674  -31.576223  0
-12.959045  -53.843674  -31.826223  0
-12.709045  -54.093674  -31.826223  0
-11.459045  -54.343674  -31.826223  0
-11.709045  -54.593674  -31.826223  0
-11.709045  -54.343674  -31.576223  0
-12.459045  -54.343674  -31.826223  0
-12.209045  -54.593674  -31.826223  0
-12.209045  -54.343674  -31.576223  0
-12.209045  -52.593674  -31.326221  0
-12.709045  -52.593674  -31.326221  0
-13.209045  -52.593674  -31.326221  0
-11.959045  -52.843674  -31.326221  0
-12.209045  -52.843674  -31.076221  0
-12.709045  -52.843674  -31.076221  0
-13.459045  -52.843674  -31.326221  0
-13.209045  -52.843674  -31.076221  0
-11.959045  -53.343674  -31.326221  0
-12.209045  -53.343674  -31.076221  0
-12.709045  -53.343674  -31.076221  0
-13.459045  -53.343674  -31.326221  0
-13.209045  -53.593674  -31.326221  0
-13.209045  -53.343674  -31.076221  0
-11.959045  -53.843674  -31.326221  0
-12.209045  -54.093674  -31.326221  0
-12.209045  -53.843674  -31.076221  0
-12.959045  -53.843674  -31.326221  0
-12.709045  -54.093674  -31.326221  0
-12.709045  -53.843674  -31.076221  0
22 26 0 0
1 23 0 0
0 23 22 0
1 28 23 0
0 26 2 0
2 26 34 0
0 3 1 0
0 2 3 0
28 1 29 0
1 4 29 0
1 3 4 0
5 31 4 0
4 31 29 0
5 36 31 0
2 34 6 0
6 34 40 0
2 7 3 0
2 6 7 0
3 8 4 0
3 7 8 0
37 5 42 0
5 8 42 0
5 4 8 0
5 37 36 0
6 40 9 0
9 40 46 0
6 10 7 0
6 9 10 0
7 11 8 0
7 10 11 0
42 8 49 0
49 8 11 0
47 52 12 0
47 12 46 0
12 9 46 0
12 13 9 0
9 14 10 0
9 13 14 0
10 15 11 0
10 14 15 0
49 11 53 0
53 11 15 0
12 52 16 0
16 52 57 0
12 17 13 0
12 16 17 0
13 18 14 0
13 17 18 0
54 15 58 0
15 18 58 0
15 14 18 0
15 54 53 0
16 57 19 0
19 57 62 0
16 20 17 0
16 19 20 0
17 21 18 0
17 20 21 0
58 18 65 0
65 18 21 0
62 63 19 0
19 63 20 0
20 63 64 0
20 64 21 0
21 64 66 0
21 66 65 0
72 80 24 0
25 74 24 0
24 74 72 0
25 83 74 0
76 86 27 0
26 22 27 0
22 76 27 0
22 77 76 0
78 22 23 0
78 77 22 0
30 81 28 0
81 23 28 0
81 78 23 0
81 30 80 0
30 24 80 0
30 32 24 0
24 33 25 0
24 32 33 0
83 25 87 0
87 25 33 0
27 86 35 0
35 86 92 0
35 34 26 0
35 26 27 0
29 30 28 0
30 29 31 0
30 31 32 0
32 31 36 0
38 32 36 0
33 32 38 0
87 33 88 0
33 39 88 0
33 38 39 0
39 93 88 0
35 92 41 0
41 92 96 0
41 40 34 0
41 34 35 0
42 43 37 0
38 36 37 0
43 38 37 0
44 38 43 0
38 45 39 0
38 44 45 0
93 39 97 0
97 39 45 0
41 96 48 0
48 96 101 0
48 46 40 0
48 40 41 0
49 50 43 0
49 43 42 0
43 51 44 0
43 50 51 0
98 45 102 0
45 51 102 0
45 44 51 0
45 98 97 0
48 101 47 0
101 52 47 0
101 105 52 0
48 47 46 0
53 55 50 0
53 50 49 0
50 56 51 0
50 55 56 0
102 51 106 0
106 51 56 0
105 57 52 0
108 57 105 0
58 59 54 0
55 53 54 0
59 55 54 0
60 55 59 0
55 61 56 0
55 60 61 0
106 56 109 0
109 56 61 0
108 62 57 0
112 62 108 0
65 67 59 0
65 59 58 0
59 68 60 0
59 67 68 0
110 61 114 0
61 68 114 0
61 60 68 0
61 110 109 0
112 113 62 0
62 113 63 0
113 117 69 0
64 113 69 0
63 113 64 0
70 66 64 0
70 64 69 0
67 65 66 0
70 67 66 0
71 67 70 0
115 68 121 0
68 71 121 0
68 67 71 0
68 115 114 0
117 118 69 0
69 118 70 0
70 118 120 0
70 120 71 0
71 120 122 0
71 122 121 0
127 135 73 0
75 129 73 0
73 129 127 0
75 138 129 0
134 146 79 0
82 136 79 0
79 136 134 0
136 82 135 0
135 82 73 0
82 80 73 0
80 72 73 0
73 72 74 0
73 74 75 0
84 139 83 0
83 139 74 0
139 138 74 0
138 75 74 0
85 141 84 0
84 141 139 0
85 148 141 0
145 152 76 0
76 152 86 0
147 76 77 0
147 145 76 0
78 79 146 0
147 78 146 0
77 78 147 0
79 78 81 0
79 81 82 0
82 81 80 0
87 89 84 0
87 84 83 0
84 90 85 0
84 89 90 0
148 85 149 0
85 91 149 0
85 90 91 0
91 154 149 0
152 92 86 0
156 92 152 0
88 89 87 0
89 88 93 0
94 89 93 0
90 89 94 0
90 95 91 0
90 94 95 0
154 91 158 0
158 91 95 0
156 96 92 0
160 96 156 0
97 99 94 0
97 94 93 0
94 100 95 0
94 99 100 0
158 95 161 0
161 95 100 0
160 101 96 0
163 101 160 0
102 103 98 0
99 97 98 0
103 99 98 0
104 99 103 0
162 100 164 0
100 104 164 0
100 99 104 0
100 162 161 0
163 105 101 0
167 105 163 0
106 107 103 0
106 103 102 0
165 104 168 0
104 107 168 0
104 103 107 0
104 165 164 0
167 108 105 0
171 108 167 0
109 111 107 0
109 107 106 0
168 107 173 0
173 107 111 0
171 112 108 0
176 112 171 0
114 116 110 0
116 180 110 0
110 180 109 0
180 174 109 0
174 111 109 0
111 174 173 0
176 177 112 0
112 177 113 0
179 119 117 0
113 179 117 0
177 179 113 0
183 119 179 0
121 123 115 0
123 186 115 0
115 186 114 0
186 181 114 0
181 116 114 0
116 181 180 0
119 118 117 0
120 118 119 0
189 120 119 0
183 189 119 0
124 120 189 0
120 124 190 0
185 120 190 0
122 120 185 0
121 122 123 0
122 187 123 0
122 185 187 0
123 187 186 0
189 191 124 0
124 191 190 0
193 196 125 0
126 194 125 0
125 194 193 0
126 198 194 0
195 202 128 0
130 197 128 0
128 197 195 0
197 130 196 0
130 125 196 0
130 131 125 0
125 132 126 0
125 131 132 0
198 126 199 0
126 133 199 0
126 132 133 0
133 204 199 0
203 208 137 0
203 137 202 0
202 137 128 0
137 135 128 0
135 127 128 0
128 127 129 0
128 129 130 0
130 129 138 0
140 130 138 0
131 130 140 0
131 142 132 0
131 140 142 0
132 143 133 0
132 142 143 0
204 133 205 0
133 144 205 0
133 143 144 0
144 210 205 0
209 212 134 0
134 212 146 0
136 137 208 0
209 136 208 0
134 136 209 0
137 136 135 0
139 140 138 0
140 139 141 0
140 141 142 0
142 141 148 0
150 142 148 0
143 142 150 0
143 151 144 0
143 150 151 0
210 144 214 0
214 144 151 0
153 152 145 0
153 145 216 0
145 213 216 0
145 147 213 0
147 146 212 0
147 212 213 0
149 150 148 0
150 149 154 0
155 150 154 0
151 150 155 0
214 151 218 0
218 151 155 0
157 156 153 0
153 156 152 0
153 216 220 0
153 220 157 0
158 159 155 0
158 155 154 0
218 155 222 0
222 155 159 0
221 225 157 0
225 156 157 0
225 160 156 0
221 157 220 0
227 223 159 0
158 227 159 0
161 227 158 0
159 223 222 0
225 163 160 0
230 163 225 0
164 166 162 0
166 232 162 0
232 161 162 0
232 227 161 0
230 167 163 0
234 167 230 0
168 169 165 0
166 164 165 0
169 166 165 0
170 166 169 0
232 166 237 0
237 166 170 0
172 171 235 0
171 234 235 0
171 167 234 0
240 172 235 0
173 175 169 0
173 169 168 0
238 170 242 0
170 175 242 0
170 169 175 0
170 238 237 0
178 176 172 0
172 176 171 0
172 240 245 0
172 245 178 0
180 182 174 0
182 249 174 0
174 249 173 0
249 243 173 0
243 175 173 0
175 243 242 0
178 177 176 0
245 246 178 0
246 177 178 0
246 179 177 0
248 184 183 0
179 248 183 0
246 248 179 0
251 184 248 0
186 188 181 0
188 255 181 0
181 255 180 0
255 250 180 0
250 182 180 0
182 250 249 0
192 189 184 0
184 189 183 0
252 185 190 0
184 252 190 0
192 184 190 0
252 184 251 0
185 254 187 0
252 254 185 0
186 187 188 0
187 256 188 0
187 254 256 0
188 256 255 0
192 191 189 0
191 192 190 0
258 263 193 0
193 263 196 0
259 193 194 0
259 258 193 0
200 260 198 0
260 194 198 0
260 259 194 0
201 261 200 0
200 261 260 0
201 265 261 0
262 268 195 0
195 268 202 0
264 195 197 0
264 262 195 0
197 196 263 0
197 263 264 0
199 200 198 0
200 199 204 0
206 200 204 0
201 200 206 0
265 201 266 0
201 207 266 0
201 206 207 0
207 271 266 0
269 273 203 0
203 273 208 0
203 202 268 0
203 268 269 0
205 206 204 0
206 205 210 0
211 206 210 0
207 206 211 0
271 207 277 0
277 207 211 0
274 279 209 0
209 279 212 0
209 208 273 0
209 273 274 0
214 215 211 0
214 211 210 0
277 211 281 0
281 211 215 0
217 216 213 0
283 217 213 0
212 283 213 0
279 283 212 0
218 219 215 0
218 215 214 0
281 215 286 0
286 215 219 0
284 289 217 0
289 216 217 0
289 220 216 0
284 217 283 0
222 224 219 0
222 219 218 0
286 219 291 0
291 219 224 0
226 225 221 0
293 226 221 0
220 293 221 0
289 293 220 0
227 228 223 0
224 222 223 0
228 224 223 0
229 224 228 0
291 224 296 0
296 224 229 0
231 230 226 0
226 230 225 0
226 293 299 0
226 299 231 0
232 233 228 0
232 228 227 0
297 229 301 0
229 233 301 0
229 228 233 0
229 297 296 0
236 234 231 0
231 234 230 0
231 299 304 0
231 304 236 0
237 239 233 0
237 233 232 0
301 233 308 0
308 233 239 0
236 235 234 0
305 241 240 0
305 240 235 0
304 305 235 0
236 304 235 0
310 241 305 0
242 244 238 0
244 314 238 0
238 314 237 0
314 309 237 0
309 239 237 0
239 309 308 0
247 245 241 0
241 245 240 0
241 310 317 0
241 317 247 0
322 313 243 0
322 243 249 0
242 243 244 0
243 315 244 0
243 313 315 0
244 315 314 0
247 246 245 0
317 318 247 0
318 246 247 0
318 248 246 0
320 253 251 0
248 320 251 0
318 320 248 0
324 253 320 0
255 257 250 0
257 329 250 0
329 249 250 0
329 322 249 0
253 252 251 0
324 325 253 0
325 252 253 0
325 254 252 0
254 327 256 0
325 327 254 0
255 256 257 0
256 330 257 0
256 327 330 0
257 330 329 0
332 337 258 0
258 337 263 0
333 258 259 0
333 332 258 0
334 259 260 0
334 333 259 0
335 260 261 0
335 334 260 0
267 336 265 0
336 261 265 0
336 335 261 0
267 341 336 0
270 268 262 0
270 262 344 0
262 338 344 0
262 264 338 0
264 263 337 0
264 337 338 0
266 267 265 0
272 342 271 0
271 342 266 0
342 341 266 0
341 267 266 0
272 347 342 0
275 273 269 0
268 270 269 0
270 275 269 0
270 276 275 0
270 344 349 0
270 349 276 0
277 278 272 0
277 272 271 0
347 272 352 0
352 272 278 0
280 279 274 0
355 280 274 0
355 274 273 0
348 355 273 0
275 348 273 0
348 275 276 0
348 276 350 0
350 276 349 0
281 282 278 0
281 278 277 0
352 278 358 0
358 278 282 0
285 283 280 0
280 283 279 0
280 355 361 0
280 361 285 0
286 287 282 0
286 282 281 0
358 282 359 0
282 288 359 0
282 287 288 0
288 365 359 0
290 289 284 0
367 290 284 0
367 284 283 0
362 367 283 0
285 362 283 0
362 285 361 0
291 292 287 0
291 287 286 0
366 288 371 0
288 292 371 0
288 287 292 0
288 366 365 0
294 293 290 0
290 293 289 0
290 367 368 0
295 290 368 0
294 290 295 0
373 295 368 0
296 298 292 0
296 292 291 0
371 292 376 0
376 292 298 0
300 299 294 0
294 299 293 0
295 374 378 0
300 295 378 0
294 295 300 0
374 295 373 0
301 302 297 0
298 296 297 0
302 298 297 0
303 298 302 0
376 298 384 0
384 298 303 0
306 304 300 0
300 304 299 0
300 378 379 0
307 300 379 0
306 300 307 0
387 307 379 0
391 383 302 0
301 391 302 0
308 391 301 0
302 383 303 0
303 383 385 0
303 385 384 0
306 305 304 0
305 306 310 0
306 311 310 0
306 307 311 0
307 387 388 0
312 307 388 0
311 307 312 0
394 312 388 0
314 316 309 0
316 398 309 0
398 308 309 0
398 391 308 0
319 317 311 0
311 317 310 0
321 311 312 0
319 311 321 0
312 394 400 0
312 400 321 0
322 323 313 0
313 323 406 0
397 313 406 0
315 313 397 0
314 315 316 0
315 399 316 0
315 397 399 0
316 399 398 0
319 318 317 0
318 319 320 0
320 319 321 0
401 326 324 0
401 324 320 0
400 401 320 0
321 400 320 0
403 328 326 0
403 326 401 0
405 331 328 0
405 328 403 0
405 407 323 0
329 405 323 0
322 329 323 0
331 405 329 0
323 407 406 0
326 325 324 0
325 326 327 0
327 326 328 0
327 328 330 0
330 328 331 0
330 331 329 0
339 337 332 0
333 340 332 0
332 340 339 0
340 333 412 0
333 408 412 0
333 334 408 0
409 334 335 0
409 408 334 0
410 335 336 0
410 409 335 0
343 411 341 0
411 336 341 0
411 410 336 0
343 416 411 0
345 344 338 0
337 339 338 0
339 345 338 0
339 346 345 0
340 413 417 0
346 340 417 0
339 340 346 0
413 340 412 0
342 343 341 0
342 347 343 0
347 416 343 0
347 421 416 0
351 349 345 0
345 349 344 0
346 418 424 0
351 346 424 0
345 346 351 0
418 346 417 0
352 353 422 0
421 352 422 0
347 352 421 0
354 423 353 0
353 423 422 0
354 428 423 0
356 355 348 0
350 357 348 0
348 357 356 0
430 357 350 0
430 350 349 0
425 430 349 0
351 425 349 0
425 351 424 0
358 360 353 0
358 353 352 0
429 354 433 0
354 360 433 0
354 353 360 0
354 429 428 0
363 361 356 0
356 361 355 0
364 356 357 0
363 356 364 0
357 430 435 0
357 435 364 0
359 360 358 0
359 365 360 0
365 433 360 0
365 438 433 0
369 367 362 0
361 363 362 0
363 369 362 0
363 370 369 0
364 436 441 0
370 364 441 0
363 364 370 0
436 364 435 0
371 372 366 0
372 443 366 0
443 365 366 0
443 438 365 0
369 368 367 0
368 369 373 0
369 375 373 0
369 370 375 0
370 441 446 0
370 446 375 0
376 377 372 0
376 372 371 0
443 372 449 0
449 372 377 0
380 378 374 0
373 375 374 0
375 380 374 0
375 381 380 0
375 446 447 0
382 375 447 0
381 375 382 0
452 382 447 0
384 386 377 0
384 377 376 0
449 377 453 0
453 377 386 0
380 379 378 0
379 380 387 0
380 389 387 0
380 381 389 0
390 381 382 0
389 381 390 0
382 452 456 0
382 456 390 0
391 392 383 0
393 385 383 0
393 383 392 0
393 460 385 0
385 460 384 0
460 454 384 0
454 386 384 0
386 454 453 0
389 388 387 0
388 389 394 0
389 395 394 0
389 390 395 0
390 456 457 0
396 390 457 0
395 390 396 0
463 396 457 0
467 459 392 0
391 467 392 0
398 467 391 0
392 459 393 0
393 459 461 0
393 461 460 0
402 400 395 0
395 400 394 0
404 395 396 0
402 395 404 0
396 463 470 0
396 470 404 0
473 466 397 0
473 397 406 0
397 468 399 0
466 468 397 0
398 399 467 0
467 399 468 0
402 401 400 0
401 402 403 0
403 402 404 0
470 471 404 0
471 403 404 0
471 405 403 0
405 474 407 0
471 474 405 0
406 407 473 0
473 407 474 0
414 412 408 0
409 415 408 0
408 415 414 0
415 409 478 0
409 476 478 0
409 410 476 0
477 410 411 0
477 476 410 0
411 416 477 0
477 416 481 0
419 417 413 0
412 414 413 0
414 419 413 0
414 420 419 0
415 479 483 0
420 415 483 0
414 415 420 0
479 415 478 0
421 481 416 0
421 486 481 0
426 424 418 0
417 419 418 0
419 426 418 0
419 427 426 0
420 484 489 0
427 420 489 0
419 420 427 0
484 420 483 0
487 486 421 0
487 421 422 0
488 422 423 0
488 487 422 0
423 428 488 0
488 428 492 0
431 430 425 0
424 426 425 0
426 431 425 0
426 432 431 0
427 490 493 0
432 427 493 0
426 427 432 0
490 427 489 0
433 434 429 0
434 496 429 0
496 428 429 0
496 492 428 0
437 435 431 0
431 435 430 0
432 494 498 0
437 432 498 0
431 432 437 0
494 432 493 0
438 439 434 0
438 434 433 0
496 434 497 0
434 440 497 0
434 439 440 0
440 501 497 0
442 441 436 0
502 442 436 0
502 436 435 0
499 502 435 0
437 499 435 0
499 437 498 0
443 444 439 0
443 439 438 0
439 445 440 0
439 444 445 0
501 440 505 0
505 440 445 0
448 446 442 0
442 446 441 0
442 502 506 0
442 506 448 0
449 450 444 0
449 444 443 0
444 451 445 0
444 450 451 0
505 445 509 0
509 445 451 0
448 447 446 0
452 447 448 0
506 452 448 0
511 452 506 0
453 455 450 0
453 450 449 0
510 451 515 0
451 455 515 0
451 450 455 0
451 510 509 0
458 456 512 0
456 511 512 0
456 452 511 0
517 458 512 0
460 462 454 0
462 523 454 0
454 523 453 0
523 516 453 0
516 455 453 0
455 516 515 0
458 457 456 0
518 464 463 0
518 463 457 0
517 518 457 0
458 517 457 0
520 465 464 0
520 464 518 0
525 465 520 0
467 469 459 0
459 469 530 0
522 459 530 0
461 459 522 0
460 461 462 0
461 524 462 0
461 522 524 0
462 524 523 0
472 470 464 0
464 470 463 0
475 464 465 0
472 464 475 0
526 466 473 0
465 526 473 0
475 465 473 0
526 465 525 0
466 528 468 0
526 528 466 0
467 468 469 0
468 531 469 0
468 528 531 0
469 531 530 0
472 471 470 0
471 472 474 0
474 472 475 0
474 475 473 0
480 478 476 0
477 482 476 0
476 482 480 0
481 482 477 0
485 483 479 0
535 485 479 0
535 479 478 0
533 535 478 0
480 533 478 0
533 480 482 0
533 482 534 0
482 481 534 0
481 538 534 0
481 486 538 0
491 489 484 0
542 491 484 0
542 484 483 0
536 542 483 0
485 536 483 0
536 485 535 0
540 538 486 0
540 486 487 0
541 487 488 0
541 540 487 0
488 492 541 0
541 492 547 0
495 493 490 0
548 495 490 0
548 490 489 0
543 548 489 0
491 543 489 0
543 491 542 0
496 547 492 0
496 552 547 0
500 498 494 0
554 500 494 0
554 494 493 0
549 554 493 0
495 549 493 0
549 495 548 0
553 552 496 0
553 496 497 0
497 501 553 0
553 501 557 0
503 502 499 0
498 500 499 0
500 503 499 0
500 504 503 0
500 554 558 0
500 558 504 0
505 557 501 0
505 561 557 0
507 506 503 0
503 506 502 0
508 503 504 0
507 503 508 0
504 558 563 0
504 563 508 0
509 561 505 0
509 566 561 0
513 511 507 0
507 511 506 0
514 507 508 0
513 507 514 0
508 563 568 0
508 568 514 0
573 567 510 0
573 510 515 0
509 510 566 0
566 510 567 0
513 512 511 0
512 513 517 0
513 519 517 0
513 514 519 0
514 568 569 0
521 514 569 0
519 514 521 0
575 521 569 0
583 574 516 0
583 516 523 0
515 516 573 0
573 516 574 0
519 518 517 0
518 519 520 0
520 519 521 0
576 527 525 0
576 525 520 0
575 576 520 0
521 575 520 0
578 529 527 0
578 527 576 0
580 532 529 0
580 529 578 0
522 530 532 0
580 522 532 0
582 522 580 0
522 584 524 0
582 584 522 0
523 524 583 0
583 524 584 0
527 526 525 0
526 527 528 0
528 527 529 0
528 529 531 0
531 529 532 0
531 532 530 0
537 535 533 0
534 539 533 0
533 539 537 0
538 539 534 0
544 542 536 0
535 537 536 0
537 544 536 0
537 545 544 0
546 537 539 0
545 537 546 0
546 539 538 0
585 546 538 0
540 585 538 0
588 546 585 0
586 540 541 0
586 585 540 0
541 547 586 0
586 547 591 0
550 548 543 0
542 544 543 0
544 550 543 0
544 551 550 0
545 587 593 0
551 545 593 0
544 545 551 0
587 545 546 0
587 546 589 0
589 546 588 0
552 591 547 0
552 598 591 0
555 554 549 0
548 550 549 0
550 555 549 0
550 556 555 0
551 594 601 0
556 551 601 0
550 551 556 0
594 551 593 0
600 598 552 0
600 552 553 0
553 557 600 0
600 557 607 0
559 558 555 0
555 558 554 0
560 555 556 0
559 555 560 0
556 601 610 0
556 610 560 0
561 562 609 0
607 561 609 0
557 561 607 0
562 614 609 0
564 563 559 0
559 563 558 0
565 559 560 0
564 559 565 0
560 610 617 0
560 617 565 0
622 615 562 0
561 622 562 0
566 622 561 0
562 615 614 0
570 568 564 0
564 568 563 0
571 564 565 0
570 564 571 0
565 617 618 0
572 565 618 0
571 565 572 0
624 572 618 0
628 623 567 0
628 567 573 0
566 567 622 0
622 567 623 0
570 569 568 0
569 570 575 0
570 577 575 0
570 571 577 0
579 571 572 0
577 571 579 0
572 624 625 0
581 572 625 0
579 572 581 0
630 581 625 0
633 629 574 0
633 574 583 0
573 574 628 0
628 574 629 0
577 576 575 0
576 577 578 0
578 577 579 0
578 579 580 0
580 579 581 0
630 631 581 0
631 580 581 0
631 582 580 0
582 634 584 0
631 634 582 0
583 584 633 0
633 584 634 0
590 588 585 0
586 592 585 0
585 592 590 0
591 592 586 0
595 593 587 0
589 596 587 0
587 596 595 0
588 590 589 0
590 596 589 0
590 597 596 0
599 590 592 0
597 590 599 0
598 599 591 0
591 599 592 0
602 601 594 0
593 595 594 0
595 602 594 0
595 603 602 0
604 595 596 0
603 595 604 0
605 596 597 0
604 596 605 0
606 597 599 0
605 597 606 0
600 608 598 0
608 599 598 0
608 606 599 0
607 608 600 0
611 610 602 0
602 610 601 0
612 602 603 0
611 602 612 0
613 603 604 0
612 603 613 0
605 636 639 0
613 605 639 0
604 605 613 0
636 605 606 0
636 606 637 0
637 606 608 0
637 608 638 0
642 638 616 0
616 638 609 0
638 608 609 0
608 607 609 0
614 616 609 0
619 617 611 0
611 617 610 0
620 611 612 0
619 611 620 0
621 612 613 0
620 612 621 0
613 639 644 0
613 644 621 0
642 616 615 0
622 642 615 0
647 642 622 0
615 616 614 0
619 618 617 0
618 619 624 0
619 626 624 0
619 620 626 0
627 620 621 0
626 620 627 0
621 644 650 0
621 650 627 0
653 648 623 0
653 623 628 0
622 623 647 0
647 623 648 0
626 625 624 0
625 626 630 0
626 632 630 0
626 627 632 0
627 650 651 0
635 627 651 0
632 627 635 0
629 633 635 0
651 629 635 0
654 629 651 0
628 629 653 0
653 629 654 0
632 631 630 0
631 632 634 0
634 632 635 0
634 635 633 0
640 639 636 0
637 641 636 0
636 641 640 0
638 643 637 0
637 643 641 0
642 643 638 0
645 644 640 0
640 644 639 0
646 640 641 0
645 640 646 0
649 641 643 0
646 641 649 0
647 649 642 0
642 649 643 0
652 650 645 0
645 650 644 0
655 645 646 0
652 645 655 0
653 655 648 0
655 649 648 0
655 646 649 0
648 649 647 0
652 651 650 0
651 652 654 0
654 652 655 0
654 655 653 0
