#!ascii version in FreeSurfer format (SUMA)
892 1780
-9.801744  -54.381855  -35.739834  0
-10.057721  -54.495689  -35.469013  0
-5.377205  -54.874607  -35.791584  0
-9.498091  -54.760002  -35.764137  0
-9.205752  -55.072727  -35.834881  0
-9.802846  -54.718697  -35.540493  0
-5.473434  -55.283920  -35.693851  0
-5.656142  -55.654690  -35.991329  0
-8.979968  -55.360218  -35.840576  0
-8.760338  -55.624107  -35.845707  0
-9.218673  -55.373295  -35.617119  0
-5.907447  -55.915047  -35.739525  0
-6.268026  -56.171867  -36.009289  0
-8.516547  -55.878315  -35.862675  0
-8.243545  -56.119164  -35.918270  0
-8.765478  -55.886871  -35.607525  0
-6.503542  -56.390125  -35.668907  0
-6.813328  -56.530586  -35.805004  0
-7.230370  -56.669140  -35.660736  0
-7.929076  -56.276966  -36.004116  0
-7.793365  -56.551144  -35.662296  0
-8.152222  -56.393917  -35.676315  0
-7.088120  -56.842274  -35.435890  0
-9.251248  -50.110680  -35.336838  0
-9.209130  -49.874142  -35.102371  0
-9.620889  -50.039509  -35.249847  0
-9.562390  -49.771496  -35.052601  0
-8.213499  -50.626701  -35.391804  0
-8.216297  -50.376644  -35.103851  0
-8.953880  -50.263226  -35.376415  0
-8.513099  -50.488533  -35.399342  0
-8.704875  -50.098194  -35.148281  0
-9.992954  -50.251190  -35.308819  0
-10.143979  -50.518719  -35.401966  0
-10.407456  -50.396820  -35.201454  0
-10.865807  -50.489372  -34.985878  0
-7.200783  -51.184036  -35.215153  0
-7.939124  -50.771832  -35.356071  0
-7.519367  -50.980175  -35.220608  0
-7.778321  -50.644608  -35.028366  0
-10.411168  -50.725746  -35.384518  0
-10.570724  -51.017887  -35.416718  0
-10.762763  -50.879520  -35.243607  0
-11.138388  -50.885231  -34.990425  0
-6.331430  -51.644794  -35.214962  0
-7.028270  -51.321102  -35.431343  0
-6.687783  -51.461960  -35.432976  0
-10.818415  -51.270275  -35.347939  0
-11.121943  -51.384434  -35.139912  0
-5.982539  -51.892597  -35.338428  0
-5.698141  -52.190323  -35.309223  0
-6.171571  -51.790447  -35.056850  0
-10.926990  -51.684414  -35.347549  0
-11.223973  -51.975632  -35.134098  0
-5.541920  -52.434502  -35.504082  0
-5.621745  -52.521828  -35.102974  0
-10.980692  -52.211887  -35.360722  0
-11.246857  -52.503677  -35.119839  0
-5.480625  -52.921219  -35.341167  0
-5.578782  -52.875774  -34.937614  0
-11.000420  -52.752640  -35.345490  0
-11.233339  -52.975178  -35.086781  0
-5.419880  -53.447689  -35.447235  0
-11.002909  -53.291912  -35.253223  0
-10.746257  -53.589615  -35.392750  0
-11.226397  -53.258991  -35.038948  0
-5.388376  -53.879841  -35.385567  0
-10.464290  -53.810688  -35.521564  0
-10.724793  -54.022312  -35.181164  0
-5.379364  -54.374367  -35.346615  0
-10.434210  -54.343586  -35.237915  0
-10.235085  -54.686028  -35.199226  0
-10.712004  -54.314240  -35.012825  0
-5.465114  -54.844112  -35.269329  0
-5.650541  -55.054287  -35.024975  0
-10.027460  -54.904522  -35.217987  0
-9.735717  -55.092983  -35.330082  0
-10.231183  -54.887516  -35.061573  0
-5.532810  -55.239548  -35.335133  0
-5.724161  -55.548882  -35.392376  0
-5.649868  -55.308239  -35.181000  0
-9.472314  -55.375721  -35.348011  0
-9.244500  -55.652645  -35.340786  0
-9.723399  -55.387653  -35.105438  0
-5.984255  -55.840866  -35.289909  0
-6.242730  -56.103321  -35.348534  0
-6.149694  -55.882736  -35.072933  0
-9.009191  -55.895214  -35.348618  0
-8.743892  -56.132484  -35.386681  0
-9.264150  -55.926056  -35.062202  0
-6.529691  -56.358273  -35.271076  0
-6.857711  -56.610443  -35.369892  0
-6.688550  -56.408680  -35.092594  0
-7.607301  -56.735451  -35.232128  0
-8.446630  -56.280025  -35.525780  0
-8.246837  -56.558357  -35.236897  0
-8.654528  -56.408806  -35.138737  0
-7.083724  -56.843227  -35.308289  0
-7.248990  -56.871113  -35.406082  0
-7.144939  -56.922901  -35.364613  0
-7.244593  -56.872066  -35.278481  0
-9.257045  -49.651234  -34.661270  0
-9.614807  -49.634079  -34.777054  0
-8.251158  -50.186043  -34.619011  0
-8.908732  -49.826191  -34.883167  0
-8.574536  -49.992691  -34.800896  0
-9.891330  -49.747337  -34.906937  0
-10.135670  -50.004787  -35.056004  0
-10.359126  -49.756844  -34.684052  0
-10.692524  -50.040905  -34.763813  0
-10.664208  -49.773838  -34.533890  0
-7.955784  -50.414608  -34.785107  0
-7.705051  -50.611622  -34.634434  0
-11.041515  -50.258465  -34.723282  0
-11.264010  -50.508377  -34.723465  0
-11.245275  -50.261089  -34.579601  0
-7.514386  -50.825500  -34.825794  0
-7.241794  -51.092804  -34.757744  0
-11.441073  -50.835888  -34.742622  0
-11.703524  -51.021984  -34.577553  0
-6.943690  -51.313251  -35.009995  0
-6.629709  -51.556583  -34.797638  0
-11.425108  -51.217388  -34.861366  0
-11.718597  -51.463867  -34.642391  0
-6.348643  -51.805477  -34.774742  0
-6.132391  -52.018642  -34.815235  0
-11.464727  -51.718945  -34.893230  0
-11.798600  -51.992973  -34.606579  0
-5.880890  -52.291901  -34.887836  0
-6.123744  -52.336094  -34.518555  0
-11.488640  -52.240147  -34.890972  0
-11.699853  -52.461754  -34.689373  0
-12.017743  -52.448421  -34.425037  0
-5.761515  -52.726578  -34.708595  0
-5.664692  -53.086559  -34.682377  0
-11.473030  -52.720337  -34.879719  0
-11.736807  -52.904072  -34.615192  0
-5.494058  -53.342503  -35.010590  0
-5.665660  -53.504829  -34.597233  0
-11.417503  -53.159763  -34.865891  0
-11.249425  -53.501034  -34.936211  0
-11.587399  -53.507294  -34.611542  0
-5.481564  -53.888794  -34.935879  0
-5.666697  -53.977184  -34.572880  0
-10.996708  -53.780739  -35.056396  0
-11.276536  -53.899479  -34.737179  0
-11.561010  -54.016659  -34.437481  0
-5.523355  -54.330772  -34.890961  0
-5.723837  -54.611355  -34.717709  0
-5.676156  -54.279682  -34.606197  0
-10.987723  -54.298393  -34.759060  0
-10.711073  -54.598961  -34.808723  0
-11.311136  -54.249432  -34.517372  0
-5.896433  -54.926395  -34.679218  0
-6.153917  -55.048573  -34.490982  0
-10.458151  -54.864983  -34.849216  0
-10.226621  -55.116165  -34.864613  0
-10.709270  -54.875942  -34.598358  0
-5.884536  -55.273563  -34.897789  0
-6.148084  -55.592670  -34.840179  0
-6.147895  -55.302795  -34.634888  0
-9.985302  -55.374062  -34.835667  0
-9.722813  -55.643108  -34.843063  0
-10.238259  -55.353710  -34.610134  0
-6.384337  -55.887341  -34.814247  0
-6.640810  -56.155479  -34.834972  0
-6.632703  -55.890831  -34.550617  0
-9.475662  -55.907509  -34.808086  0
-9.229152  -56.158546  -34.837673  0
-9.708225  -55.887955  -34.547283  0
-6.941401  -56.427933  -34.900230  0
-7.229579  -56.686768  -35.063637  0
-7.369896  -56.430775  -34.617958  0
-7.695426  -56.611919  -34.749432  0
-7.748476  -56.436977  -34.423367  0
-8.176341  -56.640289  -34.776978  0
-8.948874  -56.300606  -34.970837  0
-8.719053  -56.537899  -34.742985  0
-9.104118  -56.409233  -34.620407  0
-9.317291  -49.620361  -34.175392  0
-9.707733  -49.534611  -34.297928  0
-10.164172  -49.565536  -34.396057  0
-10.673733  -49.630741  -34.280945  0
-8.336432  -50.191864  -34.160637  0
-8.922068  -49.765324  -34.489033  0
-8.602099  -49.968449  -34.325245  0
-10.949018  -49.783432  -34.323124  0
-11.241117  -50.011665  -34.335350  0
-11.229408  -49.775005  -34.089703  0
-7.993596  -50.422615  -34.322098  0
-7.709713  -50.649387  -34.305008  0
-8.211430  -50.352463  -34.024319  0
-11.500279  -50.270691  -34.356781  0
-11.740485  -50.572578  -34.349998  0
-11.765159  -50.280273  -34.123409  0
-7.496557  -50.897873  -34.338390  0
-7.240549  -51.179581  -34.256817  0
-7.661802  -50.775604  -34.141689  0
-11.997370  -50.870632  -34.278599  0
-12.336032  -51.029030  -34.058834  0
-6.980744  -51.413425  -34.359314  0
-6.729721  -51.690208  -34.310131  0
-7.185045  -51.337921  -34.049435  0
-11.981369  -51.223522  -34.389835  0
-12.218699  -51.383869  -34.220318  0
-12.555401  -51.416504  -33.962852  0
-6.542083  -51.827084  -34.439404  0
-6.689456  -51.993294  -34.072754  0
-12.022325  -51.617493  -34.395855  0
-12.248819  -51.986145  -34.233242  0
-12.296927  -51.640705  -34.175720  0
-6.420183  -52.224289  -34.265709  0
-6.235108  -52.587490  -34.230347  0
-6.677546  -52.250538  -33.924782  0
-12.444359  -52.374073  -34.102123  0
-12.231340  -52.660870  -34.250645  0
-12.708038  -52.291584  -33.911060  0
-6.010007  -52.659504  -34.443813  0
-6.199222  -52.971817  -34.099579  0
-12.026697  -52.830124  -34.389626  0
-12.225492  -53.003231  -34.204819  0
-5.903338  -53.142860  -34.364697  0
-6.172926  -53.443539  -34.020592  0
-11.950783  -53.239880  -34.372421  0
-12.212579  -53.462051  -34.099339  0
-5.902341  -53.694241  -34.280178  0
-6.170075  -53.914280  -34.030674  0
-11.935855  -53.833000  -34.192947  0
-11.750623  -54.208908  -34.179451  0
-12.215684  -53.790730  -33.985203  0
-5.908096  -54.189983  -34.339973  0
-6.159940  -54.600170  -34.270306  0
-6.168433  -54.231087  -34.100613  0
-11.533763  -54.414055  -34.221180  0
-11.240857  -54.589195  -34.327694  0
-11.746355  -54.410152  -34.056396  0
-6.412264  -54.914906  -34.182522  0
-6.679959  -55.028484  -33.999775  0
-10.974856  -54.858665  -34.331177  0
-10.687412  -55.111794  -34.395470  0
-11.241865  -54.850792  -34.091232  0
-6.424118  -55.252880  -34.343246  0
-6.666516  -55.585598  -34.322845  0
-6.701031  -55.275116  -34.099266  0
-10.426811  -55.258766  -34.513332  0
-10.290489  -55.574291  -34.213234  0
-10.612460  -55.384327  -34.155041  0
-6.915186  -55.887379  -34.338825  0
-7.118019  -56.165104  -34.468304  0
-7.350350  -55.887424  -34.067059  0
-7.653103  -56.162231  -34.160229  0
-7.644676  -55.891914  -33.909573  0
-9.909283  -55.778156  -34.411541  0
-9.622247  -56.090561  -34.186325  0
-8.007210  -56.358612  -34.196918  0
-8.104132  -56.534714  -34.425770  0
-8.419550  -56.401936  -34.096596  0
-8.584695  -56.554096  -34.378319  0
-8.912254  -56.412430  -34.040386  0
-9.336659  -56.284077  -34.445576  0
-9.033542  -56.484337  -34.348885  0
-9.278447  -56.349209  -34.119099  0
-9.370620  -49.674786  -33.801109  0
-9.762236  -49.593029  -33.763649  0
-10.228118  -49.509144  -33.832275  0
-10.716702  -49.523911  -33.825207  0
-11.152973  -49.631172  -33.862328  0
-9.025049  -49.849781  -33.900276  0
-8.649290  -50.102757  -33.862122  0
-9.295382  -49.792797  -33.641762  0
-9.553840  -49.777443  -33.506809  0
-11.487616  -49.784237  -33.836849  0
-11.753421  -50.026138  -33.837379  0
-11.734442  -49.789371  -33.554092  0
-8.441916  -50.364769  -33.747177  0
-8.149199  -50.572395  -33.855385  0
-8.672481  -50.262997  -33.599186  0
-12.007597  -50.296349  -33.873959  0
-12.260936  -50.581356  -33.854195  0
-12.234751  -50.309448  -33.601753  0
-7.855570  -50.700901  -34.020531  0
-7.702407  -50.961544  -33.907646  0
-8.053551  -50.971516  -33.605164  0
-12.576312  -50.788712  -33.772663  0
-12.777472  -51.044708  -33.705269  0
-12.764748  -50.795380  -33.592499  0
-7.464442  -51.299831  -33.831310  0
-7.175570  -51.574657  -33.844288  0
-7.810363  -51.230461  -33.589817  0
-8.057181  -51.341812  -33.357235  0
-12.986588  -51.415291  -33.625065  0
-12.772127  -51.641483  -33.807934  0
-13.227926  -51.360729  -33.401146  0
-6.928507  -51.795963  -33.944477  0
-7.172194  -51.953732  -33.579586  0
-12.546700  -51.766354  -33.984928  0
-12.732703  -52.043076  -33.857815  0
-12.761909  -51.813049  -33.815800  0
-6.944730  -52.241562  -33.662319  0
-6.703307  -52.540901  -33.782394  0
-7.189563  -52.207874  -33.438236  0
-12.923314  -52.279469  -33.743553  0
-12.757116  -52.515156  -33.880791  0
-13.158844  -52.547447  -33.590023  0
-6.453650  -52.766224  -33.935566  0
-6.757023  -53.027138  -33.591290  0
-12.489211  -52.763271  -34.047234  0
-12.843529  -52.960873  -33.774235  0
-13.228181  -52.988739  -33.526814  0
-6.447003  -53.228771  -33.803196  0
-6.688152  -53.455296  -33.592461  0
-6.981006  -53.423237  -33.394073  0
-12.490602  -53.212212  -33.954430  0
-12.734671  -53.415840  -33.729294  0
-13.063736  -53.428509  -33.507797  0
-6.456909  -53.695450  -33.776665  0
-6.861816  -53.927937  -33.531837  0
-12.491277  -53.777790  -33.742027  0
-12.232421  -54.101456  -33.801029  0
-12.815778  -53.735691  -33.536304  0
-6.463906  -54.214149  -33.871983  0
-6.587817  -54.675201  -33.929916  0
-6.878433  -54.494205  -33.660839  0
-7.242036  -54.432194  -33.434578  0
-11.982070  -54.383038  -33.841740  0
-11.719364  -54.621544  -33.888229  0
-12.246831  -54.393620  -33.597874  0
-6.881924  -54.860783  -33.776291  0
-7.221388  -54.914349  -33.595139  0
-7.572063  -54.861320  -33.405678  0
-11.448540  -54.763733  -33.987968  0
-11.321745  -55.084110  -33.725269  0
-11.651909  -54.890472  -33.657425  0
-6.966790  -55.227623  -33.882366  0
-7.156079  -55.591816  -33.966595  0
-7.331725  -55.314724  -33.699364  0
-7.645013  -55.589119  -33.700615  0
-7.561121  -55.192345  -33.530159  0
-10.331795  -55.743813  -33.593582  0
-10.903172  -55.265816  -33.960548  0
-10.679915  -55.532150  -33.758232  0
-7.942168  -55.902611  -33.772194  0
-8.179868  -56.171093  -33.908550  0
-8.401342  -55.923405  -33.559669  0
-8.728387  -56.186825  -33.715107  0
-8.779158  -55.945080  -33.385658  0
-9.295125  -56.210056  -33.762718  0
-9.997104  -55.902100  -33.905903  0
-9.709459  -56.071175  -33.709892  0
-10.267117  -49.616314  -33.380489  0
-10.771495  -49.581230  -33.262497  0
-11.229694  -49.562984  -33.344341  0
-11.577788  -49.663250  -33.434631  0
-9.288582  -50.041420  -33.404194  0
-9.974618  -49.810036  -33.265678  0
-9.661830  -50.010715  -33.217060  0
-10.289028  -49.759850  -33.136322  0
-10.564180  -49.763470  -32.997154  0
-11.888445  -49.830944  -33.238758  0
-12.111778  -50.113625  -33.421959  0
-8.900220  -50.181259  -33.526386  0
-8.715193  -50.477310  -33.407211  0
-9.066253  -50.467953  -33.202511  0
-9.503014  -50.394939  -33.028896  0
-12.390278  -50.333511  -33.244865  0
-12.640613  -50.620132  -33.458935  0
-8.425963  -50.751957  -33.462421  0
-8.777069  -50.849846  -33.157761  0
-9.162041  -50.859844  -32.944004  0
-12.942753  -50.836082  -33.265438  0
-13.132734  -51.161980  -33.385220  0
-7.823459  -51.606461  -33.355717  0
-8.440436  -51.260849  -33.171818  0
-8.172324  -51.598114  -33.157135  0
-8.839738  -51.165794  -32.975269  0
-13.350872  -51.343822  -33.137691  0
-13.266137  -51.554005  -33.336750  0
-7.453106  -51.766727  -33.487350  0
-7.726514  -52.063629  -33.184689  0
-8.097376  -51.958900  -33.030197  0
-13.020949  -51.760487  -33.599556  0
-13.245022  -52.072254  -33.411373  0
-13.288279  -51.767750  -33.305241  0
-7.397798  -52.154858  -33.325104  0
-7.249403  -52.453056  -33.338581  0
-7.581259  -52.477200  -33.133202  0
-7.974791  -52.441471  -32.915546  0
-13.501377  -52.402004  -33.296375  0
-13.759555  -52.553356  -33.059143  0
-7.010765  -52.707882  -33.461403  0
-7.063731  -53.060139  -33.355366  0
-7.353101  -52.891113  -33.201046  0
-7.740051  -52.870674  -32.968010  0
-13.517535  -52.777279  -33.336823  0
-13.778911  -52.961170  -33.076794  0
-7.236163  -53.259476  -33.234318  0
-7.249351  -53.541664  -33.236919  0
-7.583424  -53.410046  -33.044033  0
-13.493568  -53.304440  -33.235584  0
-13.263005  -53.677452  -33.256260  0
-13.768305  -53.248646  -33.019939  0
-7.117851  -53.755657  -33.335831  0
-7.192964  -54.045521  -33.352749  0
-7.436283  -53.910252  -33.201603  0
-7.862583  -53.981026  -32.968071  0
-13.044243  -53.907711  -33.238655  0
-12.755903  -54.099373  -33.329918  0
-13.243490  -53.885670  -33.102760  0
-7.429866  -54.266930  -33.292149  0
-7.571993  -54.559513  -33.311031  0
-7.789958  -54.419838  -33.160954  0
-8.265244  -54.455341  -32.890221  0
-12.491035  -54.370865  -33.333103  0
-12.222380  -54.629879  -33.388206  0
-12.735480  -54.369568  -33.092567  0
-7.821201  -54.806591  -33.276344  0
-8.190917  -54.922958  -33.131157  0
-8.608219  -54.894543  -32.884884  0
-11.420857  -55.308308  -33.168736  0
-11.934817  -54.775673  -33.513142  0
-11.783693  -55.065498  -33.213772  0
-12.131821  -54.893795  -33.142315  0
-7.914299  -55.208019  -33.380085  0
-8.154278  -55.614357  -33.460999  0
-8.308980  -55.337868  -33.237690  0
-8.665641  -55.614738  -33.196350  0
-8.552588  -55.222435  -33.058617  0
-10.173428  -55.720310  -33.113441  0
-11.061328  -55.409580  -33.481659  0
-10.737058  -55.587528  -33.241787  0
-11.149699  -55.467754  -33.122013  0
-9.017393  -55.842388  -33.182102  0
-9.125072  -56.043358  -33.395081  0
-9.382767  -55.868668  -33.127869  0
-9.945276  -55.925465  -33.449684  0
-9.550671  -56.031937  -33.397171  0
-9.758183  -55.868519  -33.159927  0
-11.305992  -49.656391  -32.878838  0
-11.644195  -49.669056  -33.014847  0
-10.306354  -50.030678  -32.887527  0
-11.015861  -49.834923  -32.685497  0
-10.686101  -50.035614  -32.652992  0
-11.359374  -49.791920  -32.591454  0
-11.880392  -49.795555  -32.876461  0
-11.674971  -49.825558  -32.646896  0
-12.087626  -50.035168  -32.828907  0
-9.910154  -50.181423  -32.978050  0
-9.766339  -50.531906  -32.828884  0
-10.075193  -50.483791  -32.706707  0
-10.507932  -50.437614  -32.465580  0
-12.385695  -50.297592  -32.700417  0
-12.163238  -50.221127  -32.425014  0
-12.698161  -50.542561  -32.853371  0
-9.508395  -50.752598  -32.830082  0
-9.326150  -51.050499  -32.778641  0
-9.675758  -50.936882  -32.661865  0
-10.115135  -50.935654  -32.402363  0
-13.043007  -50.791950  -32.677704  0
-13.247153  -51.059452  -32.961063  0
-9.056386  -51.222439  -32.836983  0
-8.783842  -51.475296  -32.874916  0
-9.193266  -51.422192  -32.672943  0
-9.624207  -51.436638  -32.398220  0
-13.414621  -51.288033  -32.742958  0
-8.445829  -51.754112  -32.932877  0
-8.785341  -51.844795  -32.692108  0
-9.136897  -51.886173  -32.435577  0
-13.491740  -51.696423  -32.871937  0
-13.651058  -52.176388  -32.985504  0
-8.429917  -52.264877  -32.696053  0
-8.208397  -52.660980  -32.683037  0
-8.795431  -52.155334  -32.508167  0
-13.868402  -52.374542  -32.739666  0
-8.008432  -52.832169  -32.782879  0
-8.194663  -53.022423  -32.597034  0
-13.950205  -52.719112  -32.738796  0
-7.934134  -53.201527  -32.784653  0
-8.178239  -53.435669  -32.577194  0
-13.927381  -53.124466  -32.758514  0
-13.728246  -53.497089  -32.773556  0
-7.975112  -53.637314  -32.775368  0
-8.241013  -54.011429  -32.687012  0
-8.186432  -53.720676  -32.604664  0
-13.422551  -53.754559  -32.982269  0
-13.212152  -54.080971  -32.791161  0
-8.487057  -54.313423  -32.661419  0
-8.709613  -54.558620  -32.651974  0
-8.659817  -54.344723  -32.555397  0
-12.921971  -54.278835  -32.948654  0
-12.708291  -54.583523  -32.754719  0
-8.953530  -54.880402  -32.676296  0
-9.373797  -55.032482  -32.548454  0
-9.870003  -55.046158  -32.388828  0
-11.681555  -55.227600  -32.663147  0
-12.398659  -54.774155  -32.949547  0
-12.144267  -55.029995  -32.758015  0
-8.954237  -55.250572  -32.859207  0
-9.171767  -55.621956  -32.972233  0
-9.378613  -55.392239  -32.757954  0
-9.674133  -55.643322  -32.901897  0
-9.767326  -55.339748  -32.634747  0
-10.090167  -55.529915  -32.786156  0
-10.279031  -55.301941  -32.542343  0
-10.540903  -55.523487  -32.845676  0
-10.850060  -55.352097  -32.580601  0
-11.341456  -55.397293  -32.888977  0
-11.011353  -55.477032  -32.881924  0
-11.261518  -55.353634  -32.652252  0
-11.402679  -50.028278  -32.346947  0
-11.836180  -50.095657  -32.368660  0
-10.996216  -50.285404  -32.262711  0
-10.751353  -50.598434  -32.170101  0
-11.329199  -50.271584  -32.104916  0
-11.989719  -50.307205  -32.153263  0
-11.626047  -50.285339  -32.076374  0
-12.397285  -50.459896  -32.235676  0
-12.807296  -50.623665  -32.363049  0
-10.522130  -50.856106  -32.161251  0
-10.277494  -51.124104  -32.164726  0
-10.747454  -50.778221  -32.038006  0
-13.012228  -50.799999  -32.164165  0
-13.262278  -51.039688  -32.437263  0
-10.021558  -51.368717  -32.170036  0
-9.743367  -51.637344  -32.170536  0
-10.244767  -51.290867  -32.064308  0
-13.426331  -51.363583  -32.292721  0
-9.493259  -51.885654  -32.174629  0
-9.199003  -52.166237  -32.204781  0
-9.705266  -51.804115  -32.068073  0
-13.593629  -51.716499  -32.170223  0
-13.759295  -52.062462  -32.493450  0
-8.968317  -52.248810  -32.325558  0
-8.736098  -52.492184  -32.368183  0
-9.072940  -52.540146  -32.100807  0
-13.946711  -52.420406  -32.350410  0
-8.457112  -52.773884  -32.464020  0
-8.805292  -52.977211  -32.160423  0
-9.141894  -52.945763  -31.927141  0
-14.085924  -52.866940  -32.239773  0
-14.234828  -52.913773  -31.880886  0
-8.460411  -53.246838  -32.369305  0
-8.800864  -53.530796  -32.146034  0
-9.128465  -53.355980  -31.919828  0
-13.968402  -53.296158  -32.404427  0
-13.804359  -53.604660  -32.209152  0
-8.451633  -53.735168  -32.422844  0
-8.583372  -54.133236  -32.487690  0
-8.845533  -53.989689  -32.240982  0
-9.216392  -53.870838  -31.967752  0
-13.513900  -53.880417  -32.498760  0
-13.277573  -54.188522  -32.196777  0
-8.855711  -54.331749  -32.413750  0
-9.121524  -54.626770  -32.432343  0
-9.197151  -54.287907  -32.174580  0
-9.626427  -54.632011  -32.173431  0
-9.494455  -54.231014  -31.967270  0
-12.998169  -54.418877  -32.447239  0
-12.744570  -54.699585  -32.161919  0
-10.034645  -54.853447  -32.180389  0
-10.229854  -55.055054  -32.302795  0
-10.406227  -54.877880  -32.097782  0
-10.650259  -55.131527  -32.302513  0
-10.898037  -54.918346  -32.006744  0
-11.281654  -55.168182  -32.270157  0
-11.323827  -54.954247  -31.896513  0
-11.801399  -55.145786  -32.188576  0
-12.471819  -54.891262  -32.451477  0
-12.143177  -55.081684  -32.293980  0
-11.351590  -50.545677  -31.897257  0
-11.909926  -50.544937  -31.854345  0
-12.356236  -50.650887  -31.791286  0
-12.710685  -50.665543  -31.966064  0
-10.950688  -50.692322  -31.965899  0
-10.736543  -50.984852  -31.901234  0
-11.118917  -50.999557  -31.668787  0
-11.600038  -50.810558  -31.621222  0
-12.071870  -50.873104  -31.504297  0
-12.899584  -50.809139  -31.853973  0
-12.642683  -50.864380  -31.616550  0
-13.110019  -51.071270  -31.846603  0
-10.440824  -51.189754  -31.980686  0
-10.224384  -51.474380  -31.928673  0
-10.606598  -51.402966  -31.699703  0
-11.029699  -51.447983  -31.431906  0
-11.566603  -51.164982  -31.390314  0
-13.390496  -51.463383  -31.819044  0
-13.144582  -51.340538  -31.519754  0
-9.915185  -51.695255  -31.993006  0
-9.725355  -51.994900  -31.926483  0
-10.135698  -51.878822  -31.712557  0
-10.588402  -51.858269  -31.430986  0
-13.537323  -51.717579  -31.811033  0
-13.345495  -51.683189  -31.514095  0
-13.711443  -52.049339  -31.884499  0
-9.424767  -52.283054  -31.977303  0
-9.796657  -52.424660  -31.687363  0
-10.228959  -52.304455  -31.456511  0
-13.983419  -52.469440  -31.960209  0
-13.804610  -52.342979  -31.573742  0
-14.113729  -52.682850  -31.756285  0
-9.408660  -52.721825  -31.822866  0
-9.766454  -53.007290  -31.606848  0
-10.112784  -52.817032  -31.443428  0
-14.272542  -52.832722  -31.742836  0
-14.229528  -52.955147  -31.705431  0
-14.157007  -52.805389  -31.579561  0
-9.433533  -53.192165  -31.750099  0
-9.820700  -53.519566  -31.613674  0
-10.221470  -53.406723  -31.444775  0
-14.065818  -53.217670  -31.879757  0
-13.813535  -53.598709  -31.690859  0
-9.495912  -53.652550  -31.761860  0
-9.581289  -54.012062  -31.816381  0
-9.864693  -53.955723  -31.696672  0
-10.246054  -53.902779  -31.562016  0
-10.679352  -53.906418  -31.405865  0
-13.559948  -53.910110  -31.932871  0
-13.303821  -54.162514  -31.658655  0
-9.822654  -54.300800  -31.864567  0
-10.113361  -54.607880  -31.966614  0
-10.221973  -54.292004  -31.732399  0
-10.579176  -54.619434  -31.831867  0
-10.661242  -54.286316  -31.591818  0
-11.146694  -54.639214  -31.646595  0
-11.001305  -54.267521  -31.449467  0
-13.016989  -54.451958  -31.884068  0
-12.643765  -54.680412  -31.625198  0
-11.567793  -54.871208  -31.687622  0
-11.681919  -55.044682  -31.911018  0
-11.936365  -54.899132  -31.630758  0
-12.433844  -54.921520  -31.979151  0
-12.078435  -55.035187  -31.910103  0
-12.287592  -54.883717  -31.660822  0
-12.400732  -51.109154  -31.304464  0
-12.826143  -51.161625  -31.403416  0
-11.369213  -51.583477  -31.249424  0
-12.005662  -51.174713  -31.271189  0
-11.775490  -51.415600  -31.205818  0
-12.205440  -51.469364  -31.132074  0
-12.960582  -51.483318  -31.268305  0
-12.617643  -51.354691  -31.188158  0
-10.971688  -51.769688  -31.294472  0
-10.786898  -52.047676  -31.262276  0
-11.183117  -52.028301  -31.164228  0
-11.743595  -51.824612  -31.092564  0
-12.228366  -51.887871  -31.003054  0
-13.126304  -51.812195  -31.214607  0
-12.690740  -51.746567  -31.070774  0
-13.465741  -52.048714  -31.385275  0
-10.532390  -52.245869  -31.305672  0
-10.832372  -52.454159  -31.175018  0
-11.231686  -52.454079  -31.066694  0
-11.530593  -52.251984  -31.033802  0
-12.000794  -52.317051  -30.914881  0
-12.560425  -52.204536  -30.895334  0
-13.574870  -52.282879  -31.292238  0
-13.188684  -52.216122  -31.056702  0
-13.782317  -52.596561  -31.293625  0
-10.444185  -52.649483  -31.288523  0
-10.786182  -53.001659  -31.159498  0
-11.171906  -52.895206  -31.038055  0
-11.617065  -52.742939  -30.921345  0
-13.996291  -53.022495  -31.414703  0
-13.700054  -52.919907  -31.042482  0
-10.466352  -53.145794  -31.290253  0
-10.608534  -53.549335  -31.305676  0
-10.851018  -53.479939  -31.191244  0
-11.210029  -53.434498  -31.051878  0
-11.592219  -53.328491  -30.895733  0
-13.915542  -53.358177  -31.462740  0
-13.777799  -53.547112  -31.376162  0
-13.670453  -53.377308  -31.106277  0
-10.896058  -53.796745  -31.262823  0
-11.057309  -54.066971  -31.313148  0
-11.269982  -53.932678  -31.167564  0
-11.751935  -53.906578  -30.952475  0
-13.554563  -53.815525  -31.405844  0
-13.306397  -54.078274  -31.320732  0
-13.254127  -53.886848  -31.001881  0
-11.341307  -54.346230  -31.350161  0
-11.678035  -54.663330  -31.450481  0
-11.766046  -54.345333  -31.185326  0
-12.194258  -54.660305  -31.360952  0
-12.281881  -54.307549  -31.001921  0
-13.015944  -54.325829  -31.352612  0
-12.611362  -54.495964  -31.228237  0
-12.802447  -54.227753  -30.978657  0
-12.419548  -52.631954  -30.736164  0
-12.905847  -52.561886  -30.757383  0
-13.381227  -52.672363  -30.875681  0
-12.044243  -52.789871  -30.777441  0
-12.344145  -53.065006  -30.639875  0
-12.751315  -52.936607  -30.606333  0
-13.422386  -53.067322  -30.777222  0
-13.124600  -52.872700  -30.659670  0
-11.964771  -53.201927  -30.747580  0
-12.334202  -53.497440  -30.622627  0
-12.646181  -53.302589  -30.562494  0
-13.348378  -53.449715  -30.772371  0
-13.102944  -53.668873  -30.690664  0
-13.048945  -53.276508  -30.602970  0
-12.015475  -53.679588  -30.750467  0
-12.193107  -54.025192  -30.791672  0
-12.365825  -53.849117  -30.666323  0
-12.924530  -53.952976  -30.760050  0
-12.565221  -54.070499  -30.759785  0
-12.731096  -53.693558  -30.612759  0
22 28 0 0
1 24 0 0
0 24 22 0
1 30 24 0
0 28 2 0
2 28 36 0
0 3 1 0
0 2 3 0
30 1 31 0
1 4 31 0
1 3 4 0
5 33 4 0
4 33 31 0
5 38 33 0
2 36 6 0
6 36 42 0
2 7 3 0
2 6 7 0
3 8 4 0
3 7 8 0
39 5 44 0
5 8 44 0
5 4 8 0
5 39 38 0
6 42 9 0
9 42 48 0
6 10 7 0
6 9 10 0
7 11 8 0
7 10 11 0
44 8 51 0
51 8 11 0
49 54 12 0
49 12 48 0
12 9 48 0
12 13 9 0
9 14 10 0
9 13 14 0
10 15 11 0
10 14 15 0
51 11 56 0
56 11 15 0
12 54 16 0
16 54 60 0
12 17 13 0
12 16 17 0
13 18 14 0
13 17 18 0
57 15 62 0
15 18 62 0
15 14 18 0
15 57 56 0
16 60 19 0
19 60 66 0
16 20 17 0
16 19 20 0
17 21 18 0
17 20 21 0
62 18 70 0
70 18 21 0
66 68 19 0
19 68 20 0
20 68 69 0
20 69 21 0
21 69 71 0
21 71 70 0
78 84 23 0
25 79 23 0
23 79 78 0
25 87 79 0
80 88 26 0
27 82 26 0
26 82 80 0
27 91 82 0
85 94 29 0
85 29 84 0
84 29 23 0
29 28 23 0
28 22 23 0
23 22 24 0
23 24 25 0
32 89 30 0
30 89 24 0
89 87 24 0
87 25 24 0
89 32 88 0
32 26 88 0
32 34 26 0
26 35 27 0
26 34 35 0
91 27 96 0
96 27 35 0
29 94 37 0
37 94 101 0
37 36 28 0
37 28 29 0
31 32 30 0
32 31 33 0
32 33 34 0
34 33 38 0
40 34 38 0
35 34 40 0
96 35 97 0
35 41 97 0
35 40 41 0
41 103 97 0
37 101 43 0
43 101 106 0
43 42 36 0
43 36 37 0
44 45 39 0
40 38 39 0
45 40 39 0
46 40 45 0
40 47 41 0
40 46 47 0
103 41 108 0
108 41 47 0
43 106 50 0
50 106 112 0
50 48 42 0
50 42 43 0
51 52 45 0
51 45 44 0
45 53 46 0
45 52 53 0
109 47 115 0
47 53 115 0
47 46 53 0
47 109 108 0
113 118 55 0
113 55 112 0
112 55 50 0
55 54 50 0
54 49 50 0
50 49 48 0
56 58 52 0
56 52 51 0
52 59 53 0
52 58 59 0
115 53 119 0
119 53 59 0
55 118 61 0
61 118 121 0
61 60 54 0
61 54 55 0
62 63 57 0
58 56 57 0
63 58 57 0
64 58 63 0
58 65 59 0
58 64 65 0
119 59 122 0
122 59 65 0
61 121 67 0
67 121 125 0
67 66 60 0
67 60 61 0
70 72 63 0
70 63 62 0
63 73 64 0
63 72 73 0
123 65 127 0
65 73 127 0
65 64 73 0
65 123 122 0
125 126 67 0
126 130 74 0
126 74 68 0
67 126 68 0
66 67 68 0
75 69 68 0
75 68 74 0
76 71 69 0
76 69 75 0
72 70 71 0
76 72 71 0
77 72 76 0
128 73 134 0
73 77 134 0
73 72 77 0
73 128 127 0
130 131 74 0
74 131 75 0
75 131 132 0
75 132 76 0
76 132 133 0
76 133 77 0
77 133 135 0
77 135 134 0
142 153 81 0
83 144 81 0
81 144 142 0
83 156 144 0
149 163 86 0
84 78 86 0
78 149 86 0
78 150 149 0
151 78 79 0
151 150 78 0
90 154 87 0
154 79 87 0
154 151 79 0
154 90 153 0
153 90 81 0
90 88 81 0
88 80 81 0
81 80 82 0
81 82 83 0
92 157 91 0
91 157 82 0
157 156 82 0
156 83 82 0
93 159 92 0
92 159 157 0
93 165 159 0
164 169 95 0
164 95 163 0
163 95 86 0
95 94 86 0
94 85 86 0
86 85 84 0
89 90 87 0
90 89 88 0
96 98 92 0
96 92 91 0
92 99 93 0
92 98 99 0
165 93 166 0
93 100 166 0
93 99 100 0
100 170 166 0
95 169 102 0
102 169 172 0
102 101 94 0
102 94 95 0
97 98 96 0
98 97 103 0
104 98 103 0
99 98 104 0
99 105 100 0
99 104 105 0
170 100 173 0
173 100 105 0
102 172 107 0
107 172 175 0
107 106 101 0
107 101 102 0
108 110 104 0
108 104 103 0
104 111 105 0
104 110 111 0
173 105 176 0
176 105 111 0
107 175 114 0
114 175 179 0
114 112 106 0
114 106 107 0
115 116 109 0
110 108 109 0
116 110 109 0
117 110 116 0
177 111 180 0
111 117 180 0
111 110 117 0
111 177 176 0
114 179 113 0
179 118 113 0
179 183 118 0
114 113 112 0
119 120 116 0
119 116 115 0
181 117 184 0
117 120 184 0
117 116 120 0
117 181 180 0
183 121 118 0
187 121 183 0
122 124 120 0
122 120 119 0
184 120 188 0
188 120 124 0
187 125 121 0
191 125 187 0
127 129 123 0
129 193 123 0
123 193 122 0
193 189 122 0
189 124 122 0
124 189 188 0
191 192 125 0
125 192 126 0
130 126 192 0
130 192 196 0
134 136 128 0
136 198 128 0
128 198 127 0
198 194 127 0
194 129 127 0
129 194 193 0
196 197 130 0
130 197 131 0
197 201 137 0
132 197 137 0
131 197 132 0
138 133 132 0
138 132 137 0
139 135 133 0
139 133 138 0
139 204 135 0
135 204 134 0
204 199 134 0
199 136 134 0
136 199 198 0
201 202 137 0
137 202 138 0
138 202 203 0
138 203 139 0
139 203 205 0
139 205 204 0
208 214 140 0
141 210 140 0
140 210 208 0
141 217 210 0
212 222 143 0
145 215 143 0
143 215 212 0
215 145 214 0
145 140 214 0
145 146 140 0
140 147 141 0
140 146 147 0
217 141 218 0
141 148 218 0
141 147 148 0
148 225 218 0
221 230 152 0
155 223 152 0
152 223 221 0
223 155 222 0
222 155 143 0
155 153 143 0
153 142 143 0
143 142 144 0
143 144 145 0
145 144 156 0
158 145 156 0
146 145 158 0
146 160 147 0
146 158 160 0
147 161 148 0
147 160 161 0
225 148 226 0
148 162 226 0
148 161 162 0
162 232 226 0
229 234 149 0
149 234 163 0
231 149 150 0
231 229 149 0
151 152 230 0
231 151 230 0
150 151 231 0
152 151 154 0
152 154 155 0
155 154 153 0
157 158 156 0
158 157 159 0
158 159 160 0
160 159 165 0
167 160 165 0
161 160 167 0
161 168 162 0
161 167 168 0
232 162 237 0
237 162 168 0
235 239 164 0
164 239 169 0
164 163 234 0
164 234 235 0
166 167 165 0
167 166 170 0
171 167 170 0
168 167 171 0
237 168 241 0
241 168 171 0
239 172 169 0
243 172 239 0
173 174 171 0
173 171 170 0
241 171 245 0
245 171 174 0
243 175 172 0
247 175 243 0
176 178 174 0
176 174 173 0
245 174 248 0
248 174 178 0
247 179 175 0
251 179 247 0
180 182 177 0
182 252 177 0
177 252 176 0
252 249 176 0
249 178 176 0
178 249 248 0
251 183 179 0
254 183 251 0
184 185 181 0
182 180 181 0
185 182 181 0
186 182 185 0
252 182 255 0
255 182 186 0
254 187 183 0
258 187 254 0
188 190 185 0
188 185 184 0
256 186 260 0
186 190 260 0
186 185 190 0
186 256 255 0
258 191 187 0
263 191 258 0
193 195 189 0
195 266 189 0
189 266 188 0
266 261 188 0
261 190 188 0
190 261 260 0
263 264 191 0
191 264 192 0
196 192 264 0
196 264 269 0
198 200 194 0
200 272 194 0
194 272 193 0
272 267 193 0
267 195 193 0
195 267 266 0
269 270 196 0
196 270 197 0
201 197 270 0
201 270 275 0
204 206 199 0
206 279 199 0
199 279 198 0
279 273 198 0
273 200 198 0
200 273 272 0
275 276 201 0
201 276 202 0
276 282 207 0
203 276 207 0
202 276 203 0
203 207 283 0
278 203 283 0
205 203 278 0
204 205 206 0
205 280 206 0
205 278 280 0
206 280 279 0
282 284 207 0
207 284 283 0
286 289 209 0
211 287 209 0
209 287 286 0
211 291 287 0
288 296 213 0
216 290 213 0
213 290 288 0
290 216 289 0
289 216 209 0
216 214 209 0
214 208 209 0
209 208 210 0
209 210 211 0
219 292 217 0
217 292 210 0
292 291 210 0
291 211 210 0
220 294 219 0
219 294 292 0
220 298 294 0
297 301 224 0
297 224 296 0
296 224 213 0
224 222 213 0
222 212 213 0
213 212 215 0
213 215 216 0
216 215 214 0
218 219 217 0
219 218 225 0
227 219 225 0
220 219 227 0
298 220 299 0
220 228 299 0
220 227 228 0
228 303 299 0
302 305 221 0
221 305 230 0
223 224 301 0
302 223 301 0
221 223 302 0
224 223 222 0
226 227 225 0
227 226 232 0
233 227 232 0
228 227 233 0
303 228 307 0
307 228 233 0
236 234 229 0
236 229 309 0
229 306 309 0
229 231 306 0
231 230 305 0
231 305 306 0
237 238 233 0
237 233 232 0
307 233 311 0
311 233 238 0
240 239 235 0
313 240 235 0
313 235 234 0
310 313 234 0
236 310 234 0
310 236 309 0
241 242 238 0
241 238 237 0
311 238 315 0
315 238 242 0
244 243 240 0
240 243 239 0
240 313 318 0
240 318 244 0
245 246 242 0
245 242 241 0
315 242 320 0
320 242 246 0
319 322 244 0
322 243 244 0
322 247 243 0
319 244 318 0
248 250 246 0
248 246 245 0
320 246 324 0
324 246 250 0
322 251 247 0
327 251 322 0
252 253 249 0
253 329 249 0
249 329 248 0
329 325 248 0
325 250 248 0
250 325 324 0
327 254 251 0
332 254 327 0
255 257 253 0
255 253 252 0
329 253 335 0
335 253 257 0
259 258 333 0
258 332 333 0
258 254 332 0
338 259 333 0
260 262 256 0
262 340 256 0
256 340 255 0
340 336 255 0
336 257 255 0
257 336 335 0
265 263 259 0
259 263 258 0
259 338 343 0
259 343 265 0
266 268 261 0
268 346 261 0
261 346 260 0
346 341 260 0
341 262 260 0
262 341 340 0
265 264 263 0
344 271 269 0
344 269 264 0
343 344 264 0
265 343 264 0
349 271 344 0
272 274 267 0
274 352 267 0
267 352 266 0
352 347 266 0
347 268 266 0
268 347 346 0
271 270 269 0
350 277 275 0
350 275 270 0
349 350 270 0
271 349 270 0
355 277 350 0
279 281 273 0
281 361 273 0
273 361 272 0
361 353 272 0
353 274 272 0
274 353 352 0
277 276 275 0
356 285 282 0
356 282 276 0
355 356 276 0
277 355 276 0
278 283 285 0
356 278 285 0
358 278 356 0
278 360 280 0
358 360 278 0
279 280 281 0
280 362 281 0
280 360 362 0
281 362 361 0
285 284 282 0
284 285 283 0
364 369 286 0
286 369 289 0
365 286 287 0
365 364 286 0
293 366 291 0
366 287 291 0
366 365 287 0
295 367 293 0
293 367 366 0
295 371 367 0
368 374 288 0
288 374 296 0
370 288 290 0
370 368 288 0
290 289 369 0
290 369 370 0
292 293 291 0
293 292 294 0
293 294 295 0
300 372 298 0
298 372 294 0
372 371 294 0
371 295 294 0
300 377 372 0
375 380 297 0
297 380 301 0
297 296 374 0
297 374 375 0
299 300 298 0
304 378 303 0
303 378 299 0
378 377 299 0
377 300 299 0
304 383 378 0
381 385 302 0
302 385 305 0
302 301 380 0
302 380 381 0
307 308 304 0
307 304 303 0
383 304 388 0
388 304 308 0
386 391 306 0
306 391 309 0
306 305 385 0
306 385 386 0
311 312 308 0
311 308 307 0
388 308 393 0
393 308 312 0
314 313 310 0
396 314 310 0
309 396 310 0
391 396 309 0
315 316 312 0
315 312 311 0
393 312 394 0
312 317 394 0
312 316 317 0
317 399 394 0
397 402 314 0
402 313 314 0
402 318 313 0
397 314 396 0
320 321 316 0
320 316 315 0
400 317 404 0
317 321 404 0
317 316 321 0
317 400 399 0
323 322 319 0
406 323 319 0
318 406 319 0
402 406 318 0
324 326 321 0
324 321 320 0
404 321 408 0
408 321 326 0
328 327 323 0
323 327 322 0
323 406 410 0
323 410 328 0
329 330 325 0
326 324 325 0
330 326 325 0
331 326 330 0
408 326 412 0
412 326 331 0
334 332 328 0
328 332 327 0
328 410 415 0
328 415 334 0
335 337 330 0
335 330 329 0
413 331 418 0
331 337 418 0
331 330 337 0
331 413 412 0
334 333 332 0
416 339 338 0
416 338 333 0
415 416 333 0
334 415 333 0
421 339 416 0
340 342 336 0
342 423 336 0
336 423 335 0
423 419 335 0
419 337 335 0
337 419 418 0
345 343 339 0
339 343 338 0
339 421 426 0
339 426 345 0
346 348 341 0
348 429 341 0
341 429 340 0
429 424 340 0
424 342 340 0
342 424 423 0
345 344 343 0
427 351 349 0
427 349 344 0
426 427 344 0
345 426 344 0
432 351 427 0
352 354 347 0
354 437 347 0
347 437 346 0
437 430 346 0
430 348 346 0
348 430 429 0
351 350 349 0
433 357 355 0
433 355 350 0
432 433 350 0
351 432 350 0
435 359 357 0
435 357 433 0
439 359 435 0
361 363 353 0
363 444 353 0
353 444 352 0
444 438 352 0
438 354 352 0
354 438 437 0
357 356 355 0
356 357 358 0
358 357 359 0
439 440 359 0
440 358 359 0
440 360 358 0
360 442 362 0
440 442 360 0
361 362 363 0
362 445 363 0
362 442 445 0
363 445 444 0
447 452 364 0
364 452 369 0
448 364 365 0
448 447 364 0
449 365 366 0
449 448 365 0
450 366 367 0
450 449 366 0
373 451 371 0
451 367 371 0
451 450 367 0
373 456 451 0
376 374 368 0
376 368 459 0
368 453 459 0
368 370 453 0
370 369 452 0
370 452 453 0
372 373 371 0
379 457 377 0
377 457 372 0
457 456 372 0
456 373 372 0
379 462 457 0
382 380 375 0
465 382 375 0
465 375 374 0
460 465 374 0
376 460 374 0
460 376 459 0
378 379 377 0
384 463 383 0
383 463 378 0
463 462 378 0
462 379 378 0
384 468 463 0
387 385 381 0
471 387 381 0
471 381 380 0
466 471 380 0
382 466 380 0
466 382 465 0
388 389 384 0
388 384 383 0
468 384 469 0
384 390 469 0
384 389 390 0
390 475 469 0
392 391 386 0
478 392 386 0
478 386 385 0
472 478 385 0
387 472 385 0
472 387 471 0
393 395 389 0
393 389 388 0
476 390 480 0
390 395 480 0
390 389 395 0
390 476 475 0
398 396 392 0
392 396 391 0
392 478 483 0
392 483 398 0
394 395 393 0
401 481 399 0
399 481 394 0
481 480 394 0
480 395 394 0
401 486 481 0
403 402 397 0
489 403 397 0
489 397 396 0
484 489 396 0
398 484 396 0
484 398 483 0
404 405 400 0
405 491 400 0
400 491 399 0
491 487 399 0
487 401 399 0
401 487 486 0
407 406 403 0
403 406 402 0
403 489 494 0
403 494 407 0
408 409 405 0
408 405 404 0
491 405 497 0
497 405 409 0
411 410 407 0
407 410 406 0
407 494 500 0
407 500 411 0
412 414 409 0
412 409 408 0
497 409 502 0
502 409 414 0
417 415 411 0
411 415 410 0
411 500 505 0
411 505 417 0
418 420 413 0
420 509 413 0
413 509 412 0
509 503 412 0
503 414 412 0
414 503 502 0
417 416 415 0
506 422 421 0
506 421 416 0
505 506 416 0
417 505 416 0
512 422 506 0
423 425 419 0
425 515 419 0
419 515 418 0
515 510 418 0
510 420 418 0
420 510 509 0
428 426 422 0
422 426 421 0
422 512 518 0
422 518 428 0
429 431 424 0
431 524 424 0
424 524 423 0
524 516 423 0
516 425 423 0
425 516 515 0
428 427 426 0
519 434 432 0
519 432 427 0
518 519 427 0
428 518 427 0
521 436 434 0
521 434 519 0
526 436 521 0
532 523 430 0
532 430 437 0
429 430 431 0
430 525 431 0
430 523 525 0
431 525 524 0
434 433 432 0
433 434 435 0
435 434 436 0
527 441 439 0
527 439 435 0
526 527 435 0
436 526 435 0
529 443 441 0
529 441 527 0
531 446 443 0
531 443 529 0
438 444 446 0
531 438 446 0
533 438 531 0
437 438 532 0
532 438 533 0
441 440 439 0
440 441 442 0
442 441 443 0
442 443 445 0
445 443 446 0
445 446 444 0
454 452 447 0
448 455 447 0
447 455 454 0
455 448 539 0
448 534 539 0
448 449 534 0
535 449 450 0
535 534 449 0
536 450 451 0
536 535 450 0
458 537 456 0
537 451 456 0
537 536 451 0
458 543 537 0
461 459 453 0
545 461 453 0
545 453 452 0
538 545 452 0
454 538 452 0
538 454 455 0
538 455 540 0
540 455 539 0
457 458 456 0
464 544 462 0
462 544 457 0
544 543 457 0
543 458 457 0
464 549 544 0
467 465 460 0
551 467 460 0
551 460 459 0
546 551 459 0
461 546 459 0
546 461 545 0
463 464 462 0
470 550 468 0
468 550 463 0
550 549 463 0
549 464 463 0
470 554 550 0
473 471 466 0
465 467 466 0
467 473 466 0
467 474 473 0
467 551 557 0
467 557 474 0
469 470 468 0
477 555 475 0
475 555 469 0
555 554 469 0
554 470 469 0
477 560 555 0
479 478 472 0
562 479 472 0
562 472 471 0
556 562 471 0
473 556 471 0
556 473 474 0
556 474 558 0
558 474 557 0
480 482 476 0
482 565 476 0
476 565 475 0
565 561 475 0
561 477 475 0
477 561 560 0
485 483 479 0
479 483 478 0
479 562 568 0
479 568 485 0
481 482 480 0
488 566 486 0
486 566 481 0
566 565 481 0
565 482 481 0
488 572 566 0
490 489 484 0
574 490 484 0
574 484 483 0
569 574 483 0
485 569 483 0
569 485 568 0
491 492 487 0
488 486 487 0
492 488 487 0
493 488 492 0
572 488 578 0
578 488 493 0
495 494 490 0
490 494 489 0
490 574 575 0
496 490 575 0
495 490 496 0
580 496 575 0
497 498 492 0
497 492 491 0
492 499 493 0
492 498 499 0
578 493 583 0
583 493 499 0
501 500 495 0
495 500 494 0
496 581 586 0
501 496 586 0
495 496 501 0
581 496 580 0
502 504 498 0
502 498 497 0
584 499 590 0
499 504 590 0
499 498 504 0
499 584 583 0
507 505 501 0
501 505 500 0
501 586 587 0
508 501 587 0
507 501 508 0
593 508 587 0
509 511 503 0
511 597 503 0
503 597 502 0
597 591 502 0
591 504 502 0
504 591 590 0
507 506 505 0
506 507 512 0
507 513 512 0
507 508 513 0
508 593 594 0
514 508 594 0
513 508 514 0
600 514 594 0
515 517 510 0
517 604 510 0
510 604 509 0
604 598 509 0
598 511 509 0
511 598 597 0
520 518 513 0
513 518 512 0
522 513 514 0
520 513 522 0
514 600 607 0
514 607 522 0
613 603 516 0
613 516 524 0
515 516 517 0
516 605 517 0
516 603 605 0
517 605 604 0
520 519 518 0
519 520 521 0
521 520 522 0
608 528 526 0
608 526 521 0
607 608 521 0
522 607 521 0
610 530 528 0
610 528 608 0
616 530 610 0
619 612 523 0
619 523 532 0
523 614 525 0
612 614 523 0
524 525 613 0
613 525 614 0
528 527 526 0
527 528 529 0
529 528 530 0
616 617 530 0
617 529 530 0
617 531 529 0
531 620 533 0
617 620 531 0
532 533 619 0
619 533 620 0
541 539 534 0
535 542 534 0
534 542 541 0
542 535 625 0
535 622 625 0
535 536 622 0
623 536 537 0
623 622 536 0
537 543 623 0
623 543 628 0
547 545 538 0
540 548 538 0
538 548 547 0
631 548 540 0
631 540 539 0
624 631 539 0
541 624 539 0
624 541 542 0
624 542 626 0
626 542 625 0
630 628 543 0
630 543 544 0
544 549 630 0
630 549 635 0
552 551 546 0
545 547 546 0
547 552 546 0
547 553 552 0
548 632 638 0
553 548 638 0
547 548 553 0
632 548 631 0
637 635 549 0
637 549 550 0
550 554 637 0
637 554 642 0
559 557 552 0
552 557 551 0
553 639 644 0
559 553 644 0
552 553 559 0
639 553 638 0
643 642 554 0
643 554 555 0
555 560 643 0
643 560 648 0
563 562 556 0
558 564 556 0
556 564 563 0
649 564 558 0
649 558 557 0
645 649 557 0
559 645 557 0
645 559 644 0
565 567 561 0
567 652 561 0
652 560 561 0
652 648 560 0
570 568 563 0
563 568 562 0
571 563 564 0
570 563 571 0
564 649 654 0
564 654 571 0
566 567 565 0
573 653 572 0
572 653 566 0
653 652 566 0
652 567 566 0
573 657 653 0
576 574 569 0
568 570 569 0
570 576 569 0
570 577 576 0
571 655 658 0
577 571 658 0
570 571 577 0
655 571 654 0
578 579 573 0
578 573 572 0
657 573 660 0
660 573 579 0
576 575 574 0
575 576 580 0
576 582 580 0
576 577 582 0
577 658 661 0
577 661 582 0
583 585 579 0
583 579 578 0
660 579 663 0
663 579 585 0
588 586 581 0
580 582 581 0
582 588 581 0
582 589 588 0
582 661 665 0
582 665 589 0
590 592 584 0
592 668 584 0
584 668 583 0
668 664 583 0
664 585 583 0
585 664 663 0
588 587 586 0
587 588 593 0
588 595 593 0
588 589 595 0
589 665 666 0
596 589 666 0
595 589 596 0
670 596 666 0
597 599 591 0
599 673 591 0
591 673 590 0
673 669 590 0
669 592 590 0
592 669 668 0
595 594 593 0
594 595 600 0
595 601 600 0
595 596 601 0
596 670 671 0
602 596 671 0
601 596 602 0
675 602 671 0
604 606 598 0
606 679 598 0
598 679 597 0
679 674 597 0
674 599 597 0
599 674 673 0
609 607 601 0
601 607 600 0
611 601 602 0
609 601 611 0
602 675 681 0
602 681 611 0
613 615 603 0
603 615 690 0
678 603 690 0
605 603 678 0
604 605 606 0
605 680 606 0
605 678 680 0
606 680 679 0
609 608 607 0
608 609 610 0
610 609 611 0
682 618 616 0
682 616 610 0
681 682 610 0
611 681 610 0
684 621 618 0
684 618 682 0
612 619 621 0
684 612 621 0
686 612 684 0
612 688 614 0
686 688 612 0
613 614 615 0
614 691 615 0
614 688 691 0
615 691 690 0
618 617 616 0
617 618 620 0
620 618 621 0
620 621 619 0
627 625 622 0
623 629 622 0
622 629 627 0
628 629 623 0
633 631 624 0
626 634 624 0
624 634 633 0
695 634 626 0
695 626 625 0
693 695 625 0
627 693 625 0
693 627 629 0
693 629 694 0
698 694 636 0
636 694 630 0
694 629 630 0
629 628 630 0
635 636 630 0
640 638 632 0
631 633 632 0
633 640 632 0
633 641 640 0
634 696 702 0
641 634 702 0
633 634 641 0
696 634 695 0
700 698 636 0
700 636 635 0
637 700 635 0
701 700 637 0
637 642 701 0
701 642 705 0
646 644 639 0
638 640 639 0
640 646 639 0
640 647 646 0
641 703 707 0
647 641 707 0
640 641 647 0
703 641 702 0
706 705 642 0
706 642 643 0
643 648 706 0
706 648 710 0
650 649 645 0
644 646 645 0
646 650 645 0
646 651 650 0
647 708 711 0
651 647 711 0
646 647 651 0
708 647 707 0
652 710 648 0
652 714 710 0
656 654 650 0
650 654 649 0
651 712 716 0
656 651 716 0
650 651 656 0
712 651 711 0
715 714 652 0
715 652 653 0
653 657 715 0
715 657 719 0
659 658 655 0
720 659 655 0
720 655 654 0
717 720 654 0
656 717 654 0
717 656 716 0
660 719 657 0
660 723 719 0
662 661 659 0
659 661 658 0
659 720 725 0
659 725 662 0
663 723 660 0
663 728 723 0
667 665 662 0
662 665 661 0
662 725 730 0
662 730 667 0
734 729 664 0
734 664 668 0
663 664 728 0
728 664 729 0
667 666 665 0
731 672 670 0
731 670 666 0
730 731 666 0
667 730 666 0
736 672 731 0
741 735 669 0
741 669 673 0
668 669 734 0
734 669 735 0
672 671 670 0
737 676 675 0
737 675 671 0
736 737 671 0
672 736 671 0
739 677 676 0
739 676 737 0
743 677 739 0
751 742 674 0
751 674 679 0
673 674 741 0
741 674 742 0
683 681 676 0
676 681 675 0
685 676 677 0
683 676 685 0
677 743 744 0
687 677 744 0
685 677 687 0
746 689 687 0
746 687 744 0
748 692 689 0
748 689 746 0
678 690 692 0
748 678 692 0
750 678 748 0
678 752 680 0
750 752 678 0
679 680 751 0
751 680 752 0
683 682 681 0
682 683 684 0
684 683 685 0
684 685 686 0
686 685 687 0
686 687 688 0
688 687 689 0
688 689 691 0
691 689 692 0
691 692 690 0
697 695 693 0
694 699 693 0
693 699 697 0
698 699 694 0
704 702 696 0
757 704 696 0
757 696 695 0
753 757 695 0
697 753 695 0
753 697 699 0
753 699 754 0
754 699 698 0
700 754 698 0
755 754 700 0
756 700 701 0
756 755 700 0
701 705 756 0
756 705 762 0
709 707 703 0
765 709 703 0
765 703 702 0
758 765 702 0
704 758 702 0
758 704 757 0
764 762 705 0
764 705 706 0
706 710 764 0
764 710 770 0
713 711 708 0
772 713 708 0
772 708 707 0
766 772 707 0
709 766 707 0
766 709 765 0
714 770 710 0
714 776 770 0
718 716 712 0
779 718 712 0
779 712 711 0
773 779 711 0
713 773 711 0
773 713 772 0
778 776 714 0
778 714 715 0
715 719 778 0
778 719 782 0
721 720 717 0
716 718 717 0
718 721 717 0
718 722 721 0
718 779 785 0
718 785 722 0
723 724 784 0
782 723 784 0
719 723 782 0
724 788 784 0
726 725 721 0
721 725 720 0
727 721 722 0
726 721 727 0
722 785 791 0
722 791 727 0
794 789 724 0
723 794 724 0
728 794 723 0
724 789 788 0
732 730 726 0
726 730 725 0
733 726 727 0
732 726 733 0
727 791 796 0
727 796 733 0
801 795 729 0
801 729 734 0
728 729 794 0
794 729 795 0
732 731 730 0
731 732 736 0
732 738 736 0
732 733 738 0
733 796 797 0
740 733 797 0
738 733 740 0
803 740 797 0
810 802 735 0
810 735 741 0
734 735 801 0
801 735 802 0
738 737 736 0
737 738 739 0
739 738 740 0
804 745 743 0
804 743 739 0
803 804 739 0
740 803 739 0
806 747 745 0
806 745 804 0
808 749 747 0
808 747 806 0
812 749 808 0
815 811 742 0
815 742 751 0
741 742 810 0
810 742 811 0
745 744 743 0
744 745 746 0
746 745 747 0
746 747 748 0
748 747 749 0
812 813 749 0
813 748 749 0
813 750 748 0
750 816 752 0
813 816 750 0
751 752 815 0
815 752 816 0
759 757 753 0
754 760 753 0
753 760 759 0
755 761 754 0
754 761 760 0
756 763 755 0
755 763 761 0
762 763 756 0
767 765 758 0
757 759 758 0
759 767 758 0
759 768 767 0
769 759 760 0
768 759 769 0
761 818 821 0
769 761 821 0
760 761 769 0
818 761 763 0
818 763 819 0
824 819 771 0
771 819 764 0
819 763 764 0
763 762 764 0
770 771 764 0
774 772 766 0
765 767 766 0
767 774 766 0
767 775 774 0
768 820 826 0
775 768 826 0
767 768 775 0
820 768 769 0
820 769 822 0
822 769 821 0
824 771 777 0
