#!ascii version in FreeSurfer format (SUMA)
678 1354
7.290955  -51.343674  -35.576241  0
6.790955  -51.343674  -35.576241  0
7.290955  -52.843674  -35.576241  0
6.790955  -52.843674  -35.576241  0
8.290955  -49.843674  -35.076241  0
7.790955  -49.843674  -35.076241  0
8.290955  -50.343674  -35.076241  0
7.790955  -50.343674  -35.076241  0
7.290955  -50.343674  -35.076241  0
8.290955  -50.843674  -35.076241  0
7.790955  -50.843674  -35.076241  0
7.290955  -51.093674  -35.326241  0
7.290955  -50.843674  -35.076241  0
6.790955  -51.093674  -35.326241  0
8.290955  -51.343674  -35.076241  0
7.540955  -51.343674  -35.326241  0
7.790955  -51.343674  -35.076241  0
7.290955  -51.593674  -35.326241  0
6.540955  -51.343674  -35.326241  0
6.790955  -51.593674  -35.326241  0
8.290955  -51.843674  -35.076241  0
7.790955  -51.843674  -35.076241  0
7.290955  -51.843674  -35.076241  0
6.790955  -51.843674  -35.076241  0
8.290955  -52.343674  -35.076241  0
7.790955  -52.343674  -35.076241  0
7.290955  -52.593674  -35.326241  0
7.290955  -52.343674  -35.076241  0
6.790955  -52.593674  -35.326241  0
6.790955  -52.343674  -35.076241  0
8.290955  -52.843674  -35.076241  0
7.540955  -52.843674  -35.326241  0
7.790955  -52.843674  -35.076241  0
7.290955  -53.093674  -35.326241  0
6.540955  -52.843674  -35.326241  0
6.790955  -53.093674  -35.326241  0
6.290955  -52.843674  -35.076241  0
8.290955  -53.343674  -35.076241  0
7.790955  -53.343674  -35.076241  0
7.290955  -53.343674  -35.076241  0
6.790955  -53.343674  -35.076241  0
8.290955  -48.843674  -34.576241  0
9.290955  -49.343674  -34.576241  0
8.790955  -49.343674  -34.576241  0
8.290955  -49.593674  -34.826241  0
8.290955  -49.343674  -34.576241  0
7.790955  -49.593674  -34.826241  0
7.790955  -49.343674  -34.576241  0
9.290955  -49.843674  -34.576241  0
8.540955  -49.843674  -34.826241  0
8.790955  -49.843674  -34.576241  0
7.540955  -49.843674  -34.826241  0
7.290955  -50.093674  -34.826241  0
9.290955  -50.343674  -34.576241  0
8.540955  -50.343674  -34.826241  0
8.790955  -50.343674  -34.576241  0
7.040955  -50.343674  -34.826241  0
9.290955  -50.843674  -34.576241  0
8.540955  -50.843674  -34.826241  0
8.790955  -50.843674  -34.576241  0
7.040955  -50.843674  -34.826241  0
6.790955  -51.093674  -34.826241  0
6.790955  -50.843674  -34.576241  0
9.290955  -51.343674  -34.576241  0
8.540955  -51.343674  -34.826241  0
8.790955  -51.343674  -34.576241  0
6.540955  -51.343674  -34.826241  0
9.290955  -51.843674  -34.576241  0
8.540955  -51.843674  -34.826241  0
8.790955  -51.843674  -34.576241  0
6.540955  -51.843674  -34.826241  0
9.290955  -52.343674  -34.576241  0
8.540955  -52.343674  -34.826241  0
8.790955  -52.343674  -34.576241  0
6.540955  -52.343674  -34.826241  0
6.290955  -52.593674  -34.826241  0
6.290955  -52.343674  -34.576241  0
8.540955  -52.843674  -34.826241  0
8.790955  -52.843674  -34.576241  0
6.040955  -52.843674  -34.826241  0
6.290955  -53.093674  -34.826241  0
6.290955  -52.843674  -34.576241  0
8.540955  -53.343674  -34.826241  0
8.790955  -53.343674  -34.576241  0
8.290955  -53.593674  -34.826241  0
7.790955  -53.593674  -34.826241  0
7.290955  -53.593674  -34.826241  0
6.540955  -53.343674  -34.826241  0
6.790955  -53.593674  -34.826241  0
8.790955  -53.843674  -34.576241  0
8.290955  -53.843674  -34.576241  0
7.790955  -53.843674  -34.576241  0
8.290955  -48.593674  -34.326237  0
9.290955  -49.093674  -34.326237  0
8.540955  -48.843674  -34.326237  0
8.790955  -49.093674  -34.326237  0
8.790955  -48.843674  -34.076233  0
8.040955  -48.843674  -34.326237  0
7.790955  -49.093674  -34.326237  0
9.540955  -49.343674  -34.326237  0
9.790955  -49.343674  -34.076233  0
7.540955  -49.343674  -34.326237  0
9.540955  -49.843674  -34.326237  0
9.790955  -49.843674  -34.076233  0
7.540955  -49.843674  -34.326237  0
7.290955  -50.093674  -34.326237  0
9.540955  -50.343674  -34.326237  0
9.790955  -50.343674  -34.076233  0
7.040955  -50.343674  -34.326237  0
7.290955  -50.343674  -34.076233  0
6.790955  -50.593674  -34.326237  0
9.540955  -50.843674  -34.326237  0
9.790955  -50.843674  -34.076233  0
6.540955  -50.843674  -34.326237  0
9.540955  -51.343674  -34.326237  0
9.790955  -51.343674  -34.076233  0
6.540955  -51.343674  -34.326237  0
9.540955  -51.843674  -34.326237  0
9.790955  -51.843674  -34.076233  0
6.540955  -51.843674  -34.326237  0
6.290955  -52.093674  -34.326237  0
9.540955  -52.343674  -34.326237  0
9.790955  -52.343674  -34.076233  0
9.290955  -52.593674  -34.326237  0
6.040955  -52.343674  -34.326237  0
6.290955  -52.593674  -34.326237  0
6.290955  -52.343674  -34.076233  0
9.790955  -52.843674  -34.076233  0
9.040955  -52.843674  -34.326237  0
9.290955  -52.843674  -34.076233  0
6.540955  -52.843674  -34.326237  0
9.040955  -53.343674  -34.326237  0
9.290955  -53.343674  -34.076233  0
7.290955  -53.593674  -34.326237  0
6.540955  -53.343674  -34.326237  0
6.790955  -53.593674  -34.326237  0
9.040955  -53.843674  -34.326237  0
9.290955  -53.843674  -34.076233  0
8.790955  -54.093674  -34.326237  0
8.290955  -54.093674  -34.326237  0
7.540955  -53.843674  -34.326237  0
7.790955  -54.093674  -34.326237  0
8.790955  -48.593674  -33.826233  0
8.290955  -48.593674  -33.826233  0
9.790955  -49.093674  -33.826233  0
9.790955  -48.843674  -33.576233  0
9.040955  -48.843674  -33.826233  0
9.290955  -49.093674  -33.826233  0
9.290955  -48.843674  -33.576233  0
8.040955  -48.843674  -33.826233  0
8.290955  -48.843674  -33.576233  0
7.790955  -49.093674  -33.826233  0
10.040955  -49.343674  -33.826233  0
10.290955  -49.343674  -33.576233  0
7.540955  -49.343674  -33.826233  0
7.790955  -49.343674  -33.576233  0
10.040955  -49.843674  -33.826233  0
10.290955  -49.843674  -33.576233  0
7.540955  -49.843674  -33.826233  0
10.040955  -50.343674  -33.826233  0
10.290955  -50.343674  -33.576233  0
7.540955  -50.343674  -33.826233  0
7.290955  -50.593674  -33.826233  0
6.790955  -50.593674  -33.826233  0
10.040955  -50.843674  -33.826233  0
10.290955  -50.843674  -33.576233  0
7.290955  -50.843674  -33.576233  0
6.540955  -50.843674  -33.826233  0
6.790955  -50.843674  -33.576233  0
10.040955  -51.343674  -33.826233  0
10.290955  -51.343674  -33.576233  0
6.540955  -51.343674  -33.826233  0
6.790955  -51.343674  -33.576233  0
10.040955  -51.843674  -33.826233  0
10.290955  -51.843674  -33.576233  0
6.540955  -51.843674  -33.826233  0
6.790955  -51.843674  -33.576233  0
10.040955  -52.343674  -33.826233  0
10.290955  -52.343674  -33.576233  0
6.540955  -52.343674  -33.826233  0
6.790955  -52.343674  -33.576233  0
10.040955  -52.843674  -33.826233  0
10.290955  -52.843674  -33.576233  0
9.790955  -53.093674  -33.826233  0
6.540955  -52.843674  -33.826233  0
6.790955  -52.843674  -33.576233  0
9.540955  -53.343674  -33.826233  0
9.790955  -53.343674  -33.576233  0
7.290955  -53.593674  -33.826233  0
6.540955  -53.343674  -33.826233  0
6.790955  -53.593674  -33.826233  0
6.790955  -53.343674  -33.576233  0
9.540955  -53.843674  -33.826233  0
9.790955  -53.843674  -33.576233  0
9.290955  -54.093674  -33.826233  0
8.790955  -54.093674  -33.826233  0
8.290955  -54.093674  -33.826233  0
7.540955  -53.843674  -33.826233  0
7.790955  -54.093674  -33.826233  0
8.790955  -54.343674  -33.576233  0
8.290955  -54.343674  -33.576233  0
9.790955  -48.593674  -33.326233  0
9.290955  -48.593674  -33.326233  0
8.790955  -48.593674  -33.326233  0
10.040955  -48.843674  -33.326233  0
10.290955  -49.093674  -33.326233  0
10.290955  -48.843674  -33.076233  0
8.540955  -48.843674  -33.326233  0
8.790955  -48.843674  -33.076233  0
8.290955  -49.093674  -33.326233  0
10.540955  -49.343674  -33.326233  0
10.790955  -49.343674  -33.076233  0
8.040955  -49.343674  -33.326233  0
8.290955  -49.343674  -33.076233  0
7.790955  -49.593674  -33.326233  0
10.540955  -49.843674  -33.326233  0
10.790955  -49.843674  -33.076233  0
7.540955  -49.843674  -33.326233  0
7.790955  -49.843674  -33.076233  0
10.540955  -50.343674  -33.326233  0
10.790955  -50.343674  -33.076233  0
7.540955  -50.343674  -33.326233  0
10.540955  -50.843674  -33.326233  0
10.790955  -50.843674  -33.076233  0
7.540955  -50.843674  -33.326233  0
7.290955  -51.093674  -33.326233  0
11.290955  -51.343674  -33.076233  0
10.540955  -51.343674  -33.326233  0
10.790955  -51.343674  -33.076233  0
7.040955  -51.343674  -33.326233  0
7.290955  -51.343674  -33.076233  0
10.540955  -51.843674  -33.326233  0
10.790955  -51.843674  -33.076233  0
7.040955  -51.843674  -33.326233  0
7.290955  -51.843674  -33.076233  0
10.540955  -52.343674  -33.326233  0
10.790955  -52.343674  -33.076233  0
7.040955  -52.343674  -33.326233  0
7.290955  -52.343674  -33.076233  0
10.540955  -52.843674  -33.326233  0
10.790955  -52.843674  -33.076233  0
10.290955  -53.093674  -33.326233  0
7.040955  -52.843674  -33.326233  0
7.290955  -52.843674  -33.076233  0
10.040955  -53.343674  -33.326233  0
10.290955  -53.343674  -33.076233  0
7.040955  -53.343674  -33.326233  0
7.290955  -53.593674  -33.326233  0
7.290955  -53.343674  -33.076233  0
10.040955  -53.843674  -33.326233  0
10.290955  -53.843674  -33.076233  0
9.790955  -54.093674  -33.326233  0
9.290955  -54.093674  -33.326233  0
7.540955  -53.843674  -33.326233  0
7.790955  -54.093674  -33.326233  0
7.790955  -53.843674  -33.076233  0
9.790955  -54.343674  -33.076233  0
9.040955  -54.343674  -33.326233  0
9.290955  -54.343674  -33.076233  0
8.790955  -54.593674  -33.326233  0
8.040955  -54.343674  -33.326233  0
8.290955  -54.593674  -33.326233  0
8.290955  -54.343674  -33.076233  0
10.790955  -48.343674  -32.576225  0
10.290955  -48.593674  -32.826229  0
10.290955  -48.343674  -32.576225  0
9.790955  -48.593674  -32.826229  0
9.790955  -48.343674  -32.576225  0
9.290955  -48.593674  -32.826229  0
11.290955  -48.843674  -32.576225  0
10.540955  -48.843674  -32.826229  0
10.790955  -49.093674  -32.826229  0
10.790955  -48.843674  -32.576225  0
9.040955  -48.843674  -32.826229  0
8.790955  -49.093674  -32.826229  0
11.040955  -49.343674  -32.826229  0
11.290955  -49.343674  -32.576225  0
8.540955  -49.343674  -32.826229  0
8.790955  -49.343674  -32.576225  0
8.290955  -49.593674  -32.826229  0
11.040955  -49.843674  -32.826229  0
11.290955  -49.843674  -32.576225  0
8.040955  -49.843674  -32.826229  0
8.290955  -49.843674  -32.576225  0
7.790955  -50.093674  -32.826229  0
11.790955  -50.343674  -32.576225  0
11.040955  -50.343674  -32.826229  0
11.290955  -50.343674  -32.576225  0
8.290955  -50.343674  -32.576225  0
7.540955  -50.343674  -32.826229  0
7.790955  -50.343674  -32.576225  0
11.790955  -50.843674  -32.576225  0
11.040955  -50.843674  -32.826229  0
11.290955  -51.093674  -32.826229  0
11.290955  -50.843674  -32.576225  0
7.540955  -50.843674  -32.826229  0
7.790955  -50.843674  -32.576225  0
11.540955  -51.343674  -32.826229  0
11.790955  -51.343674  -32.576225  0
11.290955  -51.593674  -32.826229  0
7.540955  -51.343674  -32.826229  0
7.790955  -51.343674  -32.576225  0
11.040955  -51.843674  -32.826229  0
11.290955  -51.843674  -32.576225  0
7.540955  -51.843674  -32.826229  0
7.790955  -51.843674  -32.576225  0
11.040955  -52.343674  -32.826229  0
11.290955  -52.343674  -32.576225  0
7.540955  -52.343674  -32.826229  0
7.790955  -52.343674  -32.576225  0
11.040955  -52.843674  -32.826229  0
11.290955  -52.843674  -32.576225  0
10.790955  -53.093674  -32.826229  0
7.540955  -52.843674  -32.826229  0
7.790955  -52.843674  -32.576225  0
10.540955  -53.343674  -32.826229  0
10.790955  -53.343674  -32.576225  0
7.540955  -53.343674  -32.826229  0
7.790955  -53.593674  -32.826229  0
7.790955  -53.343674  -32.576225  0
10.540955  -53.843674  -32.826229  0
10.290955  -54.093674  -32.826229  0
8.040955  -53.843674  -32.826229  0
8.290955  -54.093674  -32.826229  0
8.290955  -53.843674  -32.576225  0
10.040955  -54.343674  -32.826229  0
10.290955  -54.343674  -32.576225  0
9.790955  -54.593674  -32.826229  0
9.290955  -54.593674  -32.826229  0
8.540955  -54.343674  -32.826229  0
8.790955  -54.593674  -32.826229  0
8.790955  -54.343674  -32.576225  0
10.790955  -48.093674  -32.326225  0
10.290955  -48.093674  -32.326225  0
9.790955  -48.093674  -32.326225  0
11.040955  -48.343674  -32.326225  0
11.290955  -48.593674  -32.326225  0
11.290955  -48.343674  -32.076225  0
9.540955  -48.343674  -32.326225  0
9.290955  -48.593674  -32.326225  0
11.540955  -48.843674  -32.326225  0
9.040955  -48.843674  -32.326225  0
9.290955  -48.843674  -32.076225  0
11.540955  -49.343674  -32.326225  0
9.040955  -49.343674  -32.326225  0
8.790955  -49.593674  -32.326225  0
11.540955  -49.843674  -32.326225  0
11.790955  -50.093674  -32.326225  0
11.790955  -49.843674  -32.076225  0
8.540955  -49.843674  -32.326225  0
8.790955  -49.843674  -32.076225  0
12.040955  -50.343674  -32.326225  0
8.540955  -50.343674  -32.326225  0
8.790955  -50.343674  -32.076225  0
8.290955  -50.593674  -32.326225  0
12.040955  -50.843674  -32.326225  0
8.040955  -50.843674  -32.326225  0
8.290955  -50.843674  -32.076225  0
12.040955  -51.343674  -32.326225  0
11.790955  -51.593674  -32.326225  0
8.040955  -51.343674  -32.326225  0
8.290955  -51.343674  -32.076225  0
11.540955  -51.843674  -32.326225  0
11.790955  -51.843674  -32.076225  0
8.040955  -51.843674  -32.326225  0
8.290955  -51.843674  -32.076225  0
11.540955  -52.343674  -32.326225  0
11.790955  -52.343674  -32.076225  0
8.040955  -52.343674  -32.326225  0
8.290955  -52.343674  -32.076225  0
11.540955  -52.843674  -32.326225  0
11.790955  -52.843674  -32.076225  0
11.290955  -53.093674  -32.326225  0
8.040955  -52.843674  -32.326225  0
8.290955  -52.843674  -32.076225  0
11.040955  -53.343674  -32.326225  0
11.290955  -53.343674  -32.076225  0
10.790955  -53.593674  -32.326225  0
8.040955  -53.343674  -32.326225  0
8.290955  -53.593674  -32.326225  0
8.290955  -53.343674  -32.076225  0
10.540955  -53.843674  -32.326225  0
10.790955  -53.843674  -32.076225  0
8.540955  -53.843674  -32.326225  0
8.790955  -54.093674  -32.326225  0
8.790955  -53.843674  -32.076225  0
10.540955  -54.343674  -32.326225  0
10.290955  -54.593674  -32.326225  0
9.790955  -54.593674  -32.326225  0
9.040955  -54.343674  -32.326225  0
9.290955  -54.593674  -32.326225  0
11.290955  -48.093674  -31.826223  0
10.790955  -48.093674  -31.826223  0
10.290955  -48.093674  -31.826223  0
9.790955  -48.093674  -31.826223  0
11.540955  -48.343674  -31.826223  0
10.290955  -48.343674  -31.576223  0
9.540955  -48.343674  -31.826223  0
9.790955  -48.343674  -31.576223  0
11.540955  -48.843674  -31.826223  0
11.790955  -48.843674  -31.576223  0
9.540955  -48.843674  -31.826223  0
9.290955  -49.093674  -31.826223  0
11.540955  -49.343674  -31.826223  0
11.790955  -49.593674  -31.826223  0
11.790955  -49.343674  -31.576223  0
9.040955  -49.343674  -31.826223  0
9.290955  -49.343674  -31.576223  0
12.040955  -49.843674  -31.826223  0
12.290955  -49.843674  -31.576223  0
9.040955  -49.843674  -31.826223  0
9.290955  -49.843674  -31.576223  0
12.040955  -50.343674  -31.826223  0
12.290955  -50.343674  -31.576223  0
9.040955  -50.343674  -31.826223  0
8.790955  -50.593674  -31.826223  0
12.040955  -50.843674  -31.826223  0
12.290955  -50.843674  -31.576223  0
8.540955  -50.843674  -31.826223  0
8.790955  -50.843674  -31.576223  0
12.040955  -51.343674  -31.826223  0
12.290955  -51.343674  -31.576223  0
8.540955  -51.343674  -31.826223  0
8.790955  -51.343674  -31.576223  0
12.040955  -51.843674  -31.826223  0
8.540955  -51.843674  -31.826223  0
8.790955  -51.843674  -31.576223  0
12.040955  -52.343674  -31.826223  0
8.540955  -52.343674  -31.826223  0
8.790955  -52.343674  -31.576223  0
12.040955  -52.843674  -31.826223  0
11.790955  -53.093674  -31.826223  0
9.290955  -52.843674  -31.576223  0
8.540955  -52.843674  -31.826223  0
8.790955  -52.843674  -31.576223  0
11.540955  -53.343674  -31.826223  0
11.290955  -53.593674  -31.826223  0
9.290955  -53.343674  -31.576223  0
8.540955  -53.343674  -31.826223  0
8.790955  -53.593674  -31.826223  0
8.790955  -53.343674  -31.576223  0
11.040955  -53.843674  -31.826223  0
10.790955  -54.093674  -31.826223  0
9.040955  -53.843674  -31.826223  0
9.290955  -53.843674  -31.576223  0
10.540955  -54.343674  -31.826223  0
10.290955  -54.593674  -31.826223  0
10.290955  -54.343674  -31.576223  0
9.790955  -54.593674  -31.826223  0
9.790955  -54.343674  -31.576223  0
9.040955  -54.343674  -31.826223  0
9.290955  -54.593674  -31.826223  0
9.290955  -54.343674  -31.576223  0
11.290955  -48.093674  -31.326221  0
10.790955  -48.093674  -31.326221  0
11.540955  -48.343674  -31.326221  0
11.790955  -48.593674  -31.326221  0
11.290955  -48.343674  -31.076221  0
10.540955  -48.343674  -31.326221  0
10.790955  -48.343674  -31.076221  0
10.290955  -48.593674  -31.326221  0
9.790955  -48.593674  -31.326221  0
12.040955  -48.843674  -31.326221  0
10.290955  -48.843674  -31.076221  0
9.540955  -48.843674  -31.326221  0
9.790955  -48.843674  -31.076221  0
12.040955  -49.343674  -31.326221  0
12.290955  -49.593674  -31.326221  0
10.290955  -49.343674  -31.076221  0
9.540955  -49.343674  -31.326221  0
9.790955  -49.343674  -31.076221  0
12.540955  -49.843674  -31.326221  0
12.790955  -49.843674  -31.076221  0
9.540955  -49.843674  -31.326221  0
9.790955  -49.843674  -31.076221  0
9.290955  -50.093674  -31.326221  0
12.540955  -50.343674  -31.326221  0
12.790955  -50.343674  -31.076221  0
9.790955  -50.343674  -31.076221  0
9.040955  -50.343674  -31.326221  0
9.290955  -50.343674  -31.076221  0
12.540955  -50.843674  -31.326221  0
12.790955  -50.843674  -31.076221  0
9.790955  -50.843674  -31.076221  0
9.040955  -50.843674  -31.326221  0
9.290955  -50.843674  -31.076221  0
12.540955  -51.343674  -31.326221  0
12.790955  -51.343674  -31.076221  0
12.290955  -51.593674  -31.326221  0
9.790955  -51.343674  -31.076221  0
9.040955  -51.343674  -31.326221  0
9.290955  -51.343674  -31.076221  0
12.040955  -51.843674  -31.326221  0
12.290955  -51.843674  -31.076221  0
9.790955  -51.843674  -31.076221  0
9.040955  -51.843674  -31.326221  0
9.290955  -51.843674  -31.076221  0
12.040955  -52.343674  -31.326221  0
12.290955  -52.343674  -31.076221  0
9.040955  -52.343674  -31.326221  0
9.290955  -52.593674  -31.326221  0
9.290955  -52.343674  -31.076221  0
12.040955  -52.843674  -31.326221  0
12.290955  -52.843674  -31.076221  0
11.790955  -53.093674  -31.326221  0
9.540955  -52.843674  -31.326221  0
9.790955  -52.843674  -31.076221  0
11.540955  -53.343674  -31.326221  0
11.790955  -53.343674  -31.076221  0
11.290955  -53.593674  -31.326221  0
10.290955  -53.343674  -31.076221  0
9.540955  -53.343674  -31.326221  0
9.790955  -53.343674  -31.076221  0
11.040955  -53.843674  -31.326221  0
11.290955  -53.843674  -31.076221  0
10.790955  -54.093674  -31.326221  0
10.290955  -54.093674  -31.326221  0
10.290955  -53.843674  -31.076221  0
9.540955  -53.843674  -31.326221  0
9.790955  -54.093674  -31.326221  0
9.790955  -53.843674  -31.076221  0
11.790955  -48.593674  -30.826218  0
11.290955  -48.593674  -30.826218  0
10.790955  -48.593674  -30.826218  0
12.040955  -48.843674  -30.826218  0
11.790955  -48.843674  -30.576218  0
11.290955  -48.843674  -30.576218  0
10.540955  -48.843674  -30.826218  0
10.790955  -48.843674  -30.576218  0
12.790955  -49.593674  -30.826218  0
12.040955  -49.343674  -30.826218  0
12.290955  -49.593674  -30.826218  0
11.790955  -49.343674  -30.576218  0
11.290955  -49.343674  -30.576218  0
10.540955  -49.343674  -30.826218  0
10.790955  -49.343674  -30.576218  0
10.290955  -49.593674  -30.826218  0
13.040955  -49.843674  -30.826218  0
13.290955  -49.843674  -30.576218  0
10.790955  -49.843674  -30.576218  0
10.040955  -49.843674  -30.826218  0
10.290955  -49.843674  -30.576218  0
13.040955  -50.343674  -30.826218  0
13.290955  -50.343674  -30.576218  0
10.790955  -50.343674  -30.576218  0
10.040955  -50.343674  -30.826218  0
10.290955  -50.343674  -30.576218  0
13.040955  -50.843674  -30.826218  0
13.290955  -50.843674  -30.576218  0
10.040955  -50.843674  -30.826218  0
10.290955  -50.843674  -30.576218  0
13.040955  -51.343674  -30.826218  0
12.790955  -51.593674  -30.826218  0
10.040955  -51.343674  -30.826218  0
12.540955  -51.843674  -30.826218  0
10.040955  -51.843674  -30.826218  0
10.290955  -51.843674  -30.576218  0
9.790955  -52.093674  -30.826218  0
12.540955  -52.343674  -30.826218  0
10.290955  -52.343674  -30.576218  0
9.540955  -52.343674  -30.826218  0
9.790955  -52.593674  -30.826218  0
9.790955  -52.343674  -30.576218  0
12.540955  -52.843674  -30.826218  0
12.290955  -53.093674  -30.826218  0
10.790955  -52.843674  -30.576218  0
10.040955  -52.843674  -30.826218  0
10.290955  -53.093674  -30.826218  0
10.290955  -52.843674  -30.576218  0
12.040955  -53.343674  -30.826218  0
12.290955  -53.343674  -30.576218  0
11.790955  -53.593674  -30.826218  0
10.540955  -53.343674  -30.826218  0
10.790955  -53.343674  -30.576218  0
11.540955  -53.843674  -30.826218  0
11.790955  -53.843674  -30.576218  0
11.290955  -54.093674  -30.826218  0
10.540955  -53.843674  -30.826218  0
10.790955  -54.093674  -30.826218  0
10.790955  -53.843674  -30.576218  0
13.290955  -49.593674  -30.326218  0
12.790955  -49.593674  -30.326218  0
12.290955  -49.593674  -30.326218  0
11.790955  -49.593674  -30.326218  0
11.290955  -49.593674  -30.326218  0
13.540955  -49.843674  -30.326218  0
11.790955  -49.843674  -30.076214  0
11.040955  -49.843674  -30.326218  0
11.290955  -49.843674  -30.076214  0
13.540955  -50.343674  -30.326218  0
11.040955  -50.343674  -30.326218  0
11.290955  -50.343674  -30.076214  0
10.790955  -50.593674  -30.326218  0
13.540955  -50.843674  -30.326218  0
13.290955  -51.093674  -30.326218  0
11.290955  -50.843674  -30.076214  0
10.540955  -50.843674  -30.326218  0
10.790955  -50.843674  -30.076214  0
10.290955  -51.093674  -30.326218  0
13.040955  -51.343674  -30.326218  0
12.790955  -51.593674  -30.326218  0
11.290955  -51.343674  -30.076214  0
10.790955  -51.343674  -30.076214  0
10.040955  -51.343674  -30.326218  0
10.290955  -51.593674  -30.326218  0
10.290955  -51.343674  -30.076214  0
12.540955  -51.843674  -30.326218  0
11.290955  -51.843674  -30.076214  0
10.540955  -51.843674  -30.326218  0
10.790955  -51.843674  -30.076214  0
12.540955  -52.343674  -30.326218  0
12.290955  -52.343674  -30.076214  0
11.790955  -52.343674  -30.076214  0
11.290955  -52.343674  -30.076214  0
10.540955  -52.343674  -30.326218  0
10.790955  -52.593674  -30.326218  0
10.790955  -52.343674  -30.076214  0
12.540955  -52.843674  -30.326218  0
12.290955  -52.843674  -30.076214  0
11.790955  -52.843674  -30.076214  0
11.040955  -52.843674  -30.326218  0
11.290955  -52.843674  -30.076214  0
12.540955  -53.343674  -30.326218  0
12.290955  -53.593674  -30.326218  0
12.290955  -53.343674  -30.076214  0
11.790955  -53.343674  -30.076214  0
11.040955  -53.343674  -30.326218  0
11.290955  -53.343674  -30.076214  0
12.040955  -53.843674  -30.326218  0
11.790955  -54.093674  -30.326218  0
11.790955  -53.843674  -30.076214  0
11.040955  -53.843674  -30.326218  0
11.290955  -54.093674  -30.326218  0
11.290955  -53.843674  -30.076214  0
13.290955  -49.593674  -29.826214  0
12.790955  -49.593674  -29.826214  0
12.290955  -49.593674  -29.826214  0
13.540955  -49.843674  -29.826214  0
13.290955  -49.843674  -29.576214  0
12.790955  -49.843674  -29.576214  0
12.040955  -49.843674  -29.826214  0
12.290955  -49.843674  -29.576214  0
11.790955  -50.093674  -29.826214  0
13.540955  -50.343674  -29.826214  0
12.290955  -50.343674  -29.576214  0
11.540955  -50.343674  -29.826214  0
11.790955  -50.343674  -29.576214  0
13.540955  -50.843674  -29.826214  0
13.290955  -51.093674  -29.826214  0
12.290955  -50.843674  -29.576214  0
11.540955  -50.843674  -29.826214  0
11.790955  -50.843674  -29.576214  0
13.040955  -51.343674  -29.826214  0
12.790955  -51.593674  -29.826214  0
12.290955  -51.343674  -29.576214  0
11.540955  -51.343674  -29.826214  0
11.790955  -51.343674  -29.576214  0
12.540955  -51.843674  -29.826214  0
12.290955  -52.093674  -29.826214  0
12.290955  -51.843674  -29.576214  0
11.540955  -51.843674  -29.826214  0
11.790955  -52.093674  -29.826214  0
11.790955  -51.843674  -29.576214  0
13.290955  -50.093674  -29.326210  0
12.790955  -50.093674  -29.326210  0
13.540955  -50.343674  -29.326210  0
13.290955  -50.343674  -29.076210  0
12.540955  -50.343674  -29.326210  0
12.790955  -50.343674  -29.076210  0
13.540955  -50.843674  -29.326210  0
13.290955  -51.093674  -29.326210  0
13.290955  -50.843674  -29.076210  0
12.540955  -50.843674  -29.326210  0
12.790955  -50.843674  -29.076210  0
13.040955  -51.343674  -29.326210  0
12.540955  -51.343674  -29.326210  0
12.790955  -51.593674  -29.326210  0
12.790955  -51.343674  -29.076210  0
11 15 0 0
1 13 0 0
0 13 11 0
1 18 13 0
15 17 0 0
0 17 1 0
1 17 19 0
1 19 18 0
26 31 2 0
3 28 2 0
2 28 26 0
3 34 28 0
31 33 2 0
2 33 3 0
3 33 35 0
3 35 34 0
44 49 4 0
5 46 4 0
4 46 44 0
5 51 46 0
4 49 6 0
6 49 54 0
4 7 5 0
4 6 7 0
51 5 52 0
5 8 52 0
5 7 8 0
8 56 52 0
6 54 9 0
9 54 58 0
6 10 7 0
6 9 10 0
7 12 8 0
7 10 12 0
56 8 60 0
60 8 12 0
9 58 14 0
14 58 64 0
9 16 10 0
9 14 16 0
16 15 11 0
12 16 11 0
10 16 12 0
61 60 12 0
11 61 12 0
13 61 11 0
13 18 61 0
61 18 66 0
14 64 20 0
20 64 68 0
14 21 16 0
14 20 21 0
22 17 15 0
16 22 15 0
21 22 16 0
23 19 17 0
23 17 22 0
23 70 19 0
70 18 19 0
70 66 18 0
20 68 24 0
24 68 72 0
20 25 21 0
20 24 25 0
21 27 22 0
21 25 27 0
22 29 23 0
22 27 29 0
70 23 74 0
74 23 29 0
24 72 30 0
30 72 77 0
24 32 25 0
24 30 32 0
32 31 26 0
27 32 26 0
25 32 27 0
27 26 28 0
27 28 29 0
36 75 34 0
34 75 28 0
75 74 28 0
74 29 28 0
36 79 75 0
30 77 37 0
37 77 82 0
30 38 32 0
30 37 38 0
39 33 31 0
32 39 31 0
38 39 32 0
40 35 33 0
40 33 39 0
40 87 35 0
35 87 34 0
87 80 34 0
80 36 34 0
36 80 79 0
82 84 37 0
37 84 38 0
38 84 85 0
38 85 39 0
39 85 86 0
39 86 40 0
40 86 88 0
40 88 87 0
92 94 41 0
41 97 92 0
93 99 42 0
43 95 42 0
42 95 93 0
95 43 94 0
43 41 94 0
43 45 41 0
97 41 98 0
41 47 98 0
41 45 47 0
47 101 98 0
42 99 48 0
48 99 102 0
42 50 43 0
42 48 50 0
50 49 44 0
45 50 44 0
43 50 45 0
45 44 46 0
45 46 47 0
46 51 47 0
51 101 47 0
51 104 101 0
48 102 53 0
53 102 106 0
48 55 50 0
48 53 55 0
55 54 49 0
55 49 50 0
105 104 51 0
105 51 52 0
52 56 105 0
105 56 108 0
53 106 57 0
57 106 111 0
53 59 55 0
53 57 59 0
59 58 54 0
59 54 55 0
60 62 110 0
108 60 110 0
56 60 108 0
62 113 110 0
57 111 63 0
63 111 114 0
57 65 59 0
57 63 65 0
65 64 58 0
65 58 59 0
61 62 60 0
61 66 62 0
66 113 62 0
66 116 113 0
63 114 67 0
67 114 117 0
63 69 65 0
63 67 69 0
69 68 64 0
69 64 65 0
70 116 66 0
70 119 116 0
67 117 71 0
71 117 121 0
67 73 69 0
67 71 73 0
73 72 68 0
73 68 69 0
74 76 120 0
119 74 120 0
70 74 119 0
76 124 120 0
121 123 71 0
128 78 123 0
78 71 123 0
78 73 71 0
78 77 72 0
78 72 73 0
130 75 81 0
130 74 75 0
130 74 76 0
125 130 76 0
79 125 81 0
79 124 125 0
79 75 76 0
124 79 76 0
78 128 83 0
83 128 131 0
83 82 77 0
83 77 78 0
130 81 80 0
87 130 80 0
134 130 87 0
80 81 79 0
83 131 89 0
89 131 136 0
90 84 82 0
83 90 82 0
89 90 83 0
91 85 84 0
91 84 90 0
85 91 140 0
133 85 140 0
86 85 133 0
86 135 88 0
133 135 86 0
87 88 134 0
134 88 135 0
136 138 89 0
89 138 90 0
90 138 139 0
90 139 91 0
91 139 141 0
91 141 140 0
142 146 96 0
94 92 96 0
92 142 96 0
92 143 142 0
92 97 143 0
143 97 149 0
144 152 100 0
99 93 100 0
93 144 100 0
93 147 144 0
95 96 146 0
147 95 146 0
93 95 147 0
96 95 94 0
151 149 97 0
151 97 98 0
98 101 151 0
151 101 154 0
100 152 103 0
103 152 156 0
103 102 99 0
103 99 100 0
104 154 101 0
104 158 154 0
103 156 107 0
107 156 159 0
107 106 102 0
107 102 103 0
104 105 109 0
161 104 109 0
158 104 161 0
108 109 105 0
107 159 112 0
112 159 164 0
112 111 106 0
112 106 107 0
162 161 109 0
162 109 108 0
110 162 108 0
163 162 110 0
110 113 163 0
163 113 167 0
112 164 115 0
115 164 169 0
115 114 111 0
115 111 112 0
116 167 113 0
116 171 167 0
115 169 118 0
118 169 173 0
118 117 114 0
118 114 115 0
119 171 116 0
119 175 171 0
118 173 122 0
122 173 177 0
122 121 117 0
122 117 118 0
119 120 126 0
179 119 126 0
175 119 179 0
124 126 120 0
122 177 127 0
127 177 181 0
129 123 121 0
122 129 121 0
127 129 122 0
129 128 123 0
179 126 125 0
130 179 125 0
184 179 130 0
125 126 124 0
181 183 127 0
186 132 183 0
132 127 183 0
132 129 127 0
132 131 128 0
132 128 129 0
134 184 130 0
134 189 184 0
132 186 137 0
137 186 192 0
137 136 131 0
137 131 132 0
197 188 133 0
197 133 140 0
133 190 135 0
188 190 133 0
134 135 189 0
189 135 190 0
192 194 137 0
137 194 136 0
194 138 136 0
194 195 138 0
138 196 139 0
195 196 138 0
139 198 141 0
196 198 139 0
140 141 197 0
197 141 198 0
201 204 145 0
148 202 145 0
145 202 201 0
146 142 148 0
142 202 148 0
142 203 202 0
207 203 150 0
203 143 150 0
203 142 143 0
149 150 143 0
205 210 153 0
205 153 204 0
204 153 145 0
153 152 145 0
152 144 145 0
145 144 147 0
145 147 148 0
148 147 146 0
209 207 150 0
212 209 155 0
155 209 151 0
209 150 151 0
150 149 151 0
154 155 151 0
153 210 157 0
157 210 215 0
157 156 152 0
157 152 153 0
214 212 155 0
155 154 214 0
154 217 214 0
154 158 217 0
157 215 160 0
160 215 219 0
160 159 156 0
160 156 157 0
161 217 158 0
161 221 217 0
160 219 165 0
165 219 222 0
165 164 159 0
165 159 160 0
161 162 166 0
224 161 166 0
221 161 224 0
163 168 162 0
162 168 166 0
167 168 163 0
165 222 170 0
170 222 227 0
170 169 164 0
170 164 165 0
225 224 166 0
172 229 225 0
166 172 225 0
168 172 166 0
171 172 167 0
167 172 168 0
170 227 174 0
174 227 231 0
174 173 169 0
174 169 170 0
229 172 176 0
229 176 233 0
175 176 171 0
171 176 172 0
174 231 178 0
178 231 235 0
178 177 173 0
178 173 174 0
233 176 180 0
233 180 237 0
179 180 175 0
175 180 176 0
178 235 182 0
182 235 239 0
182 181 177 0
182 177 178 0
237 180 185 0
237 185 242 0
184 185 179 0
179 185 180 0
239 241 182 0
241 244 187 0
241 187 183 0
182 241 183 0
181 182 183 0
187 186 183 0
242 185 191 0
242 191 246 0
189 191 184 0
184 191 185 0
187 244 193 0
193 244 249 0
193 192 186 0
193 186 187 0
253 247 188 0
253 188 197 0
191 190 246 0
190 247 246 0
190 188 247 0
190 191 189 0
249 251 193 0
193 251 192 0
251 194 192 0
251 252 194 0
252 257 199 0
195 252 199 0
194 252 195 0
200 196 195 0
200 195 199 0
196 200 260 0
254 196 260 0
198 196 254 0
197 198 253 0
253 198 254 0
257 259 199 0
199 259 200 0
200 259 261 0
200 261 260 0
264 270 206 0
204 201 206 0
201 264 206 0
201 266 264 0
268 201 202 0
268 266 201 0
273 268 208 0
268 203 208 0
268 202 203 0
207 208 203 0
271 275 211 0
271 211 270 0
270 211 206 0
211 210 206 0
210 205 206 0
206 205 204 0
274 273 208 0
277 274 213 0
213 274 209 0
274 208 209 0
208 207 209 0
212 213 209 0
211 275 216 0
216 275 280 0
216 215 210 0
216 210 211 0
279 277 213 0
282 279 218 0
218 279 214 0
279 213 214 0
213 212 214 0
217 218 214 0
216 280 220 0
220 280 286 0
220 219 215 0
220 215 216 0
284 282 218 0
218 217 284 0
217 289 284 0
217 221 289 0
220 286 223 0
223 286 292 0
223 222 219 0
223 219 220 0
224 289 221 0
224 295 289 0
293 297 226 0
293 226 292 0
226 223 292 0
226 228 223 0
228 227 222 0
228 222 223 0
224 225 230 0
300 224 230 0
295 224 300 0
229 230 225 0
297 299 226 0
302 232 299 0
232 226 299 0
232 228 226 0
232 231 227 0
232 227 228 0
300 230 234 0
300 234 304 0
233 234 229 0
229 234 230 0
232 302 236 0
236 302 306 0
236 235 231 0
236 231 232 0
304 234 238 0
304 238 308 0
237 238 233 0
233 238 234 0
236 306 240 0
240 306 310 0
240 239 235 0
240 235 236 0
308 238 243 0
308 243 313 0
242 243 237 0
237 243 238 0
310 312 240 0
312 315 245 0
312 245 241 0
240 312 241 0
239 240 241 0
245 244 241 0
313 243 248 0
313 248 317 0
246 248 242 0
242 248 243 0
245 315 250 0
250 315 320 0
250 249 244 0
250 244 245 0
322 318 255 0
255 318 317 0
255 317 248 0
253 255 248 0
247 253 248 0
247 248 246 0
320 321 250 0
321 325 256 0
321 256 251 0
250 321 251 0
249 250 251 0
258 252 251 0
258 251 256 0
258 257 252 0
329 323 262 0
262 323 322 0
262 322 255 0
260 262 255 0
254 260 255 0
254 255 253 0
325 327 256 0
256 327 258 0
258 327 328 0
258 328 257 0
328 259 257 0
328 330 259 0
262 261 329 0
261 330 329 0
261 259 330 0
261 262 260 0
332 335 263 0
265 333 263 0
263 333 332 0
267 334 265 0
265 334 333 0
267 338 334 0
336 340 269 0
336 269 335 0
269 263 335 0
269 272 263 0
272 270 264 0
265 272 264 0
263 272 265 0
265 264 266 0
265 266 267 0
339 338 267 0
266 339 267 0
268 339 266 0
268 273 339 0
339 273 341 0
269 340 276 0
276 340 343 0
276 275 271 0
272 276 271 0
269 276 272 0
272 271 270 0
273 274 278 0
344 273 278 0
341 273 344 0
277 278 274 0
276 343 281 0
281 343 346 0
281 280 275 0
281 275 276 0
345 344 278 0
349 345 283 0
283 345 279 0
345 278 279 0
278 277 279 0
282 283 279 0
347 351 285 0
347 285 346 0
285 281 346 0
285 287 281 0
287 286 280 0
287 280 281 0
349 283 288 0
349 288 352 0
284 290 282 0
290 283 282 0
290 288 283 0
289 290 284 0
285 351 291 0
291 351 355 0
285 294 287 0
285 291 294 0
294 292 286 0
294 286 287 0
354 352 288 0
296 356 354 0
288 296 354 0
290 296 288 0
295 296 289 0
289 296 290 0
291 355 298 0
298 355 358 0
298 297 293 0
294 298 293 0
291 298 294 0
294 293 292 0
356 296 301 0
356 301 360 0
300 301 295 0
295 301 296 0
358 359 298 0
359 362 303 0
359 303 299 0
298 359 299 0
297 298 299 0
303 302 299 0
360 301 305 0
360 305 364 0
304 305 300 0
300 305 301 0
303 362 307 0
307 362 366 0
307 306 302 0
307 302 303 0
364 305 309 0
364 309 368 0
308 309 304 0
304 309 305 0
307 366 311 0
311 366 370 0
311 310 306 0
311 306 307 0
368 309 314 0
368 314 373 0
313 314 308 0
308 314 309 0
370 372 311 0
372 375 316 0
372 316 312 0
311 372 312 0
310 311 312 0
316 315 312 0
373 314 319 0
373 319 378 0
317 319 313 0
313 319 314 0
375 377 316 0
315 316 377 0
381 315 377 0
320 315 381 0
383 379 324 0
324 379 378 0
324 378 319 0
322 324 319 0
318 322 319 0
318 319 317 0
321 320 326 0
320 386 326 0
320 381 386 0
326 325 321 0
389 384 331 0
331 384 383 0
331 383 324 0
329 331 324 0
323 329 324 0
323 324 322 0
386 387 326 0
326 387 325 0
387 327 325 0
387 388 327 0
327 390 328 0
388 390 327 0
331 330 389 0
330 390 389 0
330 328 390 0
330 331 329 0
391 395 337 0
335 332 337 0
332 391 337 0
332 392 391 0
393 332 333 0
393 392 332 0
394 333 334 0
394 393 333 0
334 338 394 0
394 338 397 0
337 395 336 0
395 340 336 0
395 399 340 0
337 336 335 0
338 339 342 0
401 338 342 0
397 338 401 0
341 342 339 0
399 343 340 0
403 343 399 0
402 401 342 0
342 341 402 0
341 406 402 0
341 344 406 0
404 408 348 0
403 404 348 0
346 403 348 0
343 403 346 0
344 345 350 0
410 344 350 0
406 344 410 0
349 350 345 0
348 408 347 0
408 351 347 0
408 412 351 0
348 347 346 0
410 350 353 0
410 353 414 0
352 353 349 0
349 353 350 0
412 355 351 0
416 355 412 0
415 414 353 0
418 415 357 0
357 415 354 0
415 353 354 0
353 352 354 0
356 357 354 0
416 358 355 0
420 358 416 0
418 357 361 0
418 361 422 0
360 361 356 0
356 361 357 0
359 358 363 0
358 424 363 0
358 420 424 0
363 362 359 0
422 361 365 0
422 365 425 0
364 365 360 0
360 365 361 0
363 424 367 0
367 424 427 0
367 366 362 0
367 362 363 0
425 365 369 0
425 369 428 0
368 369 364 0
364 369 365 0
367 427 371 0
371 427 430 0
371 370 366 0
371 366 367 0
428 369 374 0
428 374 433 0
373 374 368 0
368 374 369 0
430 431 371 0
431 435 376 0
431 376 372 0
371 431 372 0
370 371 372 0
376 375 372 0
433 374 380 0
433 380 438 0
378 380 373 0
373 380 374 0
435 436 376 0
436 441 382 0
436 382 377 0
376 436 377 0
375 376 377 0
382 381 377 0
443 439 385 0
385 439 438 0
385 438 380 0
383 385 380 0
379 383 380 0
379 380 378 0
441 442 382 0
381 382 442 0
445 381 442 0
386 381 445 0
443 385 384 0
389 443 384 0
450 443 389 0
384 385 383 0
445 446 386 0
386 446 387 0
387 448 388 0
446 448 387 0
388 451 390 0
448 451 388 0
389 390 450 0
450 390 451 0
453 455 391 0
391 455 395 0
454 391 392 0
454 453 391 0
458 454 396 0
454 393 396 0
454 392 393 0
394 398 393 0
393 398 396 0
397 398 394 0
456 462 400 0
455 456 400 0
399 455 400 0
395 455 399 0
460 458 396 0
460 396 398 0
460 398 461 0
398 397 461 0
397 464 461 0
397 401 464 0
400 462 405 0
405 462 466 0
405 403 399 0
405 399 400 0
401 402 407 0
469 401 407 0
464 401 469 0
406 407 402 0
467 471 409 0
467 409 466 0
466 409 405 0
409 408 405 0
408 404 405 0
405 404 403 0
469 407 411 0
469 411 473 0
410 411 406 0
406 411 407 0
409 471 413 0
413 471 476 0
413 412 408 0
413 408 409 0
475 473 411 0
411 410 475 0
410 479 475 0
410 414 479 0
413 476 417 0
417 476 481 0
417 416 412 0
417 412 413 0
414 415 419 0
484 414 419 0
479 414 484 0
418 419 415 0
417 481 421 0
421 481 486 0
421 420 416 0
421 416 417 0
484 419 423 0
484 423 490 0
422 423 418 0
418 423 419 0
486 488 421 0
420 421 488 0
492 420 488 0
424 420 492 0
490 423 426 0
490 426 495 0
425 426 422 0
422 426 423 0
492 427 424 0
497 427 492 0
495 426 429 0
495 429 499 0
428 429 425 0
425 429 426 0
497 430 427 0
502 430 497 0
505 500 432 0
432 500 499 0
429 432 499 0
434 432 429 0
433 434 428 0
428 434 429 0
502 504 430 0
430 504 431 0
435 431 504 0
435 504 507 0
505 432 437 0
505 437 511 0
440 432 434 0
437 432 440 0
438 440 433 0
433 440 434 0
507 509 435 0
435 509 436 0
441 436 509 0
441 509 513 0
511 437 444 0
511 444 518 0
443 444 439 0
444 440 439 0
444 437 440 0
439 440 438 0
513 515 441 0
441 515 442 0
516 447 445 0
442 516 445 0
515 516 442 0
519 449 447 0
519 447 516 0
449 519 518 0
444 449 518 0
452 449 444 0
450 452 443 0
443 452 444 0
447 446 445 0
446 447 448 0
448 447 449 0
448 449 451 0
451 449 452 0
451 452 450 0
457 455 453 0
454 459 453 0
453 459 457 0
458 459 454 0
521 524 456 0
456 524 462 0
456 455 457 0
522 456 457 0
521 456 522 0
522 457 459 0
522 459 523 0
527 523 463 0
463 523 460 0
523 459 460 0
459 458 460 0
461 465 460 0
460 465 463 0
464 465 461 0
524 466 462 0
530 466 524 0
527 463 468 0
527 468 534 0
470 463 465 0
468 463 470 0
469 470 464 0
464 470 465 0
529 537 472 0
471 467 472 0
467 529 472 0
467 531 529 0
467 466 530 0
467 530 531 0
536 534 468 0
474 540 536 0
468 474 536 0
470 474 468 0
473 474 469 0
469 474 470 0
472 537 477 0
477 537 542 0
477 476 471 0
477 471 472 0
540 474 478 0
540 478 545 0
475 480 473 0
480 474 473 0
480 478 474 0
479 480 475 0
477 542 482 0
482 542 547 0
482 481 476 0
482 476 477 0
545 478 483 0
545 483 549 0
485 478 480 0
483 478 485 0
484 485 479 0
479 485 480 0
482 547 487 0
487 547 551 0
487 486 481 0
487 481 482 0
549 483 489 0
549 489 553 0
491 483 485 0
489 483 491 0
490 491 484 0
484 491 485 0
551 552 487 0
552 554 493 0
552 493 488 0
487 552 488 0
486 487 488 0
493 492 488 0
553 489 494 0
553 494 555 0
496 489 491 0
494 489 496 0
495 496 490 0
490 496 491 0
493 554 498 0
498 554 558 0
498 497 492 0
498 492 493 0
557 555 494 0
501 560 557 0
494 501 557 0
496 501 494 0
499 501 495 0
495 501 496 0
498 558 503 0
503 558 563 0
503 502 497 0
503 497 498 0
566 561 506 0
506 561 560 0
506 560 501 0
505 506 501 0
500 505 501 0
500 501 499 0
563 564 503 0
564 569 508 0
564 508 504 0
503 564 504 0
502 503 504 0
508 507 504 0
572 567 510 0
510 567 566 0
506 510 566 0
512 510 506 0
511 512 505 0
505 512 506 0
569 571 508 0
571 574 514 0
571 514 509 0
508 571 509 0
507 508 509 0
514 513 509 0
572 510 517 0
572 517 577 0
520 510 512 0
517 510 520 0
518 520 511 0
511 520 512 0
574 576 514 0
514 576 513 0
576 515 513 0
576 578 515 0
517 516 577 0
516 578 577 0
516 515 578 0
516 517 519 0
519 517 520 0
519 520 518 0
525 524 521 0
522 526 521 0
521 526 525 0
523 528 522 0
522 528 526 0
527 528 523 0
532 530 525 0
525 530 524 0
533 525 526 0
532 525 533 0
535 526 528 0
533 526 535 0
534 535 527 0
527 535 528 0
580 585 538 0
537 529 538 0
529 580 538 0
529 581 580 0
582 529 531 0
582 581 529 0
531 530 532 0
583 531 532 0
582 531 583 0
583 532 533 0
583 533 584 0
539 587 584 0
533 539 584 0
535 539 533 0
536 541 534 0
541 535 534 0
541 539 535 0
540 541 536 0
538 585 543 0
543 585 589 0
543 542 537 0
543 537 538 0
587 539 544 0
587 544 590 0
546 539 541 0
544 539 546 0
545 546 540 0
540 546 541 0
543 589 548 0
548 589 593 0
548 547 542 0
548 542 543 0
592 590 544 0
550 596 592 0
544 550 592 0
546 550 544 0
549 550 545 0
545 550 546 0
593 594 548 0
547 548 594 0
599 547 594 0
551 547 599 0
598 596 550 0
550 549 598 0
549 603 598 0
549 553 603 0
599 600 551 0
551 600 552 0
554 552 600 0
554 600 606 0
608 604 556 0
604 603 556 0
603 555 556 0
603 553 555 0
606 558 554 0
610 558 606 0
608 556 559 0
608 559 614 0
557 562 555 0
562 556 555 0
562 559 556 0
560 562 557 0
610 563 558 0
617 563 610 0
620 615 565 0
565 615 614 0
559 565 614 0
568 565 559 0
566 568 561 0
568 562 561 0
568 559 562 0
561 562 560 0
564 563 570 0
563 622 570 0
563 617 622 0
570 569 564 0
620 565 573 0
620 573 626 0
572 573 567 0
573 568 567 0
573 565 568 0
567 568 566 0
622 623 570 0
623 628 575 0
623 575 571 0
570 623 571 0
569 570 571 0
575 574 571 0
626 573 579 0
626 579 631 0
577 579 572 0
572 579 573 0
628 629 575 0
575 629 574 0
629 576 574 0
629 632 576 0
579 578 631 0
578 632 631 0
578 576 632 0
578 579 577 0
634 637 580 0
580 637 585 0
635 580 581 0
635 634 580 0
636 581 582 0
636 635 581 0
640 636 586 0
636 583 586 0
636 582 583 0
584 588 583 0
583 588 586 0
587 588 584 0
637 589 585 0
643 589 637 0
642 640 586 0
591 645 642 0
586 591 642 0
588 591 586 0
590 591 587 0
587 591 588 0
643 593 589 0
647 593 643 0
645 591 595 0
645 595 650 0
592 597 590 0
597 591 590 0
597 595 591 0
596 597 592 0
647 648 593 0
593 648 594 0
599 594 648 0
599 648 652 0
650 595 601 0
650 601 655 0
602 595 597 0
601 595 602 0
598 605 596 0
605 597 596 0
605 602 597 0
603 605 598 0
652 653 599 0
599 653 600 0
606 600 653 0
606 653 657 0
655 601 607 0
655 607 660 0
609 601 602 0
607 601 609 0
608 609 604 0
609 605 604 0
609 602 605 0
604 605 603 0
611 610 658 0
610 657 658 0
610 606 657 0
661 612 611 0
661 611 658 0
612 661 660 0
607 612 660 0
613 612 607 0
616 607 609 0
613 607 616 0
614 616 608 0
608 616 609 0
618 617 611 0
611 617 610 0
619 611 612 0
618 611 619 0
621 612 613 0
619 612 621 0
620 621 615 0
621 616 615 0
621 613 616 0
615 616 614 0
624 622 618 0
618 622 617 0
625 618 619 0
624 618 625 0
627 619 621 0
625 619 627 0
626 627 620 0
620 627 621 0
624 623 622 0
623 624 628 0
624 630 628 0
624 625 630 0
633 625 627 0
630 625 633 0
631 633 626 0
626 633 627 0
630 629 628 0
629 630 632 0
632 630 633 0
632 633 631 0
638 637 634 0
635 639 634 0
634 639 638 0
636 641 635 0
635 641 639 0
640 641 636 0
663 665 638 0
665 637 638 0
665 643 637 0
663 638 639 0
663 639 664 0
644 667 664 0
639 644 664 0
641 644 639 0
642 646 640 0
646 641 640 0
646 644 641 0
645 646 642 0
665 647 643 0
669 647 665 0
667 644 649 0
667 649 672 0
651 644 646 0
649 644 651 0
650 651 645 0
645 651 646 0
669 670 647 0
647 670 648 0
652 648 670 0
652 670 674 0
672 649 654 0
672 654 675 0
656 649 651 0
654 649 656 0
655 656 650 0
650 656 651 0
674 676 652 0
652 676 653 0
654 659 657 0
676 654 657 0
653 676 657 0
675 654 676 0
662 654 656 0
659 654 662 0
660 662 655 0
655 662 656 0
659 658 657 0
658 659 661 0
661 659 662 0
661 662 660 0
666 665 663 0
664 668 663 0
663 668 666 0
667 668 664 0
671 669 666 0
666 669 665 0
673 666 668 0
671 666 673 0
672 673 667 0
667 673 668 0
671 670 669 0
670 671 674 0
671 677 674 0
671 673 677 0
675 677 672 0
672 677 673 0
677 676 674 0
676 677 675 0
