#!ascii version in FreeSurfer format (SUMA)
580 1160
8.454987  -45.138687  -36.981041  0
8.454987  -45.638687  -36.981041  0
8.954987  -46.138687  -36.981041  0
8.454987  -46.138687  -36.981041  0
7.954987  -46.138687  -36.981041  0
7.454987  -46.138687  -36.981041  0
7.954987  -46.638687  -36.981041  0
9.454987  -44.638687  -36.481041  0
8.954987  -44.638687  -36.481041  0
8.454987  -44.888687  -36.731041  0
9.454987  -45.138687  -36.481041  0
8.704987  -45.138687  -36.731041  0
8.954987  -45.138687  -36.481041  0
8.204987  -45.138687  -36.731041  0
9.954987  -45.638687  -36.481041  0
9.454987  -45.638687  -36.481041  0
8.704987  -45.638687  -36.731041  0
8.954987  -45.888687  -36.731041  0
8.954987  -45.638687  -36.481041  0
8.204987  -45.638687  -36.731041  0
7.954987  -45.888687  -36.731041  0
7.954987  -45.638687  -36.481041  0
7.454987  -45.888687  -36.731041  0
9.204987  -46.138687  -36.731041  0
9.454987  -46.138687  -36.481041  0
8.954987  -46.388687  -36.731041  0
8.454987  -46.388687  -36.731041  0
7.204987  -46.138687  -36.731041  0
7.454987  -46.388687  -36.731041  0
7.454987  -46.138687  -36.481041  0
9.454987  -46.638687  -36.481041  0
8.954987  -46.638687  -36.481041  0
8.204987  -46.638687  -36.731041  0
8.454987  -46.638687  -36.481041  0
7.704987  -46.638687  -36.731041  0
7.954987  -46.888687  -36.731041  0
9.454987  -47.138687  -36.481041  0
8.954987  -47.138687  -36.481041  0
8.454987  -47.138687  -36.481041  0
7.954987  -47.138687  -36.481041  0
9.954987  -44.138687  -35.981041  0
9.454987  -44.388687  -36.231041  0
9.454987  -44.138687  -35.981041  0
8.954987  -44.388687  -36.231041  0
8.954987  -44.138687  -35.981041  0
10.454987  -44.638687  -35.981041  0
9.704987  -44.638687  -36.231041  0
9.954987  -44.638687  -35.981041  0
8.704987  -44.638687  -36.231041  0
8.454987  -44.888687  -36.231041  0
10.454987  -45.138687  -35.981041  0
9.704987  -45.138687  -36.231041  0
9.954987  -45.388687  -36.231041  0
9.954987  -45.138687  -35.981041  0
8.204987  -45.138687  -36.231041  0
7.954987  -45.388687  -36.231041  0
10.204987  -45.638687  -36.231041  0
10.454987  -45.638687  -35.981041  0
9.954987  -45.888687  -36.231041  0
7.704987  -45.638687  -36.231041  0
10.454987  -46.138687  -35.981041  0
9.704987  -46.138687  -36.231041  0
9.954987  -46.138687  -35.981041  0
7.704987  -46.138687  -36.231041  0
9.704987  -46.638687  -36.231041  0
9.954987  -46.638687  -35.981041  0
7.704987  -46.638687  -36.231041  0
9.704987  -47.138687  -36.231041  0
9.454987  -47.388687  -36.231041  0
8.954987  -47.388687  -36.231041  0
8.454987  -47.388687  -36.231041  0
7.704987  -47.138687  -36.231041  0
7.954987  -47.388687  -36.231041  0
7.954987  -47.138687  -35.981041  0
8.954987  -47.638687  -35.981041  0
10.954987  -43.138687  -35.481041  0
10.454987  -43.138687  -35.481041  0
9.954987  -43.138687  -35.481041  0
10.454987  -43.638687  -35.481041  0
9.954987  -43.888687  -35.731041  0
9.954987  -43.638687  -35.481041  0
9.454987  -43.888687  -35.731041  0
9.454987  -43.638687  -35.481041  0
8.954987  -43.888687  -35.731041  0
10.954987  -44.138687  -35.481041  0
10.204987  -44.138687  -35.731041  0
10.454987  -44.388687  -35.731041  0
10.454987  -44.138687  -35.481041  0
8.704987  -44.138687  -35.731041  0
10.704987  -44.638687  -35.731041  0
10.954987  -44.638687  -35.481041  0
8.704987  -44.638687  -35.731041  0
8.454987  -44.888687  -35.731041  0
11.454987  -45.138687  -35.481041  0
10.704987  -45.138687  -35.731041  0
10.954987  -45.138687  -35.481041  0
8.204987  -45.138687  -35.731041  0
7.954987  -45.388687  -35.731041  0
11.454987  -45.638687  -35.481041  0
10.704987  -45.638687  -35.731041  0
10.954987  -45.638687  -35.481041  0
7.704987  -45.638687  -35.731041  0
7.954987  -45.638687  -35.481041  0
10.704987  -46.138687  -35.731041  0
10.954987  -46.138687  -35.481041  0
10.454987  -46.388687  -35.731041  0
7.704987  -46.138687  -35.731041  0
10.954987  -46.638687  -35.481041  0
10.204987  -46.638687  -35.731041  0
10.454987  -46.638687  -35.481041  0
9.954987  -46.888687  -35.731041  0
7.704987  -46.638687  -35.731041  0
7.954987  -46.888687  -35.731041  0
10.454987  -47.138687  -35.481041  0
9.704987  -47.138687  -35.731041  0
9.954987  -47.138687  -35.481041  0
9.454987  -47.388687  -35.731041  0
8.204987  -47.138687  -35.731041  0
8.454987  -47.388687  -35.731041  0
9.204987  -47.638687  -35.731041  0
9.454987  -47.638687  -35.481041  0
8.704987  -47.638687  -35.731041  0
8.954987  -47.888687  -35.731041  0
8.954987  -47.638687  -35.481041  0
10.954987  -42.888687  -35.231041  0
10.454987  -42.888687  -35.231041  0
10.454987  -42.638687  -34.981041  0
9.954987  -42.888687  -35.231041  0
11.954987  -43.138687  -34.981041  0
11.204987  -43.138687  -35.231041  0
11.454987  -43.138687  -34.981041  0
10.954987  -43.388687  -35.231041  0
9.704987  -43.138687  -35.231041  0
9.454987  -43.388687  -35.231041  0
11.954987  -43.638687  -34.981041  0
11.454987  -43.638687  -34.981041  0
10.704987  -43.638687  -35.231041  0
10.954987  -43.888687  -35.231041  0
10.954987  -43.638687  -34.981041  0
9.204987  -43.638687  -35.231041  0
8.954987  -43.888687  -35.231041  0
11.954987  -44.138687  -34.981041  0
11.204987  -44.138687  -35.231041  0
11.454987  -44.138687  -34.981041  0
8.704987  -44.138687  -35.231041  0
8.954987  -44.138687  -34.981041  0
11.954987  -44.638687  -34.981041  0
11.204987  -44.638687  -35.231041  0
11.454987  -44.888687  -35.231041  0
11.454987  -44.638687  -34.981041  0
8.704987  -44.638687  -35.231041  0
8.454987  -44.888687  -35.231041  0
11.704987  -45.138687  -35.231041  0
11.954987  -45.138687  -34.981041  0
8.204987  -45.138687  -35.231041  0
8.454987  -45.138687  -34.981041  0
11.704987  -45.638687  -35.231041  0
11.954987  -45.638687  -34.981041  0
11.454987  -45.888687  -35.231041  0
8.204987  -45.638687  -35.231041  0
7.954987  -45.888687  -35.231041  0
11.204987  -46.138687  -35.231041  0
11.454987  -46.138687  -34.981041  0
7.704987  -46.138687  -35.231041  0
7.954987  -46.138687  -34.981041  0
11.204987  -46.638687  -35.231041  0
11.454987  -46.638687  -34.981041  0
10.954987  -46.888687  -35.231041  0
8.454987  -46.638687  -34.981041  0
7.704987  -46.638687  -35.231041  0
7.954987  -46.888687  -35.231041  0
7.954987  -46.638687  -34.981041  0
10.704987  -47.138687  -35.231041  0
10.954987  -47.138687  -34.981041  0
10.454987  -47.388687  -35.231041  0
9.954987  -47.388687  -35.231041  0
8.954987  -47.388687  -35.231041  0
8.204987  -47.138687  -35.231041  0
8.454987  -47.388687  -35.231041  0
8.454987  -47.138687  -34.981041  0
9.704987  -47.638687  -35.231041  0
9.954987  -47.638687  -34.981041  0
9.204987  -47.638687  -35.231041  0
9.454987  -47.888687  -35.231041  0
9.454987  -47.638687  -34.981041  0
10.454987  -42.388687  -34.731041  0
11.954987  -42.888687  -34.731041  0
11.954987  -42.638687  -34.481041  0
11.454987  -42.888687  -34.731041  0
11.454987  -42.638687  -34.481041  0
10.704987  -42.638687  -34.731041  0
10.954987  -42.888687  -34.731041  0
10.954987  -42.638687  -34.481041  0
10.204987  -42.638687  -34.731041  0
9.954987  -42.888687  -34.731041  0
12.204987  -43.138687  -34.731041  0
9.704987  -43.138687  -34.731041  0
9.954987  -43.138687  -34.481041  0
9.454987  -43.388687  -34.731041  0
12.204987  -43.638687  -34.731041  0
12.454987  -43.638687  -34.481041  0
9.204987  -43.638687  -34.731041  0
12.204987  -44.138687  -34.731041  0
12.454987  -44.138687  -34.481041  0
9.204987  -44.138687  -34.731041  0
8.954987  -44.388687  -34.731041  0
12.204987  -44.638687  -34.731041  0
12.454987  -44.638687  -34.481041  0
8.704987  -44.638687  -34.731041  0
12.204987  -45.138687  -34.731041  0
12.454987  -45.138687  -34.481041  0
8.704987  -45.138687  -34.731041  0
8.454987  -45.388687  -34.731041  0
12.204987  -45.638687  -34.731041  0
12.454987  -45.638687  -34.481041  0
11.954987  -45.888687  -34.731041  0
8.204987  -45.638687  -34.731041  0
8.454987  -45.638687  -34.481041  0
11.704987  -46.138687  -34.731041  0
11.954987  -46.138687  -34.481041  0
8.954987  -46.138687  -34.481041  0
8.204987  -46.138687  -34.731041  0
8.454987  -46.388687  -34.731041  0
8.454987  -46.138687  -34.481041  0
11.704987  -46.638687  -34.731041  0
11.954987  -46.638687  -34.481041  0
11.454987  -46.888687  -34.731041  0
8.704987  -46.638687  -34.731041  0
8.954987  -46.638687  -34.481041  0
11.204987  -47.138687  -34.731041  0
10.954987  -47.388687  -34.731041  0
10.454987  -47.388687  -34.731041  0
9.454987  -47.388687  -34.731041  0
8.704987  -47.138687  -34.731041  0
8.954987  -47.388687  -34.731041  0
8.954987  -47.138687  -34.481041  0
10.204987  -47.638687  -34.731041  0
9.704987  -47.638687  -34.731041  0
9.954987  -47.888687  -34.731041  0
9.954987  -47.638687  -34.481041  0
11.954987  -42.388687  -34.231041  0
11.454987  -42.388687  -34.231041  0
10.954987  -42.388687  -34.231041  0
10.454987  -42.388687  -34.231041  0
12.204987  -42.638687  -34.231041  0
10.954987  -42.638687  -33.981041  0
10.204987  -42.638687  -34.231041  0
10.454987  -42.638687  -33.981041  0
12.954987  -43.138687  -33.981041  0
12.204987  -43.138687  -34.231041  0
12.454987  -43.388687  -34.231041  0
12.454987  -43.138687  -33.981041  0
10.204987  -43.138687  -34.231041  0
10.454987  -43.138687  -33.981041  0
9.954987  -43.388687  -34.231041  0
9.454987  -43.388687  -34.231041  0
12.704987  -43.638687  -34.231041  0
12.954987  -43.638687  -33.981041  0
9.954987  -43.638687  -33.981041  0
9.204987  -43.638687  -34.231041  0
9.454987  -43.638687  -33.981041  0
12.704987  -44.138687  -34.231041  0
12.954987  -44.138687  -33.981041  0
9.204987  -44.138687  -34.231041  0
9.454987  -44.138687  -33.981041  0
8.954987  -44.388687  -34.231041  0
12.704987  -44.638687  -34.231041  0
12.954987  -44.638687  -33.981041  0
9.454987  -44.638687  -33.981041  0
8.704987  -44.638687  -34.231041  0
8.954987  -44.638687  -33.981041  0
12.704987  -45.138687  -34.231041  0
12.954987  -45.138687  -33.981041  0
9.454987  -45.138687  -33.981041  0
8.704987  -45.138687  -34.231041  0
8.954987  -45.138687  -33.981041  0
12.704987  -45.638687  -34.231041  0
12.954987  -45.638687  -33.981041  0
12.454987  -45.888687  -34.231041  0
9.454987  -45.638687  -33.981041  0
8.704987  -45.638687  -34.231041  0
8.954987  -45.888687  -34.231041  0
8.954987  -45.638687  -33.981041  0
12.204987  -46.138687  -34.231041  0
12.454987  -46.138687  -33.981041  0
9.204987  -46.138687  -34.231041  0
12.204987  -46.638687  -34.231041  0
12.454987  -46.638687  -33.981041  0
11.954987  -46.888687  -34.231041  0
11.454987  -46.888687  -34.231041  0
9.204987  -46.638687  -34.231041  0
9.454987  -46.638687  -33.981041  0
11.204987  -47.138687  -34.231041  0
10.954987  -47.388687  -34.231041  0
10.454987  -47.388687  -34.231041  0
9.954987  -47.388687  -34.231041  0
9.954987  -47.138687  -33.981041  0
9.204987  -47.138687  -34.231041  0
9.454987  -47.388687  -34.231041  0
9.454987  -47.138687  -33.981041  0
11.954987  -42.388687  -33.731041  0
11.454987  -42.388687  -33.731041  0
12.954987  -42.888687  -33.731041  0
12.204987  -42.638687  -33.731041  0
12.454987  -42.888687  -33.731041  0
12.454987  -42.638687  -33.481041  0
11.204987  -42.638687  -33.731041  0
11.454987  -42.638687  -33.481041  0
10.954987  -42.888687  -33.731041  0
13.204987  -43.138687  -33.731041  0
13.454987  -43.138687  -33.481041  0
11.454987  -43.138687  -33.481041  0
10.704987  -43.138687  -33.731041  0
10.954987  -43.138687  -33.481041  0
10.454987  -43.388687  -33.731041  0
13.204987  -43.638687  -33.731041  0
13.454987  -43.638687  -33.481041  0
10.954987  -43.638687  -33.481041  0
10.204987  -43.638687  -33.731041  0
10.454987  -43.638687  -33.481041  0
9.954987  -43.888687  -33.731041  0
13.954987  -44.138687  -33.481041  0
13.204987  -44.138687  -33.731041  0
13.454987  -44.138687  -33.481041  0
10.454987  -44.138687  -33.481041  0
9.704987  -44.138687  -33.731041  0
9.954987  -44.138687  -33.481041  0
13.954987  -44.638687  -33.481041  0
13.204987  -44.638687  -33.731041  0
13.454987  -44.638687  -33.481041  0
10.454987  -44.638687  -33.481041  0
9.704987  -44.638687  -33.731041  0
9.954987  -44.638687  -33.481041  0
13.954987  -45.138687  -33.481041  0
13.204987  -45.138687  -33.731041  0
13.454987  -45.138687  -33.481041  0
9.704987  -45.138687  -33.731041  0
9.954987  -45.138687  -33.481041  0
13.204987  -45.638687  -33.731041  0
13.454987  -45.638687  -33.481041  0
12.954987  -45.888687  -33.731041  0
9.704987  -45.638687  -33.731041  0
9.954987  -45.638687  -33.481041  0
9.454987  -45.888687  -33.731041  0
13.454987  -46.138687  -33.481041  0
12.704987  -46.138687  -33.731041  0
12.954987  -46.138687  -33.481041  0
9.204987  -46.138687  -33.731041  0
9.454987  -46.388687  -33.731041  0
9.454987  -46.138687  -33.481041  0
12.704987  -46.638687  -33.731041  0
12.954987  -46.638687  -33.481041  0
12.454987  -46.888687  -33.731041  0
11.954987  -46.888687  -33.731041  0
11.454987  -46.888687  -33.731041  0
9.704987  -46.638687  -33.731041  0
9.954987  -46.888687  -33.731041  0
9.954987  -46.638687  -33.481041  0
11.954987  -47.138687  -33.481041  0
11.204987  -47.138687  -33.731041  0
11.454987  -47.138687  -33.481041  0
10.954987  -47.388687  -33.731041  0
10.204987  -47.138687  -33.731041  0
10.454987  -47.388687  -33.731041  0
10.454987  -47.138687  -33.481041  0
12.454987  -42.388687  -33.231041  0
11.954987  -42.388687  -33.231041  0
13.454987  -42.888687  -33.231041  0
13.454987  -42.638687  -32.981041  0
12.704987  -42.638687  -33.231041  0
12.954987  -42.888687  -33.231041  0
12.954987  -42.638687  -32.981041  0
11.704987  -42.638687  -33.231041  0
11.954987  -42.638687  -32.981041  0
13.704987  -43.138687  -33.231041  0
13.954987  -43.138687  -32.981041  0
11.704987  -43.138687  -33.231041  0
11.954987  -43.138687  -32.981041  0
11.454987  -43.388687  -33.231041  0
13.704987  -43.638687  -33.231041  0
13.954987  -43.888687  -33.231041  0
13.954987  -43.638687  -32.981041  0
11.204987  -43.638687  -33.231041  0
11.454987  -43.638687  -32.981041  0
10.954987  -43.888687  -33.231041  0
14.204987  -44.138687  -33.231041  0
11.454987  -44.138687  -32.981041  0
10.704987  -44.138687  -33.231041  0
10.954987  -44.138687  -32.981041  0
14.204987  -44.638687  -33.231041  0
11.454987  -44.638687  -32.981041  0
10.704987  -44.638687  -33.231041  0
10.954987  -44.638687  -32.981041  0
10.454987  -44.888687  -33.231041  0
14.204987  -45.138687  -33.231041  0
13.954987  -45.388687  -33.231041  0
10.954987  -45.138687  -32.981041  0
10.204987  -45.138687  -33.231041  0
10.454987  -45.138687  -32.981041  0
13.704987  -45.638687  -33.231041  0
13.954987  -45.638687  -32.981041  0
10.204987  -45.638687  -33.231041  0
10.454987  -45.638687  -32.981041  0
9.954987  -45.888687  -33.231041  0
13.704987  -46.138687  -33.231041  0
13.454987  -46.388687  -33.231041  0
10.954987  -46.138687  -32.981041  0
10.454987  -46.138687  -32.981041  0
9.704987  -46.138687  -33.231041  0
9.954987  -46.388687  -33.231041  0
9.954987  -46.138687  -32.981041  0
13.204987  -46.638687  -33.231041  0
12.954987  -46.888687  -33.231041  0
12.454987  -46.888687  -33.231041  0
10.204987  -46.638687  -33.231041  0
10.454987  -46.888687  -33.231041  0
10.454987  -46.638687  -32.981041  0
12.954987  -47.138687  -32.981041  0
12.204987  -47.138687  -33.231041  0
12.454987  -47.138687  -32.981041  0
11.954987  -47.388687  -33.231041  0
11.454987  -47.388687  -33.231041  0
10.704987  -47.138687  -33.231041  0
10.954987  -47.388687  -33.231041  0
13.454987  -42.388687  -32.731041  0
12.954987  -42.388687  -32.731041  0
12.454987  -42.388687  -32.731041  0
13.704987  -42.638687  -32.731041  0
13.954987  -42.888687  -32.731041  0
13.454987  -42.638687  -32.481041  0
12.954987  -42.638687  -32.481041  0
12.204987  -42.638687  -32.731041  0
12.454987  -42.638687  -32.481041  0
14.204987  -43.138687  -32.731041  0
13.954987  -43.138687  -32.481041  0
13.454987  -43.138687  -32.481041  0
12.954987  -43.138687  -32.481041  0
12.204987  -43.138687  -32.731041  0
12.454987  -43.138687  -32.481041  0
11.954987  -43.388687  -32.731041  0
14.204987  -43.638687  -32.731041  0
11.704987  -43.638687  -32.731041  0
11.954987  -43.638687  -32.481041  0
14.204987  -44.138687  -32.731041  0
11.704987  -44.138687  -32.731041  0
11.954987  -44.138687  -32.481041  0
14.204987  -44.638687  -32.731041  0
11.704987  -44.638687  -32.731041  0
11.454987  -44.888687  -32.731041  0
14.204987  -45.138687  -32.731041  0
11.204987  -45.138687  -32.731041  0
11.454987  -45.138687  -32.481041  0
10.954987  -45.388687  -32.731041  0
14.204987  -45.638687  -32.731041  0
13.954987  -45.888687  -32.731041  0
11.454987  -45.638687  -32.481041  0
10.704987  -45.638687  -32.731041  0
10.954987  -45.888687  -32.731041  0
10.954987  -45.638687  -32.481041  0
13.704987  -46.138687  -32.731041  0
13.454987  -46.388687  -32.731041  0
11.204987  -46.138687  -32.731041  0
10.954987  -46.388687  -32.731041  0
13.204987  -46.638687  -32.731041  0
10.704987  -46.638687  -32.731041  0
10.954987  -46.638687  -32.481041  0
13.204987  -47.138687  -32.731041  0
12.954987  -47.388687  -32.731041  0
12.454987  -47.388687  -32.731041  0
11.954987  -47.388687  -32.731041  0
11.454987  -47.388687  -32.731041  0
10.704987  -47.138687  -32.731041  0
10.954987  -47.388687  -32.731041  0
10.954987  -47.138687  -32.481041  0
13.954987  -43.388687  -32.231041  0
13.454987  -43.388687  -32.231041  0
12.954987  -43.388687  -32.231041  0
12.454987  -43.388687  -32.231041  0
14.204987  -43.638687  -32.231041  0
12.954987  -43.638687  -31.981041  0
12.204987  -43.638687  -32.231041  0
12.454987  -43.638687  -31.981041  0
14.204987  -44.138687  -32.231041  0
13.954987  -44.138687  -31.981041  0
13.454987  -44.138687  -31.981041  0
12.954987  -44.138687  -31.981041  0
12.204987  -44.138687  -32.231041  0
12.454987  -44.138687  -31.981041  0
11.954987  -44.388687  -32.231041  0
14.204987  -44.638687  -32.231041  0
13.954987  -44.638687  -31.981041  0
13.454987  -44.638687  -31.981041  0
12.954987  -44.638687  -31.981041  0
12.454987  -44.638687  -31.981041  0
11.704987  -44.638687  -32.231041  0
11.954987  -44.638687  -31.981041  0
14.204987  -45.138687  -32.231041  0
11.704987  -45.138687  -32.231041  0
11.954987  -45.138687  -31.981041  0
14.204987  -45.638687  -32.231041  0
13.954987  -45.888687  -32.231041  0
11.704987  -45.638687  -32.231041  0
11.954987  -45.638687  -31.981041  0
11.454987  -45.888687  -32.231041  0
13.704987  -46.138687  -32.231041  0
13.454987  -46.388687  -32.231041  0
11.204987  -46.138687  -32.231041  0
11.454987  -46.138687  -31.981041  0
13.204987  -46.638687  -32.231041  0
13.454987  -46.638687  -31.981041  0
11.954987  -46.638687  -31.981041  0
11.204987  -46.638687  -32.231041  0
11.454987  -46.638687  -31.981041  0
13.204987  -47.138687  -32.231041  0
12.954987  -47.388687  -32.231041  0
12.954987  -47.138687  -31.981041  0
12.454987  -47.388687  -32.231041  0
12.454987  -47.138687  -31.981041  0
11.954987  -47.388687  -32.231041  0
11.954987  -47.138687  -31.981041  0
11.204987  -47.138687  -32.231041  0
11.454987  -47.388687  -32.231041  0
11.454987  -47.138687  -31.981041  0
13.954987  -43.388687  -31.731041  0
13.454987  -43.388687  -31.731041  0
14.204987  -43.638687  -31.731041  0
13.954987  -43.888687  -31.731041  0
13.954987  -43.638687  -31.481041  0
13.204987  -43.638687  -31.731041  0
13.454987  -43.888687  -31.731041  0
13.454987  -43.638687  -31.481041  0
13.954987  -44.888687  -31.731041  0
13.454987  -44.888687  -31.731041  0
12.954987  -44.888687  -31.731041  0
12.454987  -44.888687  -31.731041  0
14.204987  -45.138687  -31.731041  0
13.954987  -45.138687  -31.481041  0
13.454987  -45.138687  -31.481041  0
12.954987  -45.138687  -31.481041  0
12.204987  -45.138687  -31.731041  0
12.454987  -45.138687  -31.481041  0
14.204987  -45.638687  -31.731041  0
14.454987  -45.638687  -31.481041  0
13.954987  -45.888687  -31.731041  0
12.204987  -45.638687  -31.731041  0
12.454987  -45.638687  -31.481041  0
11.954987  -45.888687  -31.731041  0
13.704987  -46.138687  -31.731041  0
13.954987  -46.138687  -31.481041  0
12.454987  -46.138687  -31.481041  0
11.704987  -46.138687  -31.731041  0
11.954987  -46.388687  -31.731041  0
11.954987  -46.138687  -31.481041  0
13.704987  -46.638687  -31.731041  0
13.454987  -46.888687  -31.731041  0
13.454987  -46.638687  -31.481041  0
12.954987  -46.888687  -31.731041  0
12.954987  -46.638687  -31.481041  0
12.204987  -46.638687  -31.731041  0
12.454987  -46.888687  -31.731041  0
12.454987  -46.638687  -31.481041  0
14.454987  -45.388687  -31.231041  0
13.954987  -45.388687  -31.231041  0
13.454987  -45.388687  -31.231041  0
12.954987  -45.388687  -31.231041  0
14.704987  -45.638687  -31.231041  0
14.454987  -45.888687  -31.231041  0
14.454987  -45.638687  -30.981041  0
13.954987  -45.638687  -30.981041  0
13.454987  -45.638687  -30.981041  0
12.704987  -45.638687  -31.231041  0
12.954987  -45.638687  -30.981041  0
14.204987  -46.138687  -31.231041  0
13.954987  -46.388687  -31.231041  0
13.954987  -46.138687  -30.981041  0
13.454987  -46.388687  -31.231041  0
13.454987  -46.138687  -30.981041  0
12.704987  -46.138687  -31.231041  0
12.954987  -46.388687  -31.231041  0
12.954987  -46.138687  -30.981041  0
9 11 0 0
0 13 9 0
0 11 1 0
1 11 16 0
13 0 19 0
19 0 1 0
17 23 2 0
17 2 16 0
2 1 16 0
2 3 1 0
19 1 20 0
1 4 20 0
1 3 4 0
5 22 4 0
4 22 20 0
5 27 22 0
23 25 2 0
2 25 3 0
3 25 26 0
32 6 26 0
6 3 26 0
6 4 3 0
28 5 34 0
5 6 34 0
5 4 6 0
5 28 27 0
32 35 6 0
6 35 34 0
41 46 7 0
8 43 7 0
7 43 41 0
8 48 43 0
7 46 10 0
10 46 51 0
7 12 8 0
7 10 12 0
9 49 11 0
49 8 11 0
8 12 11 0
8 49 48 0
9 13 49 0
49 13 54 0
52 56 14 0
52 14 51 0
14 10 51 0
14 15 10 0
10 18 12 0
10 15 18 0
18 16 11 0
18 11 12 0
19 21 55 0
54 19 55 0
13 19 54 0
21 59 55 0
56 58 14 0
61 24 58 0
24 14 58 0
24 15 14 0
24 23 17 0
18 24 17 0
15 24 18 0
18 17 16 0
20 21 19 0
20 22 21 0
22 63 21 0
63 59 21 0
22 29 63 0
27 29 22 0
24 61 30 0
30 61 64 0
31 25 23 0
24 31 23 0
30 31 24 0
33 26 25 0
33 25 31 0
33 32 26 0
63 29 28 0
34 63 28 0
66 63 34 0
28 29 27 0
30 64 36 0
36 64 67 0
30 37 31 0
30 36 37 0
31 38 33 0
31 37 38 0
39 35 32 0
33 39 32 0
38 39 33 0
39 71 35 0
71 34 35 0
71 66 34 0
67 68 36 0
36 68 37 0
37 68 69 0
37 69 38 0
38 69 70 0
38 70 39 0
39 70 72 0
39 72 71 0
79 85 40 0
42 81 40 0
40 81 79 0
44 83 42 0
42 83 81 0
44 88 83 0
86 89 45 0
86 45 85 0
45 40 85 0
45 47 40 0
47 46 41 0
42 47 41 0
40 47 42 0
42 41 43 0
42 43 44 0
43 48 44 0
48 88 44 0
48 91 88 0
45 89 50 0
50 89 94 0
45 53 47 0
45 50 53 0
53 51 46 0
53 46 47 0
92 91 48 0
92 48 49 0
49 54 92 0
92 54 96 0
50 94 57 0
57 94 99 0
57 56 52 0
53 57 52 0
50 57 53 0
53 52 51 0
97 96 54 0
97 54 55 0
55 59 97 0
97 59 101 0
57 99 60 0
60 99 103 0
62 58 56 0
57 62 56 0
60 62 57 0
62 61 58 0
63 101 59 0
63 106 101 0
103 105 60 0
108 65 105 0
65 60 105 0
65 62 60 0
65 64 61 0
65 61 62 0
66 106 63 0
66 111 106 0
108 110 65 0
64 65 110 0
114 64 110 0
67 64 114 0
117 112 73 0
112 111 73 0
111 71 73 0
111 66 71 0
114 116 67 0
67 116 68 0
116 119 74 0
69 116 74 0
68 116 69 0
69 74 121 0
118 69 121 0
70 69 118 0
73 72 117 0
72 118 117 0
72 70 118 0
72 73 71 0
119 122 74 0
74 122 121 0
124 129 75 0
76 125 75 0
75 125 124 0
77 127 76 0
76 127 125 0
77 132 127 0
129 131 75 0
136 78 131 0
78 75 131 0
78 76 75 0
76 80 77 0
76 78 80 0
132 77 133 0
77 82 133 0
77 80 82 0
82 139 133 0
137 142 84 0
137 84 136 0
84 78 136 0
84 87 78 0
87 85 79 0
80 87 79 0
78 87 80 0
80 79 81 0
80 81 82 0
140 139 82 0
81 140 82 0
83 140 81 0
83 88 140 0
140 88 144 0
84 142 90 0
90 142 147 0
90 89 86 0
87 90 86 0
84 90 87 0
87 86 85 0
91 144 88 0
91 150 144 0
148 152 93 0
148 93 147 0
93 90 147 0
93 95 90 0
95 94 89 0
95 89 90 0
151 150 91 0
151 91 92 0
92 96 151 0
151 96 154 0
93 152 98 0
98 152 156 0
93 100 95 0
93 98 100 0
100 99 94 0
100 94 95 0
96 97 102 0
159 96 102 0
154 96 159 0
101 102 97 0
156 158 98 0
161 104 158 0
104 98 158 0
104 100 98 0
104 103 99 0
104 99 100 0
160 159 102 0
102 101 160 0
101 163 160 0
101 106 163 0
104 161 107 0
107 161 165 0
109 105 103 0
104 109 103 0
107 109 104 0
109 108 105 0
111 163 106 0
111 169 163 0
165 167 107 0
172 113 167 0
113 107 167 0
113 109 107 0
115 110 108 0
109 115 108 0
113 115 109 0
115 114 110 0
177 170 112 0
177 112 117 0
111 112 169 0
169 112 170 0
172 174 113 0
113 174 115 0
115 174 175 0
175 180 120 0
175 120 116 0
115 175 116 0
114 115 116 0
176 120 182 0
176 116 120 0
176 123 119 0
116 176 119 0
118 121 123 0
176 118 123 0
178 118 176 0
117 118 177 0
177 118 178 0
180 183 120 0
183 123 182 0
183 122 123 0
183 120 119 0
122 183 119 0
122 123 121 0
185 190 126 0
126 193 185 0
186 195 128 0
130 188 128 0
128 188 186 0
129 124 130 0
124 188 130 0
124 191 188 0
125 126 190 0
191 125 190 0
124 125 191 0
194 193 126 0
125 194 126 0
127 194 125 0
127 132 194 0
194 132 196 0
128 195 134 0
134 195 199 0
128 135 130 0
128 134 135 0
138 131 129 0
130 138 129 0
135 138 130 0
138 136 131 0
198 196 132 0
198 132 133 0
133 139 198 0
198 139 201 0
134 199 141 0
141 199 202 0
134 143 135 0
134 141 143 0
143 142 137 0
138 143 137 0
135 143 138 0
138 137 136 0
139 140 145 0
204 139 145 0
201 139 204 0
144 145 140 0
141 202 146 0
146 202 206 0
141 149 143 0
141 146 149 0
149 147 142 0
149 142 143 0
205 204 145 0
145 144 205 0
144 208 205 0
144 150 208 0
146 206 153 0
153 206 209 0
153 152 148 0
149 153 148 0
146 153 149 0
149 148 147 0
150 151 155 0
211 150 155 0
208 150 211 0
154 155 151 0
153 209 157 0
157 209 213 0
157 156 152 0
157 152 153 0
212 211 155 0
155 154 212 0
154 216 212 0
154 159 216 0
213 215 157 0
215 218 162 0
215 162 158 0
157 215 158 0
156 157 158 0
162 161 158 0
159 160 164 0
221 159 164 0
216 159 221 0
163 164 160 0
162 218 166 0
166 218 224 0
166 165 161 0
166 161 162 0
227 222 168 0
168 222 221 0
164 168 221 0
171 168 164 0
169 171 163 0
163 171 164 0
224 226 166 0
226 229 173 0
226 173 167 0
166 226 167 0
165 166 167 0
173 172 167 0
227 168 179 0
227 179 233 0
177 179 170 0
179 171 170 0
179 168 171 0
170 171 169 0
229 230 173 0
173 230 172 0
230 174 172 0
230 231 174 0
231 236 181 0
175 231 181 0
174 231 175 0
232 181 237 0
232 175 181 0
232 184 180 0
175 232 180 0
176 182 184 0
232 176 184 0
234 176 232 0
179 178 233 0
178 234 233 0
178 176 234 0
178 179 177 0
236 238 181 0
238 184 237 0
238 183 184 0
238 181 180 0
183 238 180 0
183 184 182 0
240 244 187 0
189 241 187 0
187 241 240 0
192 242 189 0
189 242 241 0
190 185 192 0
185 242 192 0
185 243 242 0
185 193 243 0
243 193 246 0
187 244 186 0
244 195 186 0
244 249 195 0
187 186 188 0
187 188 189 0
189 188 191 0
189 191 192 0
192 191 190 0
193 194 197 0
252 193 197 0
246 193 252 0
196 197 194 0
250 256 200 0
249 250 200 0
199 249 200 0
195 249 199 0
254 252 197 0
254 197 196 0
198 254 196 0
255 254 198 0
198 201 255 0
255 201 259 0
200 256 203 0
203 256 261 0
203 202 199 0
203 199 200 0
204 259 201 0
204 263 259 0
203 261 207 0
207 261 266 0
207 206 202 0
207 202 203 0
265 263 204 0
265 204 205 0
205 208 265 0
265 208 269 0
207 266 210 0
210 266 271 0
210 209 206 0
210 206 207 0
211 269 208 0
211 274 269 0
210 271 214 0
214 271 276 0
214 213 209 0
214 209 210 0
211 212 217 0
280 211 217 0
274 211 280 0
216 217 212 0
276 278 214 0
278 283 219 0
278 219 215 0
214 278 215 0
213 214 215 0
219 218 215 0
285 281 220 0
220 281 280 0
217 220 280 0
223 220 217 0
221 223 216 0
216 223 217 0
219 283 225 0
225 283 286 0
225 224 218 0
225 218 219 0
285 220 228 0
285 228 290 0
227 228 222 0
228 223 222 0
228 220 223 0
222 223 221 0
286 288 225 0
225 288 224 0
288 226 224 0
288 289 226 0
229 226 289 0
229 289 292 0
290 228 235 0
290 235 297 0
233 235 227 0
227 235 228 0
292 293 229 0
229 293 230 0
230 294 231 0
293 294 230 0
295 239 236 0
231 295 236 0
294 295 231 0
232 237 239 0
295 232 239 0
298 232 295 0
235 234 297 0
234 298 297 0
234 232 298 0
234 235 233 0
239 238 236 0
238 239 237 0
300 303 240 0
240 303 244 0
301 240 241 0
301 300 240 0
306 301 245 0
301 242 245 0
301 241 242 0
243 247 242 0
242 247 245 0
246 247 243 0
302 309 248 0
251 304 248 0
248 304 302 0
303 304 251 0
249 303 251 0
244 303 249 0
308 306 245 0
253 312 308 0
245 253 308 0
247 253 245 0
252 253 246 0
246 253 247 0
248 309 257 0
257 309 315 0
257 256 250 0
251 257 250 0
248 257 251 0
251 250 249 0
314 312 253 0
318 314 258 0
258 314 254 0
314 253 254 0
253 252 254 0
255 260 254 0
254 260 258 0
259 260 255 0
257 315 262 0
262 315 322 0
262 261 256 0
262 256 257 0
320 318 258 0
264 325 320 0
258 264 320 0
260 264 258 0
263 264 259 0
259 264 260 0
262 322 267 0
267 322 328 0
267 266 261 0
267 261 262 0
325 264 268 0
325 268 331 0
265 270 263 0
270 264 263 0
270 268 264 0
269 270 265 0
267 328 272 0
272 328 334 0
272 271 266 0
272 266 267 0
331 268 273 0
331 273 336 0
275 268 270 0
273 268 275 0
274 275 269 0
269 275 270 0
272 334 277 0
277 334 338 0
277 276 271 0
277 271 272 0
336 273 279 0
336 279 341 0
282 273 275 0
279 273 282 0
280 282 274 0
274 282 275 0
338 340 277 0
340 345 284 0
340 284 278 0
277 340 278 0
276 277 278 0
284 283 278 0
343 341 279 0
285 347 281 0
347 279 281 0
279 282 281 0
347 343 279 0
281 282 280 0
284 345 287 0
287 345 350 0
287 286 283 0
287 283 284 0
355 348 291 0
348 347 291 0
347 290 291 0
347 285 290 0
350 352 287 0
287 352 286 0
352 288 286 0
352 353 288 0
288 354 289 0
353 354 288 0
292 289 354 0
292 354 359 0
362 356 296 0
296 356 355 0
291 296 355 0
299 296 291 0
297 299 290 0
290 299 291 0
359 361 292 0
292 361 293 0
293 363 294 0
361 363 293 0
296 295 362 0
295 363 362 0
295 294 363 0
295 296 298 0
298 296 299 0
298 299 297 0
365 369 305 0
303 300 305 0
300 365 305 0
300 366 365 0
372 366 307 0
366 301 307 0
366 300 301 0
306 307 301 0
367 374 310 0
309 302 310 0
302 367 310 0
302 370 367 0
304 305 369 0
370 304 369 0
302 304 370 0
305 304 303 0
372 307 311 0
372 311 376 0
308 313 306 0
313 307 306 0
313 311 307 0
312 313 308 0
310 374 316 0
316 374 379 0
316 315 309 0
316 309 310 0
378 376 311 0
317 382 378 0
311 317 378 0
313 317 311 0
314 319 312 0
319 313 312 0
319 317 313 0
318 319 314 0
380 385 321 0
380 321 379 0
321 316 379 0
321 323 316 0
323 322 315 0
323 315 316 0
384 382 317 0
324 387 384 0
317 324 384 0
319 324 317 0
320 326 318 0
326 319 318 0
326 324 319 0
325 326 320 0
321 385 327 0
327 385 389 0
321 329 323 0
321 327 329 0
329 328 322 0
329 322 323 0
387 324 330 0
387 330 391 0
332 324 326 0
330 324 332 0
331 332 325 0
325 332 326 0
327 389 333 0
333 389 394 0
327 335 329 0
327 333 335 0
335 334 328 0
335 328 329 0
393 391 330 0
337 397 393 0
330 337 393 0
332 337 330 0
336 337 331 0
331 337 332 0
394 395 333 0
399 339 395 0
339 333 395 0
339 335 333 0
339 338 334 0
339 334 335 0
397 337 342 0
397 342 401 0
341 342 336 0
336 342 337 0
339 399 344 0
344 399 404 0
346 340 338 0
339 346 338 0
344 346 339 0
346 345 340 0
403 401 342 0
408 403 349 0
349 403 343 0
403 342 343 0
342 341 343 0
347 349 343 0
404 405 344 0
411 351 405 0
351 344 405 0
351 346 344 0
351 350 345 0
351 345 346 0
414 409 357 0
357 409 408 0
357 408 349 0
355 357 349 0
348 355 349 0
348 349 347 0
411 412 351 0
351 412 350 0
412 352 350 0
412 413 352 0
413 418 358 0
353 413 358 0
352 413 353 0
360 354 353 0
360 353 358 0
360 359 354 0
422 415 364 0
364 415 414 0
364 414 357 0
362 364 357 0
356 362 357 0
356 357 355 0
418 420 358 0
358 420 360 0
360 420 421 0
360 421 359 0
421 361 359 0
421 423 361 0
364 363 422 0
363 423 422 0
363 361 423 0
363 364 362 0
424 427 368 0
371 425 368 0
368 425 424 0
369 365 371 0
365 425 371 0
365 426 425 0
431 426 373 0
426 366 373 0
426 365 366 0
372 373 366 0
428 433 375 0
428 375 427 0
427 375 368 0
375 374 368 0
374 367 368 0
368 367 370 0
368 370 371 0
371 370 369 0
431 373 377 0
431 377 437 0
376 377 372 0
372 377 373 0
375 433 381 0
381 433 440 0
381 379 374 0
381 374 375 0
439 437 377 0
441 439 383 0
383 439 378 0
439 377 378 0
377 376 378 0
382 383 378 0
381 440 380 0
440 385 380 0
440 443 385 0
381 380 379 0
441 383 386 0
441 386 444 0
384 388 382 0
388 383 382 0
388 386 383 0
387 388 384 0
443 389 385 0
446 389 443 0
444 386 390 0
444 390 447 0
392 386 388 0
390 386 392 0
391 392 387 0
387 392 388 0
446 394 389 0
449 394 446 0
448 447 390 0
396 450 448 0
390 396 448 0
392 396 390 0
393 398 391 0
398 392 391 0
398 396 392 0
397 398 393 0
395 394 400 0
394 453 400 0
394 449 453 0
400 399 395 0
452 450 396 0
402 456 452 0
396 402 452 0
398 402 396 0
401 402 397 0
397 402 398 0
453 454 400 0
399 400 454 0
459 399 454 0
404 399 459 0
461 457 406 0
406 457 456 0
402 406 456 0
407 406 402 0
403 410 401 0
410 402 401 0
410 407 402 0
408 410 403 0
459 460 404 0
404 460 405 0
411 405 460 0
411 460 463 0
462 461 406 0
416 464 462 0
406 416 462 0
407 416 406 0
414 416 409 0
416 410 409 0
416 407 410 0
409 410 408 0
412 411 417 0
411 466 417 0
411 463 466 0
419 413 412 0
419 412 417 0
419 418 413 0
464 416 415 0
422 464 415 0
471 464 422 0
415 416 414 0
466 467 417 0
417 467 419 0
419 467 468 0
419 468 418 0
468 420 418 0
468 469 420 0
420 470 421 0
469 470 420 0
421 472 423 0
470 472 421 0
422 423 471 0
471 423 472 0
429 427 424 0
425 430 424 0
424 430 429 0
426 432 425 0
425 432 430 0
431 432 426 0
434 433 428 0
427 429 428 0
429 434 428 0
429 435 434 0
436 429 430 0
435 429 436 0
438 430 432 0
436 430 438 0
437 438 431 0
431 438 432 0
474 478 434 0
478 433 434 0
478 440 433 0
474 434 435 0
474 435 475 0
475 435 436 0
475 436 476 0
476 436 438 0
476 438 477 0
480 477 442 0
442 477 439 0
477 438 439 0
438 437 439 0
441 442 439 0
478 443 440 0
482 443 478 0
480 442 445 0
480 445 486 0
444 445 441 0
441 445 442 0
482 446 443 0
489 446 482 0
488 486 445 0
445 444 488 0
444 494 488 0
444 447 494 0
489 449 446 0
496 449 489 0
447 448 451 0
497 447 451 0
494 447 497 0
450 451 448 0
496 453 449 0
499 453 496 0
497 451 455 0
497 455 501 0
452 458 450 0
458 451 450 0
458 455 451 0
456 458 452 0
499 500 453 0
453 500 454 0
459 454 500 0
459 500 504 0
503 501 455 0
461 506 457 0
506 455 457 0
455 458 457 0
506 503 455 0
457 458 456 0
504 505 459 0
459 505 460 0
463 460 505 0
463 505 508 0
461 462 465 0
511 461 465 0
506 461 511 0
464 465 462 0
508 466 463 0
513 466 508 0
511 465 473 0
511 473 520 0
471 473 464 0
464 473 465 0
513 514 466 0
466 514 467 0
467 516 468 0
514 516 467 0
468 518 469 0
516 518 468 0
469 521 470 0
518 521 469 0
473 472 520 0
472 521 520 0
472 470 521 0
472 473 471 0
523 525 474 0
474 525 478 0
524 474 475 0
524 523 474 0
528 524 479 0
524 476 479 0
524 475 476 0
477 481 476 0
476 481 479 0
480 481 477 0
483 482 526 0
482 525 526 0
482 478 525 0
529 484 483 0
529 483 526 0
484 529 528 0
479 484 528 0
485 484 479 0
487 479 481 0
485 479 487 0
486 487 480 0
480 487 481 0
490 489 483 0
483 489 482 0
491 483 484 0
490 483 491 0
492 484 485 0
491 484 492 0
493 485 487 0
492 485 493 0
488 495 486 0
495 487 486 0
495 493 487 0
494 495 488 0
531 535 490 0
535 489 490 0
535 496 489 0
531 490 491 0
531 491 532 0
532 491 492 0
532 492 533 0
533 492 493 0
533 493 534 0
498 539 534 0
493 498 534 0
495 498 493 0
497 498 494 0
494 498 495 0
535 499 496 0
541 499 535 0
539 498 502 0
539 502 544 0
501 502 497 0
497 502 498 0
541 543 499 0
499 543 500 0
504 500 543 0
504 543 547 0
546 544 502 0
550 546 507 0
507 546 503 0
546 502 503 0
502 501 503 0
506 507 503 0
505 504 509 0
504 553 509 0
504 547 553 0
509 508 505 0
558 551 510 0
510 551 550 0
507 510 550 0
512 510 507 0
511 512 506 0
506 512 507 0
553 554 509 0
513 508 509 0
556 513 509 0
554 556 509 0
513 556 515 0
559 517 515 0
559 515 556 0
517 559 558 0
510 517 558 0
519 517 510 0
522 510 512 0
519 510 522 0
520 522 511 0
511 522 512 0
515 514 513 0
514 515 516 0
516 515 517 0
516 517 518 0
518 517 519 0
518 519 521 0
521 519 522 0
521 522 520 0
527 525 523 0
524 530 523 0
523 530 527 0
528 530 524 0
527 526 525 0
526 527 529 0
529 527 530 0
529 530 528 0
536 535 531 0
532 537 531 0
531 537 536 0
533 538 532 0
532 538 537 0
534 540 533 0
533 540 538 0
539 540 534 0
561 565 542 0
562 561 536 0
561 541 536 0
541 535 536 0
561 542 541 0
562 536 537 0
562 537 563 0
563 537 538 0
563 538 564 0
545 570 564 0
538 545 564 0
540 545 538 0
544 545 539 0
539 545 540 0
565 566 542 0
566 572 548 0
566 548 543 0
542 566 543 0
541 542 543 0
548 547 543 0
570 545 549 0
570 549 577 0
546 552 544 0
552 545 544 0
552 549 545 0
550 552 546 0
572 573 548 0
553 547 548 0
575 553 548 0
573 575 548 0
553 575 555 0
578 557 555 0
578 555 575 0
557 578 577 0
549 557 577 0
560 557 549 0
558 560 551 0
560 552 551 0
560 549 552 0
551 552 550 0
555 554 553 0
554 555 556 0
556 555 557 0
556 557 559 0
559 557 560 0
559 560 558 0
567 565 561 0
562 568 561 0
561 568 567 0
563 569 562 0
562 569 568 0
564 571 563 0
563 571 569 0
570 571 564 0
567 566 565 0
566 567 572 0
567 574 572 0
567 568 574 0
576 568 569 0
574 568 576 0
579 569 571 0
576 569 579 0
577 579 570 0
570 579 571 0
574 573 572 0
573 574 575 0
575 574 576 0
575 576 578 0
578 576 579 0
578 579 577 0
