#!ascii version in FreeSurfer format (SUMA)
652 1302
-6.545013  -44.138687  -35.981041  0
-7.045013  -44.138687  -35.981041  0
-7.545013  -44.138687  -35.981041  0
-6.045013  -44.638687  -35.981041  0
-6.545013  -44.638687  -35.981041  0
-7.045013  -44.638687  -35.981041  0
-7.545013  -44.638687  -35.981041  0
-5.545013  -45.138687  -35.981041  0
-6.045013  -45.138687  -35.981041  0
-6.545013  -45.138687  -35.981041  0
-7.045013  -45.138687  -35.981041  0
-5.545013  -45.638687  -35.981041  0
-6.045013  -45.638687  -35.981041  0
-6.545013  -45.638687  -35.981041  0
-7.045013  -45.638687  -35.981041  0
-5.045013  -46.138687  -35.981041  0
-5.545013  -46.138687  -35.981041  0
-6.045013  -46.138687  -35.981041  0
-6.545013  -46.138687  -35.981041  0
-5.045013  -46.638687  -35.981041  0
-5.545013  -46.638687  -35.981041  0
-6.045013  -46.638687  -35.981041  0
-6.545013  -46.638687  -35.981041  0
-5.045013  -47.138687  -35.981041  0
-5.545013  -47.138687  -35.981041  0
-6.045013  -47.138687  -35.981041  0
-5.045013  -47.638687  -35.981041  0
-5.545013  -47.638687  -35.981041  0
-7.045013  -43.138687  -35.481041  0
-7.545013  -43.138687  -35.481041  0
-8.045013  -43.138687  -35.481041  0
-8.545013  -43.138687  -35.481041  0
-6.545013  -43.888687  -35.731041  0
-6.545013  -43.638687  -35.481041  0
-7.045013  -43.888687  -35.731041  0
-7.045013  -43.638687  -35.481041  0
-7.545013  -43.888687  -35.731041  0
-7.545013  -43.638687  -35.481041  0
-8.045013  -43.638687  -35.481041  0
-8.545013  -43.638687  -35.481041  0
-6.295013  -44.138687  -35.731041  0
-6.045013  -44.388687  -35.731041  0
-6.045013  -44.138687  -35.481041  0
-7.795013  -44.138687  -35.731041  0
-8.045013  -44.138687  -35.481041  0
-8.545013  -44.138687  -35.481041  0
-5.795013  -44.638687  -35.731041  0
-5.545013  -44.888687  -35.731041  0
-5.545013  -44.638687  -35.481041  0
-7.795013  -44.638687  -35.731041  0
-7.545013  -44.888687  -35.731041  0
-8.045013  -44.638687  -35.481041  0
-5.295013  -45.138687  -35.731041  0
-7.295013  -45.138687  -35.731041  0
-7.545013  -45.138687  -35.481041  0
-8.045013  -45.138687  -35.481041  0
-5.295013  -45.638687  -35.731041  0
-5.045013  -45.888687  -35.731041  0
-7.295013  -45.638687  -35.731041  0
-7.045013  -45.888687  -35.731041  0
-7.545013  -45.638687  -35.481041  0
-4.795013  -46.138687  -35.731041  0
-5.045013  -46.138687  -35.481041  0
-6.795013  -46.138687  -35.731041  0
-7.045013  -46.138687  -35.481041  0
-4.795013  -46.638687  -35.731041  0
-6.795013  -46.638687  -35.731041  0
-6.545013  -46.888687  -35.731041  0
-7.045013  -46.638687  -35.481041  0
-4.795013  -47.138687  -35.731041  0
-6.295013  -47.138687  -35.731041  0
-6.045013  -47.388687  -35.731041  0
-6.545013  -47.138687  -35.481041  0
-7.045013  -47.138687  -35.481041  0
-4.795013  -47.638687  -35.731041  0
-5.045013  -47.888687  -35.731041  0
-5.795013  -47.638687  -35.731041  0
-5.545013  -47.888687  -35.731041  0
-6.045013  -47.638687  -35.481041  0
-6.545013  -47.638687  -35.481041  0
-7.045013  -42.888687  -35.231041  0
-7.545013  -42.888687  -35.231041  0
-7.545013  -42.638687  -34.981041  0
-8.045013  -42.888687  -35.231041  0
-8.045013  -42.638687  -34.981041  0
-8.545013  -42.888687  -35.231041  0
-8.545013  -42.638687  -34.981041  0
-6.795013  -43.138687  -35.231041  0
-6.545013  -43.388687  -35.231041  0
-8.795013  -43.138687  -35.231041  0
-6.295013  -43.638687  -35.231041  0
-6.045013  -43.888687  -35.231041  0
-8.795013  -43.638687  -35.231041  0
-5.795013  -44.138687  -35.231041  0
-5.545013  -44.388687  -35.231041  0
-8.795013  -44.138687  -35.231041  0
-8.545013  -44.388687  -35.231041  0
-5.295013  -44.638687  -35.231041  0
-8.295013  -44.638687  -35.231041  0
-8.545013  -44.638687  -34.981041  0
-5.295013  -45.138687  -35.231041  0
-8.295013  -45.138687  -35.231041  0
-8.045013  -45.388687  -35.231041  0
-8.545013  -45.138687  -34.981041  0
-5.295013  -45.638687  -35.231041  0
-5.545013  -45.638687  -34.981041  0
-7.795013  -45.638687  -35.231041  0
-7.545013  -45.888687  -35.231041  0
-8.045013  -45.638687  -34.981041  0
-8.545013  -45.638687  -34.981041  0
-5.295013  -46.138687  -35.231041  0
-5.045013  -46.388687  -35.231041  0
-7.295013  -46.138687  -35.231041  0
-7.545013  -46.138687  -34.981041  0
-8.045013  -46.138687  -34.981041  0
-4.795013  -46.638687  -35.231041  0
-5.045013  -46.638687  -34.981041  0
-7.295013  -46.638687  -35.231041  0
-7.545013  -46.638687  -34.981041  0
-4.795013  -47.138687  -35.231041  0
-7.295013  -47.138687  -35.231041  0
-7.045013  -47.388687  -35.231041  0
-7.545013  -47.138687  -34.981041  0
-4.795013  -47.638687  -35.231041  0
-5.045013  -47.888687  -35.231041  0
-5.045013  -47.638687  -34.981041  0
-5.545013  -47.888687  -35.231041  0
-6.045013  -47.888687  -35.231041  0
-6.795013  -47.638687  -35.231041  0
-6.545013  -47.888687  -35.231041  0
-6.545013  -48.138687  -34.981041  0
-7.545013  -42.388687  -34.731041  0
-8.045013  -42.388687  -34.731041  0
-8.545013  -42.388687  -34.731041  0
-7.295013  -42.638687  -34.731041  0
-7.045013  -42.888687  -34.731041  0
-8.795013  -42.638687  -34.731041  0
-9.045013  -42.638687  -34.481041  0
-9.545013  -42.638687  -34.481041  0
-6.795013  -43.138687  -34.731041  0
-6.545013  -43.388687  -34.731041  0
-7.045013  -43.138687  -34.481041  0
-8.795013  -43.138687  -34.731041  0
-9.045013  -43.138687  -34.481041  0
-9.545013  -43.138687  -34.481041  0
-6.295013  -43.638687  -34.731041  0
-6.045013  -43.888687  -34.731041  0
-8.795013  -43.638687  -34.731041  0
-9.045013  -43.638687  -34.481041  0
-9.545013  -43.638687  -34.481041  0
-5.795013  -44.138687  -34.731041  0
-5.545013  -44.388687  -34.731041  0
-6.045013  -44.138687  -34.481041  0
-8.795013  -44.138687  -34.731041  0
-9.045013  -44.138687  -34.481041  0
-9.545013  -44.138687  -34.481041  0
-5.295013  -44.638687  -34.731041  0
-5.545013  -44.638687  -34.481041  0
-8.795013  -44.638687  -34.731041  0
-9.045013  -44.638687  -34.481041  0
-9.545013  -44.638687  -34.481041  0
-5.295013  -45.138687  -34.731041  0
-5.545013  -45.388687  -34.731041  0
-5.545013  -45.138687  -34.481041  0
-8.795013  -45.138687  -34.731041  0
-9.045013  -45.138687  -34.481041  0
-5.795013  -45.638687  -34.731041  0
-5.545013  -45.888687  -34.731041  0
-8.795013  -45.638687  -34.731041  0
-8.545013  -45.888687  -34.731041  0
-5.295013  -46.138687  -34.731041  0
-5.545013  -46.138687  -34.481041  0
-8.295013  -46.138687  -34.731041  0
-8.045013  -46.388687  -34.731041  0
-8.545013  -46.138687  -34.481041  0
-5.295013  -46.638687  -34.731041  0
-5.045013  -46.888687  -34.731041  0
-5.545013  -46.638687  -34.481041  0
-7.795013  -46.638687  -34.731041  0
-8.045013  -46.638687  -34.481041  0
-4.795013  -47.138687  -34.731041  0
-5.045013  -47.388687  -34.731041  0
-5.045013  -47.138687  -34.481041  0
-7.045013  -47.388687  -34.731041  0
-7.795013  -47.138687  -34.731041  0
-7.545013  -47.388687  -34.731041  0
-8.045013  -47.138687  -34.481041  0
-5.295013  -47.638687  -34.731041  0
-5.545013  -47.888687  -34.731041  0
-6.045013  -47.888687  -34.731041  0
-6.795013  -47.638687  -34.731041  0
-7.045013  -47.638687  -34.481041  0
-6.295013  -48.138687  -34.731041  0
-6.795013  -48.138687  -34.731041  0
-6.545013  -48.388687  -34.731041  0
-6.545013  -48.138687  -34.481041  0
-7.045013  -48.138687  -34.481041  0
-7.545013  -42.388687  -34.231041  0
-8.045013  -42.388687  -34.231041  0
-8.545013  -42.388687  -34.231041  0
-9.045013  -42.388687  -34.231041  0
-9.545013  -42.388687  -34.231041  0
-7.295013  -42.638687  -34.231041  0
-7.545013  -42.638687  -33.981041  0
-9.795013  -42.638687  -34.231041  0
-6.545013  -43.388687  -34.231041  0
-7.295013  -43.138687  -34.231041  0
-7.045013  -43.388687  -34.231041  0
-7.545013  -43.138687  -33.981041  0
-9.795013  -43.138687  -34.231041  0
-6.295013  -43.638687  -34.231041  0
-6.545013  -43.638687  -33.981041  0
-7.045013  -43.638687  -33.981041  0
-9.795013  -43.638687  -34.231041  0
-6.295013  -44.138687  -34.231041  0
-6.045013  -44.388687  -34.231041  0
-6.545013  -44.138687  -33.981041  0
-9.795013  -44.138687  -34.231041  0
-5.795013  -44.638687  -34.231041  0
-6.045013  -44.638687  -33.981041  0
-9.795013  -44.638687  -34.231041  0
-9.545013  -44.888687  -34.231041  0
-5.795013  -45.138687  -34.231041  0
-6.045013  -45.138687  -33.981041  0
-9.295013  -45.138687  -34.231041  0
-9.045013  -45.388687  -34.231041  0
-9.545013  -45.138687  -33.981041  0
-5.795013  -45.638687  -34.231041  0
-6.045013  -45.638687  -33.981041  0
-8.795013  -45.638687  -34.231041  0
-9.045013  -45.638687  -33.981041  0
-9.545013  -45.638687  -33.981041  0
-5.795013  -46.138687  -34.231041  0
-6.045013  -46.138687  -33.981041  0
-8.795013  -46.138687  -34.231041  0
-8.545013  -46.388687  -34.231041  0
-9.045013  -46.138687  -33.981041  0
-9.545013  -46.138687  -33.981041  0
-5.795013  -46.638687  -34.231041  0
-5.545013  -46.888687  -34.231041  0
-8.295013  -46.638687  -34.231041  0
-8.545013  -46.638687  -33.981041  0
-9.045013  -46.638687  -33.981041  0
-5.295013  -47.138687  -34.231041  0
-5.545013  -47.138687  -33.981041  0
-7.545013  -47.388687  -34.231041  0
-8.295013  -47.138687  -34.231041  0
-8.045013  -47.388687  -34.231041  0
-8.545013  -47.138687  -33.981041  0
-5.295013  -47.638687  -34.231041  0
-5.545013  -47.888687  -34.231041  0
-5.545013  -47.638687  -33.981041  0
-6.045013  -47.888687  -34.231041  0
-6.545013  -47.888687  -34.231041  0
-7.295013  -47.638687  -34.231041  0
-7.545013  -47.638687  -33.981041  0
-8.045013  -47.638687  -33.981041  0
-8.545013  -47.638687  -33.981041  0
-6.795013  -48.138687  -34.231041  0
-7.295013  -48.138687  -34.231041  0
-7.045013  -48.388687  -34.231041  0
-8.045013  -42.388687  -33.731041  0
-8.545013  -42.388687  -33.731041  0
-9.045013  -42.388687  -33.731041  0
-9.045013  -42.138687  -33.481041  0
-9.545013  -42.388687  -33.731041  0
-9.545013  -42.138687  -33.481041  0
-7.795013  -42.638687  -33.731041  0
-8.045013  -42.638687  -33.481041  0
-9.795013  -42.638687  -33.731041  0
-10.045013  -42.638687  -33.481041  0
-7.795013  -43.138687  -33.731041  0
-7.545013  -43.388687  -33.731041  0
-9.795013  -43.138687  -33.731041  0
-10.045013  -43.138687  -33.481041  0
-10.545013  -43.138687  -33.481041  0
-7.295013  -43.638687  -33.731041  0
-7.045013  -43.888687  -33.731041  0
-9.795013  -43.638687  -33.731041  0
-10.045013  -43.638687  -33.481041  0
-10.545013  -43.638687  -33.481041  0
-6.795013  -44.138687  -33.731041  0
-6.545013  -44.388687  -33.731041  0
-7.045013  -44.138687  -33.481041  0
-9.795013  -44.138687  -33.731041  0
-10.045013  -44.138687  -33.481041  0
-10.545013  -44.138687  -33.481041  0
-6.295013  -44.638687  -33.731041  0
-6.545013  -44.638687  -33.481041  0
-9.795013  -44.638687  -33.731041  0
-10.045013  -44.638687  -33.481041  0
-10.545013  -44.638687  -33.481041  0
-6.295013  -45.138687  -33.731041  0
-6.545013  -45.138687  -33.481041  0
-9.795013  -45.138687  -33.731041  0
-10.045013  -45.138687  -33.481041  0
-6.295013  -45.638687  -33.731041  0
-9.795013  -45.638687  -33.731041  0
-10.045013  -45.638687  -33.481041  0
-6.295013  -46.138687  -33.731041  0
-6.045013  -46.388687  -33.731041  0
-9.795013  -46.138687  -33.731041  0
-9.545013  -46.388687  -33.731041  0
-10.045013  -46.138687  -33.481041  0
-5.795013  -46.638687  -33.731041  0
-6.045013  -46.638687  -33.481041  0
-9.295013  -46.638687  -33.731041  0
-9.045013  -46.888687  -33.731041  0
-9.545013  -46.638687  -33.481041  0
-5.795013  -47.138687  -33.731041  0
-6.045013  -47.138687  -33.481041  0
-8.795013  -47.138687  -33.731041  0
-9.045013  -47.138687  -33.481041  0
-9.545013  -47.138687  -33.481041  0
-5.795013  -47.638687  -33.731041  0
-6.045013  -47.888687  -33.731041  0
-6.045013  -47.638687  -33.481041  0
-6.545013  -47.888687  -33.731041  0
-6.545013  -47.638687  -33.481041  0
-7.545013  -47.888687  -33.731041  0
-8.045013  -47.888687  -33.731041  0
-8.795013  -47.638687  -33.731041  0
-8.545013  -47.888687  -33.731041  0
-9.045013  -47.638687  -33.481041  0
-6.795013  -48.138687  -33.731041  0
-7.295013  -48.138687  -33.731041  0
-7.045013  -48.388687  -33.731041  0
-7.545013  -48.138687  -33.481041  0
-8.045013  -48.138687  -33.481041  0
-8.545013  -48.138687  -33.481041  0
-9.045013  -41.888687  -33.231041  0
-9.545013  -41.888687  -33.231041  0
-8.795013  -42.138687  -33.231041  0
-8.545013  -42.388687  -33.231041  0
-9.795013  -42.138687  -33.231041  0
-10.045013  -42.388687  -33.231041  0
-8.295013  -42.638687  -33.231041  0
-8.045013  -42.888687  -33.231041  0
-10.295013  -42.638687  -33.231041  0
-10.545013  -42.888687  -33.231041  0
-10.545013  -42.638687  -32.981041  0
-11.045013  -42.638687  -32.981041  0
-7.795013  -43.138687  -33.231041  0
-7.545013  -43.388687  -33.231041  0
-8.045013  -43.138687  -32.981041  0
-10.795013  -43.138687  -33.231041  0
-11.045013  -43.138687  -32.981041  0
-7.295013  -43.638687  -33.231041  0
-7.545013  -43.638687  -32.981041  0
-10.795013  -43.638687  -33.231041  0
-11.045013  -43.638687  -32.981041  0
-7.295013  -44.138687  -33.231041  0
-7.045013  -44.388687  -33.231041  0
-10.795013  -44.138687  -33.231041  0
-11.045013  -44.138687  -32.981041  0
-11.545013  -44.138687  -32.981041  0
-6.795013  -44.638687  -33.231041  0
-10.795013  -44.638687  -33.231041  0
-10.545013  -44.888687  -33.231041  0
-11.045013  -44.638687  -32.981041  0
-6.795013  -45.138687  -33.231041  0
-6.545013  -45.388687  -33.231041  0
-7.045013  -45.138687  -32.981041  0
-10.295013  -45.138687  -33.231041  0
-10.545013  -45.138687  -32.981041  0
-6.295013  -45.638687  -33.231041  0
-6.545013  -45.638687  -32.981041  0
-10.295013  -45.638687  -33.231041  0
-6.295013  -46.138687  -33.231041  0
-6.545013  -46.138687  -32.981041  0
-10.295013  -46.138687  -33.231041  0
-10.045013  -46.388687  -33.231041  0
-6.295013  -46.638687  -33.231041  0
-6.545013  -46.638687  -32.981041  0
-9.795013  -46.638687  -33.231041  0
-10.045013  -46.638687  -32.981041  0
-6.295013  -47.138687  -33.231041  0
-6.545013  -47.388687  -33.231041  0
-6.545013  -47.138687  -32.981041  0
-9.795013  -47.138687  -33.231041  0
-9.545013  -47.388687  -33.231041  0
-6.795013  -47.638687  -33.231041  0
-7.045013  -47.638687  -32.981041  0
-9.295013  -47.638687  -33.231041  0
-9.045013  -47.888687  -33.231041  0
-9.545013  -47.638687  -32.981041  0
-6.795013  -48.138687  -33.231041  0
-7.045013  -48.388687  -33.231041  0
-7.045013  -48.138687  -32.981041  0
-7.545013  -48.388687  -33.231041  0
-8.045013  -48.388687  -33.231041  0
-8.795013  -48.138687  -33.231041  0
-8.545013  -48.388687  -33.231041  0
-9.045013  -48.138687  -32.981041  0
-9.045013  -41.888687  -32.731041  0
-9.545013  -41.888687  -32.731041  0
-8.795013  -42.138687  -32.731041  0
-8.545013  -42.388687  -32.731041  0
-9.045013  -42.138687  -32.481041  0
-9.795013  -42.138687  -32.731041  0
-10.045013  -42.388687  -32.731041  0
-10.045013  -42.138687  -32.481041  0
-10.545013  -42.388687  -32.731041  0
-10.545013  -42.138687  -32.481041  0
-11.045013  -42.388687  -32.731041  0
-8.295013  -42.638687  -32.731041  0
-8.545013  -42.638687  -32.481041  0
-11.295013  -42.638687  -32.731041  0
-8.295013  -43.138687  -32.731041  0
-8.045013  -43.388687  -32.731041  0
-8.545013  -43.138687  -32.481041  0
-11.295013  -43.138687  -32.731041  0
-11.545013  -43.138687  -32.481041  0
-7.795013  -43.638687  -32.731041  0
-7.545013  -43.888687  -32.731041  0
-11.295013  -43.638687  -32.731041  0
-11.545013  -43.888687  -32.731041  0
-11.545013  -43.638687  -32.481041  0
-7.295013  -44.138687  -32.731041  0
-7.045013  -44.388687  -32.731041  0
-7.545013  -44.138687  -32.481041  0
-11.795013  -44.138687  -32.731041  0
-11.545013  -44.388687  -32.731041  0
-6.795013  -44.638687  -32.731041  0
-7.045013  -44.888687  -32.731041  0
-7.045013  -44.638687  -32.481041  0
-7.545013  -44.638687  -32.481041  0
-11.295013  -44.638687  -32.731041  0
-11.045013  -44.888687  -32.731041  0
-7.295013  -45.138687  -32.731041  0
-7.045013  -45.388687  -32.731041  0
-7.545013  -45.138687  -32.481041  0
-10.795013  -45.138687  -32.731041  0
-10.545013  -45.388687  -32.731041  0
-6.795013  -45.638687  -32.731041  0
-7.045013  -45.638687  -32.481041  0
-10.295013  -45.638687  -32.731041  0
-10.545013  -45.638687  -32.481041  0
-6.795013  -46.138687  -32.731041  0
-7.045013  -46.138687  -32.481041  0
-10.295013  -46.138687  -32.731041  0
-6.795013  -46.638687  -32.731041  0
-7.045013  -46.638687  -32.481041  0
-10.295013  -46.638687  -32.731041  0
-10.045013  -46.888687  -32.731041  0
-6.795013  -47.138687  -32.731041  0
-7.045013  -47.388687  -32.731041  0
-7.045013  -47.138687  -32.481041  0
-7.545013  -47.138687  -32.481041  0
-9.795013  -47.138687  -32.731041  0
-10.045013  -47.138687  -32.481041  0
-7.295013  -47.638687  -32.731041  0
-7.545013  -47.638687  -32.481041  0
-9.795013  -47.638687  -32.731041  0
-9.545013  -47.888687  -32.731041  0
-9.545013  -47.638687  -32.481041  0
-7.295013  -48.138687  -32.731041  0
-7.545013  -48.388687  -32.731041  0
-7.545013  -48.138687  -32.481041  0
-8.045013  -48.388687  -32.731041  0
-8.045013  -48.138687  -32.481041  0
-8.545013  -48.388687  -32.731041  0
-8.545013  -48.138687  -32.481041  0
-9.295013  -48.138687  -32.731041  0
-9.045013  -48.388687  -32.731041  0
-9.045013  -48.138687  -32.481041  0
-9.545013  -41.888687  -32.231041  0
-10.045013  -41.888687  -32.231041  0
-10.545013  -41.888687  -32.231041  0
-9.295013  -42.138687  -32.231041  0
-9.045013  -42.388687  -32.231041  0
-9.545013  -42.138687  -31.981041  0
-10.045013  -42.138687  -31.981041  0
-10.795013  -42.138687  -32.231041  0
-10.545013  -42.138687  -31.981041  0
-11.045013  -42.388687  -32.231041  0
-8.795013  -42.638687  -32.231041  0
-9.045013  -42.638687  -31.981041  0
-9.545013  -42.638687  -31.981041  0
-11.295013  -42.638687  -32.231041  0
-11.545013  -42.888687  -32.231041  0
-8.045013  -43.388687  -32.231041  0
-8.795013  -43.138687  -32.231041  0
-8.545013  -43.388687  -32.231041  0
-9.045013  -43.138687  -31.981041  0
-11.795013  -43.138687  -32.231041  0
-7.795013  -43.638687  -32.231041  0
-8.045013  -43.638687  -31.981041  0
-8.545013  -43.638687  -31.981041  0
-11.795013  -43.638687  -32.231041  0
-7.795013  -44.138687  -32.231041  0
-8.045013  -44.138687  -31.981041  0
-8.545013  -44.138687  -31.981041  0
-11.795013  -44.138687  -32.231041  0
-11.545013  -44.388687  -32.231041  0
-12.045013  -44.138687  -31.981041  0
-7.795013  -44.638687  -32.231041  0
-8.045013  -44.638687  -31.981041  0
-11.295013  -44.638687  -32.231041  0
-11.045013  -44.888687  -32.231041  0
-7.795013  -45.138687  -32.231041  0
-7.545013  -45.388687  -32.231041  0
-8.045013  -45.138687  -31.981041  0
-10.795013  -45.138687  -32.231041  0
-7.295013  -45.638687  -32.231041  0
-7.545013  -45.638687  -31.981041  0
-8.045013  -45.638687  -31.981041  0
-10.795013  -45.638687  -32.231041  0
-10.545013  -45.888687  -32.231041  0
-7.295013  -46.138687  -32.231041  0
-7.545013  -46.138687  -31.981041  0
-8.045013  -46.138687  -31.981041  0
-10.295013  -46.138687  -32.231041  0
-10.045013  -46.138687  -31.981041  0
-7.295013  -46.638687  -32.231041  0
-7.545013  -46.888687  -32.231041  0
-7.545013  -46.638687  -31.981041  0
-8.045013  -46.638687  -31.981041  0
-9.545013  -46.638687  -31.981041  0
-10.295013  -46.638687  -32.231041  0
-10.045013  -46.638687  -31.981041  0
-7.795013  -47.138687  -32.231041  0
-8.045013  -47.138687  -31.981041  0
-8.545013  -47.138687  -31.981041  0
-9.545013  -47.388687  -32.231041  0
-10.295013  -47.138687  -32.231041  0
-10.045013  -47.388687  -32.231041  0
-7.795013  -47.638687  -32.231041  0
-8.045013  -47.888687  -32.231041  0
-8.045013  -47.638687  -31.981041  0
-8.545013  -47.888687  -32.231041  0
-8.545013  -47.638687  -31.981041  0
-9.295013  -47.638687  -32.231041  0
-9.045013  -47.888687  -32.231041  0
-9.045013  -47.638687  -31.981041  0
-10.045013  -42.388687  -31.731041  0
-10.545013  -42.388687  -31.731041  0
-11.045013  -42.388687  -31.731041  0
-9.795013  -42.638687  -31.731041  0
-9.545013  -42.888687  -31.731041  0
-10.045013  -42.638687  -31.481041  0
-10.545013  -42.638687  -31.481041  0
-11.295013  -42.638687  -31.731041  0
-11.045013  -42.638687  -31.481041  0
-11.545013  -42.888687  -31.731041  0
-9.295013  -43.138687  -31.731041  0
-9.045013  -43.388687  -31.731041  0
-9.545013  -43.138687  -31.481041  0
-10.045013  -43.138687  -31.481041  0
-10.545013  -43.138687  -31.481041  0
-11.045013  -43.138687  -31.481041  0
-11.795013  -43.138687  -31.731041  0
-11.545013  -43.138687  -31.481041  0
-8.795013  -43.638687  -31.731041  0
-9.045013  -43.638687  -31.481041  0
-9.545013  -43.638687  -31.481041  0
-10.045013  -43.638687  -31.481041  0
-10.545013  -43.638687  -31.481041  0
-11.795013  -43.638687  -31.731041  0
-11.545013  -43.638687  -31.481041  0
-12.045013  -43.888687  -31.731041  0
-8.795013  -44.138687  -31.731041  0
-8.545013  -44.388687  -31.731041  0
-9.045013  -44.138687  -31.481041  0
-9.545013  -44.138687  -31.481041  0
-11.545013  -44.388687  -31.731041  0
-12.295013  -44.138687  -31.731041  0
-12.045013  -44.388687  -31.731041  0
-8.295013  -44.638687  -31.731041  0
-8.545013  -44.638687  -31.481041  0
-9.045013  -44.638687  -31.481041  0
-9.545013  -44.638687  -31.481041  0
-11.295013  -44.638687  -31.731041  0
-11.045013  -44.888687  -31.731041  0
-8.295013  -45.138687  -31.731041  0
-8.545013  -45.138687  -31.481041  0
-9.045013  -45.138687  -31.481041  0
-10.795013  -45.138687  -31.731041  0
-10.545013  -45.138687  -31.481041  0
-8.295013  -45.638687  -31.731041  0
-8.545013  -45.638687  -31.481041  0
-9.045013  -45.638687  -31.481041  0
-10.045013  -45.888687  -31.731041  0
-10.795013  -45.638687  -31.731041  0
-10.545013  -45.888687  -31.731041  0
-8.295013  -46.138687  -31.731041  0
-8.545013  -46.138687  -31.481041  0
-9.045013  -46.138687  -31.481041  0
-9.795013  -46.138687  -31.731041  0
-9.545013  -46.388687  -31.731041  0
-9.545013  -46.138687  -31.481041  0
-8.295013  -46.638687  -31.731041  0
-8.545013  -46.888687  -31.731041  0
-8.545013  -46.638687  -31.481041  0
-9.295013  -46.638687  -31.731041  0
-9.045013  -46.638687  -31.481041  0
-9.545013  -46.888687  -31.731041  0
-10.045013  -46.888687  -31.731041  0
-8.795013  -47.138687  -31.731041  0
-9.045013  -47.388687  -31.731041  0
-9.045013  -47.138687  -31.481041  0
-9.545013  -47.388687  -31.731041  0
-9.545013  -47.138687  -31.481041  0
-10.295013  -47.138687  -31.731041  0
-10.045013  -47.388687  -31.731041  0
-10.045013  -47.138687  -31.481041  0
-11.045013  -43.388687  -31.231041  0
-10.045013  -43.888687  -31.231041  0
-10.795013  -43.638687  -31.231041  0
-10.545013  -43.888687  -31.231041  0
-11.295013  -43.638687  -31.231041  0
-11.045013  -43.638687  -30.981041  0
-11.545013  -43.888687  -31.231041  0
-12.045013  -43.888687  -31.231041  0
-9.795013  -44.138687  -31.231041  0
-10.045013  -44.138687  -30.981041  0
-10.545013  -44.138687  -30.981041  0
-11.545013  -44.388687  -31.231041  0
-12.295013  -44.138687  -31.231041  0
-12.045013  -44.388687  -31.231041  0
-9.795013  -44.638687  -31.231041  0
-9.545013  -44.888687  -31.231041  0
-10.045013  -44.638687  -30.981041  0
-10.545013  -44.888687  -31.231041  0
-10.545013  -44.638687  -30.981041  0
-11.295013  -44.638687  -31.231041  0
-11.045013  -44.888687  -31.231041  0
-11.045013  -44.638687  -30.981041  0
-9.295013  -45.138687  -31.231041  0
-9.545013  -45.138687  -30.981041  0
-10.295013  -45.138687  -31.231041  0
-10.045013  -45.138687  -30.981041  0
-10.545013  -45.388687  -31.231041  0
-9.295013  -45.638687  -31.231041  0
-9.545013  -45.888687  -31.231041  0
-9.545013  -45.638687  -30.981041  0
-10.045013  -45.888687  -31.231041  0
-10.045013  -45.638687  -30.981041  0
-10.795013  -45.638687  -31.231041  0
-10.545013  -45.888687  -31.231041  0
-10.545013  -45.638687  -30.981041  0
-11.045013  -43.888687  -30.731041  0
-11.545013  -43.888687  -30.731041  0
-12.045013  -43.888687  -30.731041  0
-10.795013  -44.138687  -30.731041  0
-11.045013  -44.388687  -30.731041  0
-11.045013  -44.138687  -30.481041  0
-11.545013  -44.388687  -30.731041  0
-11.545013  -44.138687  -30.481041  0
-12.295013  -44.138687  -30.731041  0
-12.045013  -44.388687  -30.731041  0
-12.045013  -44.138687  -30.481041  0
32 40 0 0
1 34 0 0
0 34 32 0
2 36 1 0
1 36 34 0
2 43 36 0
41 46 3 0
41 3 40 0
3 0 40 0
3 4 0 0
0 5 1 0
0 4 5 0
1 6 2 0
1 5 6 0
43 2 49 0
49 2 6 0
47 52 7 0
47 7 46 0
7 3 46 0
7 8 3 0
3 9 4 0
3 8 9 0
4 10 5 0
4 9 10 0
50 6 53 0
6 10 53 0
6 5 10 0
6 50 49 0
7 52 11 0
11 52 56 0
7 12 8 0
7 11 12 0
8 13 9 0
8 12 13 0
9 14 10 0
9 13 14 0
53 10 58 0
58 10 14 0
57 61 15 0
57 15 56 0
15 11 56 0
15 16 11 0
11 17 12 0
11 16 17 0
12 18 13 0
12 17 18 0
59 14 63 0
14 18 63 0
14 13 18 0
14 59 58 0
15 61 19 0
19 61 65 0
15 20 16 0
15 19 20 0
16 21 17 0
16 20 21 0
17 22 18 0
17 21 22 0
63 18 66 0
66 18 22 0
19 65 23 0
23 65 69 0
19 24 20 0
19 23 24 0
20 25 21 0
20 24 25 0
67 22 70 0
22 25 70 0
22 21 25 0
22 67 66 0
23 69 26 0
26 69 74 0
23 27 24 0
23 26 27 0
71 25 76 0
25 27 76 0
25 24 27 0
25 71 70 0
74 75 26 0
26 75 27 0
27 75 77 0
27 77 76 0
80 87 28 0
29 81 28 0
28 81 80 0
30 83 29 0
29 83 81 0
31 85 30 0
30 85 83 0
31 89 85 0
88 90 33 0
88 33 87 0
33 28 87 0
33 35 28 0
28 37 29 0
28 35 37 0
29 38 30 0
29 37 38 0
30 39 31 0
30 38 39 0
89 31 92 0
92 31 39 0
91 93 42 0
91 42 90 0
90 42 33 0
42 40 33 0
40 32 33 0
33 32 34 0
33 34 35 0
35 34 36 0
35 36 37 0
37 36 43 0
44 37 43 0
38 37 44 0
38 45 39 0
38 44 45 0
92 39 95 0
95 39 45 0
94 97 48 0
94 48 93 0
93 48 42 0
48 46 42 0
46 41 42 0
42 41 40 0
49 51 44 0
49 44 43 0
96 45 98 0
45 51 98 0
45 44 51 0
45 96 95 0
48 97 47 0
97 52 47 0
97 100 52 0
48 47 46 0
53 54 50 0
51 49 50 0
54 51 50 0
55 51 54 0
98 51 101 0
101 51 55 0
100 56 52 0
104 56 100 0
58 60 54 0
58 54 53 0
102 55 106 0
55 60 106 0
55 54 60 0
55 102 101 0
62 61 57 0
110 62 57 0
56 110 57 0
104 110 56 0
63 64 59 0
64 112 59 0
59 112 58 0
112 107 58 0
107 60 58 0
60 107 106 0
111 115 62 0
115 61 62 0
115 65 61 0
111 62 110 0
66 68 64 0
66 64 63 0
112 64 117 0
117 64 68 0
115 69 65 0
119 69 115 0
70 72 67 0
68 66 67 0
72 68 67 0
73 68 72 0
117 68 120 0
120 68 73 0
119 74 69 0
123 74 119 0
76 78 71 0
72 70 71 0
78 72 71 0
79 72 78 0
121 73 128 0
73 79 128 0
73 72 79 0
73 121 120 0
123 124 74 0
74 124 75 0
75 126 77 0
124 126 75 0
76 77 78 0
77 127 78 0
77 126 127 0
78 127 79 0
79 127 129 0
79 129 128 0
131 134 82 0
84 132 82 0
82 132 131 0
86 133 84 0
84 133 132 0
86 136 133 0
135 139 80 0
80 139 87 0
81 82 134 0
135 81 134 0
80 81 135 0
82 81 83 0
82 83 84 0
84 83 85 0
84 85 86 0
85 89 86 0
89 136 86 0
89 142 136 0
140 145 88 0
88 145 90 0
88 87 139 0
88 139 140 0
92 142 89 0
92 147 142 0
146 150 91 0
91 150 93 0
91 90 145 0
91 145 146 0
95 147 92 0
95 153 147 0
151 156 94 0
94 156 97 0
94 93 150 0
94 150 151 0
98 99 96 0
99 158 96 0
158 95 96 0
158 153 95 0
156 100 97 0
161 100 156 0
101 103 99 0
101 99 98 0
158 99 164 0
164 99 103 0
105 104 162 0
104 161 162 0
104 100 161 0
166 105 162 0
106 108 102 0
103 101 102 0
108 103 102 0
109 103 108 0
164 103 168 0
168 103 109 0
167 170 105 0
170 104 105 0
170 110 104 0
167 105 166 0
112 113 107 0
108 106 107 0
113 108 107 0
114 108 113 0
169 109 172 0
109 114 172 0
109 108 114 0
109 169 168 0
116 115 111 0
175 116 111 0
110 175 111 0
170 175 110 0
117 118 113 0
117 113 112 0
173 114 178 0
114 118 178 0
114 113 118 0
114 173 172 0
176 180 116 0
180 115 116 0
180 119 115 0
176 116 175 0
120 122 118 0
120 118 117 0
178 118 184 0
184 118 122 0
125 123 181 0
123 180 181 0
123 119 180 0
187 125 181 0
190 183 121 0
190 121 128 0
120 121 122 0
121 185 122 0
121 183 185 0
122 185 184 0
125 124 123 0
187 188 125 0
188 124 125 0
188 126 124 0
126 189 127 0
188 189 126 0
189 192 130 0
129 189 130 0
127 189 129 0
130 193 129 0
193 128 129 0
193 190 128 0
192 194 130 0
130 194 193 0
197 202 131 0
131 202 134 0
198 131 132 0
198 197 131 0
199 132 133 0
199 198 132 0
137 200 136 0
200 133 136 0
200 199 133 0
138 201 137 0
137 201 200 0
138 204 201 0
141 139 135 0
206 141 135 0
134 206 135 0
202 206 134 0
142 143 137 0
142 137 136 0
137 144 138 0
137 143 144 0
204 138 209 0
209 138 144 0
205 210 140 0
140 210 145 0
140 139 141 0
207 140 141 0
205 140 207 0
207 141 206 0
147 148 143 0
147 143 142 0
143 149 144 0
143 148 149 0
209 144 213 0
213 144 149 0
152 150 146 0
214 152 146 0
145 214 146 0
210 214 145 0
153 154 148 0
153 148 147 0
148 155 149 0
148 154 155 0
213 149 217 0
217 149 155 0
157 156 151 0
218 157 151 0
218 151 150 0
215 218 150 0
152 215 150 0
215 152 214 0
158 159 154 0
158 154 153 0
154 160 155 0
154 159 160 0
217 155 220 0
220 155 160 0
163 161 157 0
157 161 156 0
157 218 222 0
157 222 163 0
164 165 159 0
164 159 158 0
221 160 224 0
160 165 224 0
160 159 165 0
160 221 220 0
163 162 161 0
166 162 163 0
222 166 163 0
227 166 222 0
229 225 165 0
164 229 165 0
168 229 164 0
165 225 224 0
171 170 167 0
232 171 167 0
166 232 167 0
227 232 166 0
172 174 169 0
174 234 169 0
234 168 169 0
234 229 168 0
177 175 171 0
171 175 170 0
171 232 238 0
171 238 177 0
178 179 173 0
179 240 173 0
173 240 172 0
240 235 172 0
235 174 172 0
174 235 234 0
182 180 176 0
243 182 176 0
243 176 175 0
239 243 175 0
177 239 175 0
239 177 238 0
184 186 179 0
184 179 178 0
240 179 246 0
246 179 186 0
182 181 180 0
187 181 182 0
243 187 182 0
249 187 243 0
190 191 183 0
183 191 254 0
245 183 254 0
185 183 245 0
184 185 186 0
185 247 186 0
185 245 247 0
186 247 246 0
249 250 187 0
187 250 188 0
188 252 189 0
250 252 188 0
253 195 192 0
189 253 192 0
252 253 189 0
190 195 193 0
253 190 195 0
191 253 190 0
258 191 253 0
196 258 191 0
254 191 259 0
259 191 196 0
195 194 192 0
194 258 195 0
194 260 258 0
194 193 196 0
260 194 196 0
196 260 259 0
203 202 197 0
203 197 267 0
197 261 267 0
197 198 261 0
262 198 199 0
262 261 198 0
263 199 200 0
263 262 199 0
265 200 201 0
265 263 200 0
201 204 265 0
265 204 269 0
208 206 203 0
203 206 202 0
203 267 271 0
203 271 208 0
209 269 204 0
209 273 269 0
211 210 205 0
207 212 205 0
205 212 211 0
276 212 207 0
276 207 206 0
272 276 206 0
208 272 206 0
272 208 271 0
213 273 209 0
213 278 273 0
216 214 211 0
211 214 210 0
212 277 281 0
216 212 281 0
211 212 216 0
277 212 276 0
217 278 213 0
217 284 278 0
219 218 215 0
287 219 215 0
287 215 214 0
282 287 214 0
216 282 214 0
282 216 281 0
220 284 217 0
220 289 284 0
223 222 219 0
219 222 218 0
219 287 292 0
219 292 223 0
224 226 221 0
226 294 221 0
294 220 221 0
294 289 220 0
228 227 223 0
223 227 222 0
223 292 296 0
223 296 228 0
229 230 225 0
226 224 225 0
230 226 225 0
231 226 230 0
294 226 297 0
297 226 231 0
233 232 228 0
228 232 227 0
228 296 299 0
228 299 233 0
234 236 230 0
234 230 229 0
230 237 231 0
230 236 237 0
297 231 301 0
301 231 237 0
300 304 233 0
304 232 233 0
304 238 232 0
300 233 299 0
240 241 235 0
236 234 235 0
241 236 235 0
242 236 241 0
302 237 306 0
237 242 306 0
237 236 242 0
237 302 301 0
244 243 239 0
309 244 239 0
238 309 239 0
304 309 238 0
246 248 241 0
246 241 240 0
307 242 311 0
242 248 311 0
242 241 248 0
242 307 306 0
251 249 244 0
244 249 243 0
244 309 314 0
244 314 251 0
254 255 245 0
256 247 245 0
256 245 255 0
248 246 247 0
256 248 247 0
257 248 256 0
311 248 321 0
321 248 257 0
251 250 249 0
314 315 251 0
315 250 251 0
315 252 250 0
252 317 253 0
315 317 252 0
258 253 317 0
258 317 324 0
325 319 255 0
254 325 255 0
259 325 254 0
255 319 256 0
256 319 320 0
256 320 257 0
257 320 322 0
257 322 321 0
324 326 258 0
258 326 260 0
259 260 325 0
325 260 326 0
330 332 264 0
266 331 264 0
264 331 330 0
266 334 331 0
268 267 261 0
268 261 336 0
261 333 336 0
261 262 333 0
263 264 332 0
333 263 332 0
262 263 333 0
264 263 265 0
264 265 266 0
270 335 269 0
269 335 265 0
335 334 265 0
334 266 265 0
270 338 335 0
337 342 268 0
342 267 268 0
342 271 267 0
337 268 336 0
273 274 270 0
273 270 269 0
338 270 339 0
270 275 339 0
270 274 275 0
275 345 339 0
343 347 272 0
272 347 276 0
272 271 342 0
272 342 343 0
278 279 274 0
278 274 273 0
274 280 275 0
274 279 280 0
345 275 349 0
349 275 280 0
283 281 277 0
351 283 277 0
276 351 277 0
347 351 276 0
284 285 279 0
284 279 278 0
279 286 280 0
279 285 286 0
349 280 353 0
353 280 286 0
288 287 282 0
356 288 282 0
356 282 281 0
352 356 281 0
283 352 281 0
352 283 351 0
289 290 285 0
289 285 284 0
285 291 286 0
285 290 291 0
353 286 357 0
357 286 291 0
293 292 288 0
288 292 287 0
288 356 360 0
288 360 293 0
294 295 290 0
294 290 289 0
358 291 363 0
291 295 363 0
291 290 295 0
291 358 357 0
361 365 293 0
365 292 293 0
365 296 292 0
361 293 360 0
297 298 295 0
297 295 294 0
363 295 367 0
367 295 298 0
365 299 296 0
368 299 365 0
301 303 298 0
301 298 297 0
367 298 370 0
370 298 303 0
305 304 300 0
372 305 300 0
299 372 300 0
368 372 299 0
306 308 302 0
308 374 302 0
302 374 301 0
374 371 301 0
371 303 301 0
303 371 370 0
310 309 305 0
305 309 304 0
305 372 376 0
305 376 310 0
311 312 307 0
308 306 307 0
312 308 307 0
313 308 312 0
374 308 379 0
379 308 313 0
316 314 310 0
310 314 309 0
310 376 377 0
318 310 377 0
316 310 318 0
381 318 377 0
321 323 312 0
321 312 311 0
380 313 383 0
313 323 383 0
313 312 323 0
313 380 379 0
316 315 314 0
315 316 317 0
317 316 318 0
324 317 318 0
381 324 318 0
386 324 381 0
325 327 319 0
328 320 319 0
328 319 327 0
329 322 320 0
329 320 328 0
329 391 322 0
322 391 321 0
391 384 321 0
384 323 321 0
323 384 383 0
386 387 324 0
324 387 326 0
325 326 327 0
326 389 327 0
326 387 389 0
327 389 328 0
328 389 390 0
328 390 329 0
329 390 392 0
329 392 391 0
394 396 330 0
330 396 332 0
395 330 331 0
395 394 330 0
331 334 395 0
395 334 399 0
397 405 333 0
333 405 336 0
333 332 396 0
333 396 397 0
400 399 334 0
400 334 335 0
340 402 338 0
402 335 338 0
402 400 335 0
341 404 340 0
340 404 402 0
341 407 404 0
344 342 337 0
408 344 337 0
336 408 337 0
405 408 336 0
339 340 338 0
340 339 345 0
346 340 345 0
341 340 346 0
407 341 411 0
411 341 346 0
348 347 343 0
413 348 343 0
413 343 342 0
409 413 342 0
344 409 342 0
409 344 408 0
349 350 346 0
349 346 345 0
411 346 415 0
415 346 350 0
414 418 348 0
418 347 348 0
418 351 347 0
414 348 413 0
353 354 350 0
353 350 349 0
415 350 416 0
350 355 416 0
350 354 355 0
355 421 416 0
419 423 352 0
352 423 356 0
352 351 418 0
352 418 419 0
357 359 354 0
357 354 353 0
422 355 427 0
355 359 427 0
355 354 359 0
355 422 421 0
362 360 424 0
360 423 424 0
360 356 423 0
429 362 424 0
363 364 358 0
364 432 358 0
358 432 357 0
432 428 357 0
428 359 357 0
359 428 427 0
366 365 361 0
434 366 361 0
434 361 360 0
430 434 360 0
362 430 360 0
430 362 429 0
436 433 364 0
363 436 364 0
367 436 363 0
364 433 432 0
369 368 366 0
366 368 365 0
366 434 438 0
366 438 369 0
370 436 367 0
370 440 436 0
373 372 369 0
369 372 368 0
369 438 441 0
369 441 373 0
374 375 371 0
375 443 371 0
443 370 371 0
443 440 370 0
378 376 373 0
373 376 372 0
373 441 445 0
373 445 378 0
449 444 375 0
374 449 375 0
379 449 374 0
375 444 443 0
378 377 376 0
446 382 381 0
446 381 377 0
445 446 377 0
378 445 377 0
451 382 446 0
383 385 380 0
385 453 380 0
453 379 380 0
453 449 379 0
388 386 382 0
382 386 381 0
382 451 456 0
382 456 388 0
391 393 384 0
393 463 384 0
384 463 383 0
463 454 383 0
454 385 383 0
385 454 453 0
388 387 386 0
456 457 388 0
457 387 388 0
457 389 387 0
389 459 390 0
457 459 389 0
390 461 392 0
459 461 390 0
391 392 393 0
392 464 393 0
392 461 464 0
393 464 463 0
398 396 394 0
398 394 469 0
394 466 469 0
394 395 466 0
401 467 399 0
467 395 399 0
467 466 395 0
403 468 401 0
401 468 467 0
403 473 468 0
406 405 397 0
476 406 397 0
476 397 396 0
470 476 396 0
398 470 396 0
470 398 469 0
400 401 399 0
401 400 402 0
401 402 403 0
475 473 403 0
402 475 403 0
404 475 402 0
404 407 475 0
475 407 479 0
410 408 406 0
406 408 405 0
406 476 482 0
406 482 410 0
411 412 480 0
479 411 480 0
407 411 479 0
412 485 480 0
481 486 409 0
409 486 413 0
409 408 410 0
483 409 410 0
481 409 483 0
483 410 482 0
415 417 412 0
415 412 411 0
485 412 489 0
489 412 417 0
420 418 414 0
490 420 414 0
413 490 414 0
486 490 413 0
416 417 415 0
416 421 417 0
421 489 417 0
421 493 489 0
425 423 419 0
418 420 419 0
420 425 419 0
420 426 425 0
420 490 496 0
420 496 426 0
498 494 422 0
498 422 427 0
421 422 493 0
493 422 494 0
425 424 423 0
424 425 429 0
425 431 429 0
425 426 431 0
426 496 500 0
426 500 431 0
503 499 428 0
503 428 432 0
427 428 498 0
498 428 499 0
435 434 430 0
504 435 430 0
504 430 429 0
501 504 429 0
431 501 429 0
501 431 500 0
436 437 433 0
437 507 433 0
507 432 433 0
507 503 432 0
439 438 435 0
435 438 434 0
435 504 509 0
435 509 439 0
512 508 437 0
436 512 437 0
440 512 436 0
437 508 507 0
442 441 439 0
439 441 438 0
439 509 514 0
439 514 442 0
443 512 440 0
443 519 512 0
447 445 442 0
442 445 441 0
442 514 515 0
448 442 515 0
447 442 448 0
521 448 515 0
449 450 444 0
450 525 444 0
525 443 444 0
525 519 443 0
447 446 445 0
446 447 451 0
447 452 451 0
447 448 452 0
448 521 527 0
448 527 452 0
532 524 455 0
524 526 450 0
453 524 450 0
449 453 450 0
455 524 453 0
450 526 525 0
458 456 452 0
452 456 451 0
452 527 528 0
460 452 528 0
458 452 460 0
530 462 460 0
530 460 528 0
533 465 462 0
533 462 530 0
465 533 532 0
465 532 455 0
463 465 455 0
454 463 455 0
454 455 453 0
458 457 456 0
457 458 459 0
459 458 460 0
459 460 461 0
461 460 462 0
461 462 464 0
464 462 465 0
464 465 463 0
471 469 466 0
467 472 466 0
466 472 471 0
468 474 467 0
467 474 472 0
473 474 468 0
477 476 470 0
469 471 470 0
471 477 470 0
471 478 477 0
472 535 538 0
478 472 538 0
471 472 478 0
535 472 474 0
535 474 536 0
536 474 473 0
475 536 473 0
537 536 475 0
475 479 537 0
537 479 542 0
484 482 477 0
477 482 476 0
478 539 545 0
484 478 545 0
477 478 484 0
539 478 538 0
544 542 479 0
544 479 480 0
480 485 544 0
544 485 551 0
487 486 481 0
483 488 481 0
481 488 487 0
553 488 483 0
553 483 482 0
546 553 482 0
484 546 482 0
546 484 545 0
489 551 485 0
489 558 551 0
491 490 487 0
487 490 486 0
492 487 488 0
491 487 492 0
488 553 561 0
488 561 492 0
493 495 560 0
558 493 560 0
489 493 558 0
495 566 560 0
497 496 491 0
491 496 490 0
492 562 568 0
497 492 568 0
491 492 497 0
562 492 561 0
572 565 494 0
572 494 498 0
493 494 495 0
494 567 495 0
494 565 567 0
495 567 566 0
502 500 497 0
497 500 496 0
497 568 574 0
497 574 502 0
577 573 499 0
577 499 503 0
498 499 572 0
572 499 573 0
505 504 501 0
500 502 501 0
502 505 501 0
502 506 505 0
502 574 579 0
502 579 506 0
507 577 503 0
507 583 577 0
510 509 505 0
505 509 504 0
511 505 506 0
510 505 511 0
506 579 585 0
506 585 511 0
588 582 513 0
508 512 513 0
582 508 513 0
584 508 582 0
507 508 583 0
583 508 584 0
516 514 510 0
510 514 509 0
517 510 511 0
516 510 517 0
511 585 591 0
511 591 517 0
594 589 518 0
518 589 588 0
513 518 588 0
520 518 513 0
519 520 512 0
512 520 513 0
516 515 514 0
515 516 521 0
516 522 521 0
516 517 522 0
517 591 592 0
523 517 592 0
522 517 523 0
598 523 592 0
596 594 518 0
596 518 520 0
596 520 597 0
520 519 597 0
519 603 597 0
519 525 603 0
529 527 522 0
522 527 521 0
531 522 523 0
529 522 531 0
523 598 599 0
534 523 599 0
531 523 534 0
524 532 534 0
599 524 534 0
601 524 599 0
524 604 526 0
601 604 524 0
525 526 603 0
603 526 604 0
529 528 527 0
528 529 530 0
530 529 531 0
530 531 533 0
533 531 534 0
533 534 532 0
540 538 535 0
536 541 535 0
535 541 540 0
537 543 536 0
536 543 541 0
542 543 537 0
547 545 539 0
538 540 539 0
540 547 539 0
540 548 547 0
549 540 541 0
548 540 549 0
550 541 543 0
549 541 550 0
544 552 542 0
552 543 542 0
552 550 543 0
551 552 544 0
554 553 546 0
545 547 546 0
547 554 546 0
547 555 554 0
556 547 548 0
555 547 556 0
557 548 549 0
556 548 557 0
550 606 608 0
557 550 608 0
549 550 557 0
559 610 606 0
550 559 606 0
552 559 550 0
558 559 551 0
551 559 552 0
563 561 554 0
554 561 553 0
564 554 555 0
563 554 564 0
556 607 614 0
564 556 614 0
555 556 564 0
607 556 557 0
607 557 609 0
609 557 608 0
612 610 559 0
612 559 558 0
560 612 558 0
613 612 560 0
560 566 613 0
613 566 618 0
569 568 562 0
561 563 562 0
563 569 562 0
563 570 569 0
571 563 564 0
570 563 571 0
564 614 620 0
564 620 571 0
625 617 565 0
625 565 572 0
565 619 567 0
617 619 565 0
566 567 618 0
618 567 619 0
575 574 569 0
569 574 568 0
576 569 570 0
575 569 576 0
571 621 628 0
576 571 628 0
570 571 576 0
621 571 620 0
630 623 578 0
573 577 578 0
623 573 578 0
626 573 623 0
572 573 625 0
625 573 626 0
580 579 575 0
575 579 574 0
581 575 576 0
580 575 581 0
576 628 633 0
576 633 581 0
632 630 578 0
578 577 632 0
577 638 632 0
577 583 638 0
586 585 580 0
580 585 579 0
587 580 581 0
586 580 587 0
581 633 634 0
590 581 634 0
587 581 590 0
582 588 590 0
634 582 590 0
636 582 634 0
582 639 584 0
636 639 582 0
583 584 638 0
638 584 639 0
593 591 586 0
586 591 585 0
595 586 587 0
593 586 595 0
594 595 589 0
595 590 589 0
595 587 590 0
589 590 588 0
593 592 591 0
592 593 598 0
593 600 598 0
593 595 600 0
596 602 594 0
602 595 594 0
602 600 595 0
597 605 596 0
596 605 602 0
603 605 597 0
600 599 598 0
599 600 601 0
601 600 602 0
601 602 604 0
604 602 605 0
604 605 603 0
611 608 606 0
610 611 606 0
615 614 607 0
609 616 607 0
607 616 615 0
644 616 609 0
644 609 608 0
641 644 608 0
611 641 608 0
641 611 610 0
612 641 610 0
642 641 612 0
643 612 613 0
643 642 612 0
613 618 643 0
643 618 649 0
622 620 615 0
615 620 614 0
624 615 616 0
622 615 624 0
616 644 645 0
627 616 645 0
624 616 627 0
617 625 627 0
645 617 627 0
647 617 645 0
617 650 619 0
647 650 617 0
618 619 649 0
649 619 650 0
629 628 621 0
620 622 621 0
622 629 621 0
622 631 629 0
630 631 623 0
631 624 623 0
631 622 624 0
623 624 626 0
626 624 627 0
626 627 625 0
635 633 629 0
629 633 628 0
637 629 631 0
635 629 637 0
632 640 630 0
640 631 630 0
640 637 631 0
638 640 632 0
635 634 633 0
634 635 636 0
636 635 637 0
636 637 639 0
639 637 640 0
639 640 638 0
646 644 641 0
642 648 641 0
641 648 646 0
643 651 642 0
642 651 648 0
649 651 643 0
646 645 644 0
645 646 647 0
647 646 648 0
647 648 650 0
650 648 651 0
650 651 649 0
