#!ascii version in FreeSurfer format (SUMA)
800 1600
7.397889  -47.127022  -36.599293  0
9.435444  -47.619125  -36.413734  0
9.035026  -47.686913  -36.516422  0
8.544617  -47.737335  -36.540535  0
8.111536  -47.695351  -36.494076  0
10.707601  -43.161282  -35.854702  0
10.276320  -43.188534  -35.910168  0
9.756853  -43.221119  -35.891514  0
10.602695  -43.577732  -35.956139  0
10.059139  -43.955772  -36.260456  0
10.024197  -43.600365  -36.093784  0
9.614792  -43.847065  -36.264477  0
9.381554  -43.521385  -36.014145  0
8.989892  -43.829815  -36.140274  0
9.016589  -43.594898  -35.933109  0
10.870339  -44.021698  -35.906361  0
10.263366  -44.219421  -36.298397  0
10.538377  -44.435047  -36.221901  0
10.470985  -44.042690  -36.119781  0
8.619058  -44.032230  -36.221798  0
8.530476  -44.277496  -36.464710  0
8.380496  -44.153301  -36.102535  0
10.676722  -44.824684  -36.239792  0
10.924665  -44.568249  -36.009888  0
8.162829  -44.451508  -36.137878  0
7.931538  -44.794868  -36.403622  0
11.280006  -45.117882  -35.906155  0
10.733306  -45.298885  -36.265457  0
10.954458  -45.065876  -36.103039  0
7.635645  -45.069881  -36.110031  0
7.414466  -45.353539  -36.363941  0
11.380739  -45.608124  -35.863110  0
10.713294  -45.807034  -36.248093  0
11.035645  -45.506123  -36.072910  0
7.217143  -45.650269  -36.171791  0
10.628647  -46.226082  -36.223351  0
11.017886  -46.088127  -35.992561  0
10.397285  -46.476654  -36.321621  0
7.057588  -46.087265  -36.328125  0
10.920857  -46.600601  -35.889751  0
10.284469  -46.821934  -36.291992  0
10.625753  -46.553726  -36.125164  0
7.114583  -46.520054  -36.164818  0
10.199791  -47.157944  -36.193947  0
10.584833  -46.959309  -35.978485  0
9.850436  -47.431213  -36.276016  0
7.267334  -46.938499  -36.338272  0
7.460819  -47.253609  -36.417492  0
7.452061  -47.223232  -35.973164  0
9.620695  -47.713917  -36.128826  0
9.262692  -47.815063  -36.238316  0
8.846539  -47.958973  -36.134968  0
8.371455  -47.881954  -36.244915  0
7.732050  -47.507168  -36.361404  0
8.048345  -47.782013  -36.109955  0
7.749559  -47.557793  -35.903442  0
9.026515  -48.136917  -35.831703  0
10.804757  -42.938259  -35.746895  0
10.883327  -42.718178  -35.506001  0
10.513089  -42.875755  -35.744289  0
10.324492  -42.596416  -35.502865  0
9.962934  -42.850273  -35.638206  0
10.017028  -42.593117  -35.447731  0
11.772953  -43.185688  -35.363194  0
10.996964  -43.116104  -35.711971  0
11.359893  -43.059189  -35.496651  0
10.898547  -43.406857  -35.824825  0
9.563983  -43.048981  -35.665047  0
9.328344  -43.267216  -35.743568  0
9.295179  -43.117249  -35.481689  0
9.067060  -43.460365  -35.784382  0
11.866451  -43.629650  -35.397923  0
11.552900  -43.468090  -35.515663  0
10.932734  -43.693104  -35.827641  0
11.130343  -43.909840  -35.751587  0
11.198544  -43.517475  -35.681110  0
8.770776  -43.667698  -35.685894  0
8.532944  -43.945656  -35.898796  0
11.920697  -44.141544  -35.421803  0
11.222219  -44.297905  -35.773453  0
11.501952  -43.942284  -35.594219  0
8.265726  -44.197598  -35.733967  0
11.997705  -44.572353  -35.410313  0
11.330024  -44.711311  -35.802517  0
11.568932  -44.957806  -35.714523  0
11.636333  -44.536320  -35.606197  0
8.058187  -44.534637  -35.572701  0
7.866539  -44.792477  -35.863869  0
11.633043  -45.322788  -35.715263  0
11.897373  -45.012363  -35.501484  0
7.624568  -45.192860  -35.538448  0
7.389750  -45.400162  -35.871544  0
11.639039  -45.610329  -35.708103  0
11.891459  -45.528915  -35.493294  0
11.554086  -45.917522  -35.668060  0
7.212342  -45.830475  -35.713108  0
7.395298  -45.538189  -35.463188  0
11.260622  -46.354774  -35.733913  0
11.596680  -46.229351  -35.498981  0
7.123980  -46.270664  -35.816864  0
11.127834  -46.622288  -35.723522  0
11.391792  -46.572491  -35.507809  0
11.005987  -46.873585  -35.683552  0
7.229960  -46.706951  -35.742584  0
7.400011  -46.993359  -35.500305  0
10.733688  -47.123219  -35.764950  0
10.962446  -47.167835  -35.531986  0
10.434694  -47.379665  -35.801189  0
9.959232  -47.613705  -35.970692  0
7.582693  -47.309277  -35.630920  0
7.815140  -47.490707  -35.534206  0
10.555595  -47.624374  -35.420872  0
9.773116  -47.768047  -35.896759  0
10.072119  -47.756145  -35.618298  0
9.409546  -47.985241  -35.756985  0
8.032657  -47.733994  -35.745949  0
8.529971  -47.966522  -35.740620  0
9.168049  -48.186230  -35.569855  0
9.396729  -48.167515  -35.369492  0
8.849187  -48.142269  -35.827820  0
9.040398  -48.222343  -35.656002  0
9.014151  -48.197678  -35.562340  0
11.126466  -42.416370  -35.144630  0
10.523738  -42.312138  -35.118301  0
10.337152  -42.107277  -34.794342  0
10.101469  -42.450523  -35.262722  0
11.907668  -42.966084  -35.226498  0
11.933023  -42.702316  -35.030243  0
11.326076  -42.685638  -35.322166  0
11.664370  -42.832699  -35.271473  0
11.530832  -42.554337  -35.130829  0
9.775179  -42.619083  -35.184925  0
9.506345  -42.906292  -35.354446  0
12.111479  -43.234028  -35.185062  0
12.345933  -42.970837  -34.926517  0
9.175344  -43.098022  -35.102718  0
8.995914  -43.362720  -35.404495  0
12.214078  -43.801563  -35.224892  0
12.466455  -43.475964  -34.991203  0
8.649403  -43.689911  -35.084175  0
8.437062  -43.948215  -35.442875  0
12.247403  -44.316750  -35.230652  0
12.513289  -44.023041  -35.006969  0
8.233636  -44.297295  -35.190769  0
8.411336  -44.009266  -35.015686  0
12.238206  -44.798500  -35.239056  0
12.512384  -44.542923  -34.997055  0
8.052506  -44.718662  -35.074173  0
7.873070  -44.895645  -35.359535  0
12.199232  -45.255848  -35.250809  0
12.483797  -45.034710  -34.986843  0
7.760216  -45.259621  -35.080730  0
7.919602  -45.033661  -34.983711  0
12.148470  -45.565140  -35.250881  0
12.398351  -45.511356  -34.983768  0
12.004198  -45.911411  -35.242821  0
7.548946  -45.642883  -35.099499  0
7.332948  -45.832031  -35.283859  0
11.766750  -46.349560  -35.260223  0
12.086535  -46.216015  -34.993202  0
7.262704  -46.264645  -35.366508  0
7.431869  -46.078667  -35.055450  0
11.617362  -46.597637  -35.270229  0
11.892177  -46.555206  -35.004082  0
11.431269  -46.890022  -35.271412  0
7.319881  -46.677891  -35.326126  0
7.424265  -46.850193  -35.244946  0
7.521260  -46.623299  -35.047775  0
11.211119  -47.182243  -35.293369  0
11.454042  -47.177856  -35.019737  0
10.988037  -47.421238  -35.261745  0
7.620943  -47.129185  -35.291164  0
7.860432  -47.380547  -35.277187  0
7.920595  -47.180080  -34.979668  0
10.777689  -47.675125  -35.132591  0
11.034099  -47.613884  -34.919811  0
10.414024  -47.833443  -35.158436  0
9.866146  -48.044319  -35.171768  0
9.149717  -48.109325  -35.310379  0
8.138651  -47.625378  -35.337368  0
8.617002  -47.825020  -35.123283  0
8.300004  -47.529465  -34.922302  0
9.647393  -48.190712  -35.054756  0
9.891590  -48.154682  -34.856823  0
9.265275  -48.221092  -35.332176  0
9.337303  -48.237038  -35.318775  0
9.519736  -48.215363  -35.062611  0
10.520360  -41.978588  -34.567917  0
11.909806  -42.411533  -34.795036  0
11.878919  -42.214455  -34.499104  0
11.525750  -42.311691  -34.861565  0
11.261500  -42.042564  -34.554729  0
10.606698  -42.060711  -34.804955  0
10.967480  -42.144009  -34.857571  0
10.833984  -41.984917  -34.613438  0
10.215639  -42.088806  -34.537266  0
10.041174  -42.320095  -34.853600  0
12.199794  -42.583298  -34.762672  0
12.455095  -42.800117  -34.745129  0
12.474042  -42.591267  -34.479843  0
9.659815  -42.588902  -34.647564  0
9.397622  -42.843464  -34.888306  0
12.644837  -43.134151  -34.712070  0
12.840283  -42.974274  -34.427822  0
9.147271  -43.095566  -34.620094  0
8.919490  -43.363338  -34.838573  0
12.747465  -43.731091  -34.756088  0
12.952686  -43.465374  -34.490829  0
8.748916  -43.623642  -34.594753  0
12.765651  -44.276386  -34.749214  0
13.003791  -44.015583  -34.502411  0
8.549054  -43.945965  -34.592995  0
8.357741  -44.221382  -34.750877  0
12.749512  -44.789127  -34.729095  0
13.006535  -44.541660  -34.487610  0
8.231787  -44.567276  -34.689568  0
12.699306  -45.257847  -34.716873  0
12.974889  -45.045914  -34.470451  0
8.075925  -45.095516  -34.597378  0
7.883242  -45.299370  -34.790455  0
12.626761  -45.566502  -34.716576  0
12.859252  -45.545898  -34.479591  0
12.464458  -45.917759  -34.741077  0
7.783607  -45.646084  -34.770611  0
7.958801  -45.543266  -34.563263  0
12.257921  -46.346878  -34.736332  0
12.544042  -46.232582  -34.507336  0
7.696160  -46.181992  -34.774956  0
7.993625  -46.050045  -34.469475  0
12.125027  -46.589172  -34.740791  0
12.395634  -46.557842  -34.490807  0
11.945355  -46.876522  -34.741261  0
8.255886  -46.540016  -34.318851  0
7.811789  -46.721668  -34.759575  0
8.053782  -47.006493  -34.668106  0
8.013911  -46.614616  -34.544449  0
11.736188  -47.194889  -34.661079  0
12.048910  -47.100140  -34.424416  0
11.385040  -47.431431  -34.745499  0
8.202655  -47.287956  -34.730698  0
8.372329  -47.429146  -34.699093  0
8.400190  -47.144276  -34.479469  0
11.143883  -47.667404  -34.542591  0
10.762308  -47.811752  -34.747936  0
10.268967  -48.006245  -34.747990  0
9.664647  -48.105274  -34.803894  0
8.593704  -47.595936  -34.712967  0
9.073826  -47.846577  -34.690998  0
8.816443  -47.526009  -34.416866  0
10.022333  -48.130543  -34.666691  0
9.775608  -48.200142  -34.824776  0
9.754175  -48.214352  -34.894703  0
9.897485  -48.156216  -34.666214  0
11.891158  -41.991592  -34.035522  0
11.477865  -41.966446  -34.232021  0
10.917260  -41.945236  -34.259560  0
10.439885  -41.987610  -34.351383  0
12.226262  -42.199478  -34.195351  0
12.635582  -42.367134  -34.032833  0
10.987423  -41.999352  -33.887806  0
10.247999  -42.083115  -34.314903  0
10.518751  -42.106236  -34.082081  0
10.024450  -42.344021  -34.307541  0
12.788042  -42.682091  -34.272682  0
12.952719  -42.873039  -34.259632  0
13.026730  -42.727329  -34.037994  0
9.652791  -42.691578  -34.253147  0
9.914681  -42.698383  -33.968609  0
9.384887  -42.876503  -34.431400  0
13.134909  -43.187672  -34.210674  0
13.356174  -43.025200  -33.922768  0
9.919116  -42.958302  -33.764877  0
9.230273  -43.089199  -34.306408  0
9.517289  -43.045433  -34.024704  0
9.051318  -43.383163  -34.276890  0
13.234756  -43.765537  -34.261036  0
13.516873  -43.570854  -33.991577  0
8.773707  -43.772724  -34.250904  0
9.017044  -43.684315  -33.971954  0
13.798055  -44.104782  -33.914028  0
13.261583  -44.287289  -34.273571  0
13.481859  -44.053982  -34.100780  0
8.634675  -44.012985  -34.248337  0
8.825211  -44.019302  -33.961815  0
8.496078  -44.326077  -34.272022  0
13.895701  -44.651299  -33.915108  0
13.268941  -44.791435  -34.258400  0
13.554737  -44.497944  -34.084877  0
8.305860  -44.810169  -34.263969  0
8.512596  -44.669243  -33.983654  0
13.939804  -45.118160  -33.886391  0
13.228481  -45.292286  -34.236736  0
13.579206  -45.006405  -34.064087  0
8.251505  -45.217232  -34.191895  0
8.444884  -45.037678  -33.952297  0
13.118033  -45.701244  -34.225700  0
13.546182  -45.581181  -33.990650  0
12.816464  -45.973022  -34.373032  0
8.176777  -45.671642  -34.272099  0
8.423329  -45.513527  -33.962337  0
13.451267  -46.086185  -33.884350  0
12.758906  -46.330528  -34.276707  0
13.119149  -46.045208  -34.117245  0
8.240485  -46.168415  -34.229259  0
8.379532  -46.415787  -34.161873  0
8.488330  -46.143066  -34.006050  0
12.661202  -46.582245  -34.244583  0
13.030997  -46.494854  -33.993862  0
12.486644  -46.864407  -34.224499  0
8.577463  -46.770798  -34.143551  0
8.800549  -46.587585  -33.875992  0
12.263663  -47.161163  -34.142567  0
12.589203  -47.102566  -33.927639  0
11.843941  -47.361404  -34.249649  0
11.436304  -47.551960  -34.347103  0
8.749623  -47.248306  -34.238876  0
8.931468  -47.433731  -34.213303  0
9.006746  -47.172981  -34.007782  0
11.242896  -47.714767  -34.103424  0
10.909534  -47.822681  -34.221668  0
10.557325  -47.920460  -34.361816  0
10.082743  -47.963234  -34.312801  0
9.793160  -47.686935  -33.938484  0
9.135260  -47.603447  -34.250168  0
9.542465  -47.832909  -34.305527  0
9.413324  -47.522953  -33.980350  0
12.063569  -41.913052  -33.599491  0
11.476542  -41.921898  -33.800495  0
13.061015  -42.421825  -33.674358  0
12.294134  -42.051537  -33.838280  0
12.664083  -42.126171  -33.612453  0
12.414801  -41.962254  -33.501011  0
11.196097  -42.007629  -33.688969  0
11.441686  -42.034908  -33.453297  0
10.917287  -42.238117  -33.635571  0
10.336397  -42.442413  -33.871830  0
13.281138  -42.721794  -33.793797  0
13.462388  -42.883945  -33.752052  0
13.504425  -42.707901  -33.567795  0
10.907796  -42.618843  -33.380695  0
10.211678  -42.778679  -33.702766  0
10.563859  -42.603287  -33.602520  0
13.685833  -43.195507  -33.721626  0
13.900917  -42.987209  -33.433956  0
10.118184  -42.999958  -33.618668  0
10.441330  -42.976021  -33.456898  0
9.878309  -43.270397  -33.596165  0
9.352047  -43.467434  -33.824848  0
13.843289  -43.685711  -33.796043  0
14.005188  -43.926865  -33.757576  0
14.115994  -43.607178  -33.562450  0
9.862170  -43.676849  -33.369717  0
9.196520  -43.831322  -33.703575  0
9.547433  -43.654690  -33.557838  0
14.168509  -44.251499  -33.708401  0
14.448981  -44.009472  -33.431324  0
9.042799  -44.157135  -33.666695  0
9.456012  -44.083351  -33.436771  0
8.751267  -44.405048  -33.832802  0
14.219219  -44.803551  -33.742012  0
14.481368  -44.504719  -33.487015  0
9.366607  -44.634499  -33.371147  0
8.710568  -44.800510  -33.736866  0
9.040101  -44.500763  -33.568268  0
14.198768  -45.117256  -33.749947  0
14.427407  -45.035313  -33.508595  0
14.082064  -45.429604  -33.715656  0
9.320492  -45.127357  -33.352909  0
8.680676  -45.258198  -33.722324  0
8.998530  -44.964378  -33.531193  0
13.806792  -45.842308  -33.744873  0
14.111951  -45.737602  -33.535831  0
9.330670  -45.578049  -33.319435  0
8.711418  -45.781853  -33.736671  0
8.998053  -45.470791  -33.524170  0
13.678935  -46.097721  -33.720169  0
13.909929  -46.065548  -33.498734  0
13.520171  -46.360554  -33.679497  0
8.776831  -46.208035  -33.758636  0
8.926024  -46.416557  -33.701950  0
9.099436  -46.107685  -33.504883  0
13.260760  -46.625309  -33.741871  0
13.453300  -46.677696  -33.500126  0
13.013917  -46.898140  -33.748394  0
9.130079  -46.750042  -33.689362  0
9.409877  -46.629761  -33.407036  0
12.814967  -47.182354  -33.657265  0
13.090439  -47.131069  -33.482147  0
12.398340  -47.332493  -33.787502  0
11.966049  -47.541698  -33.734638  0
11.571067  -47.602844  -33.963764  0
9.859252  -47.511818  -33.693233  0
9.836184  -47.182236  -33.424057  0
9.325809  -47.205200  -33.784664  0
9.624742  -47.390568  -33.721531  0
9.459515  -47.048241  -33.596859  0
12.011805  -47.697655  -33.381664  0
11.357347  -47.759777  -33.719746  0
11.663741  -47.726498  -33.525784  0
11.051941  -47.834141  -33.720573  0
10.101502  -47.655491  -33.740993  0
10.582040  -47.825794  -33.771923  0
10.301574  -47.540878  -33.374142  0
12.465438  -41.914391  -33.177589  0
11.922927  -41.926620  -33.275494  0
13.350368  -42.375172  -33.350422  0
13.392116  -42.200485  -32.978168  0
12.682780  -41.996353  -33.320202  0
13.010475  -42.151340  -33.321465  0
12.903443  -42.003792  -33.086414  0
11.697172  -42.041325  -33.200188  0
11.951109  -42.059132  -32.963795  0
11.448663  -42.316002  -33.172394  0
13.718181  -42.578846  -33.251072  0
13.995858  -42.802109  -33.224903  0
13.992264  -42.608158  -32.933708  0
11.152720  -42.720432  -33.168484  0
11.464526  -42.704411  -32.941406  0
10.849330  -42.920849  -33.263275  0
14.231034  -43.137592  -33.221996  0
14.395689  -43.008595  -32.879978  0
11.388825  -43.074905  -32.827938  0
10.635260  -43.198742  -33.236961  0
11.013483  -43.102211  -33.067631  0
10.258662  -43.405258  -33.313839  0
14.423464  -43.607365  -33.314663  0
14.600158  -43.801872  -33.199883  0
14.539289  -43.429073  -33.064190  0
10.994034  -43.546341  -32.878544  0
10.135554  -43.727032  -33.210445  0
10.530992  -43.582783  -33.103104  0
9.868678  -43.961681  -33.248299  0
14.665498  -44.156193  -33.184456  0
10.518763  -44.072163  -32.936733  0
9.757322  -44.329456  -33.221336  0
10.140574  -44.024078  -33.114910  0
14.682352  -44.626209  -33.154789  0
10.367057  -44.588703  -32.864513  0
9.683609  -44.811813  -33.189381  0
10.069823  -44.475349  -33.046745  0
14.650978  -45.146019  -33.057838  0
14.379522  -45.473465  -33.381264  0
9.613853  -45.276806  -33.169193  0
10.009554  -44.995583  -32.969204  0
14.274162  -45.849159  -33.198135  0
14.526509  -45.562603  -33.063873  0
9.552808  -45.572765  -33.162949  0
9.810607  -45.525169  -32.970600  0
9.487952  -45.887829  -33.161736  0
14.068231  -46.166523  -33.149281  0
13.792315  -46.405354  -33.315578  0
9.380859  -46.254169  -33.264442  0
9.476656  -46.433559  -33.219105  0
9.604562  -46.260124  -33.048977  0
13.677833  -46.768845  -33.067207  0
13.339656  -46.969234  -33.372715  0
9.654788  -46.642960  -33.176231  0
9.914997  -46.877853  -33.071995  0
9.835282  -46.533237  -32.917530  0
13.229355  -47.162636  -33.309296  0
13.404126  -47.135239  -33.072235  0
12.953178  -47.377190  -33.273296  0
12.377202  -47.574150  -33.401978  0
10.164964  -47.205101  -33.080059  0
10.435060  -47.477276  -33.015930  0
13.037355  -47.628769  -32.849609  0
12.248194  -47.763931  -33.127396  0
12.655532  -47.701286  -33.013794  0
11.845149  -47.861233  -33.060120  0
11.335484  -47.858368  -33.245480  0
10.589605  -47.700596  -33.238293  0
10.891655  -47.822861  -33.241333  0
13.342695  -42.054863  -32.624054  0
12.904999  -41.983456  -32.777855  0
12.355265  -41.951553  -32.870068  0
13.656640  -42.254444  -32.600784  0
13.983692  -42.472878  -32.600872  0
13.415200  -42.102989  -32.461491  0
13.110156  -42.078278  -32.446037  0
12.230428  -42.062054  -32.727707  0
12.566386  -42.109909  -32.539143  0
11.988182  -42.348404  -32.703884  0
14.223040  -42.732582  -32.565083  0
14.495016  -43.011013  -32.589584  0
14.031153  -42.563068  -32.427280  0
11.735469  -42.777126  -32.678913  0
12.049513  -42.634258  -32.460049  0
14.624615  -43.310658  -32.731773  0
14.604046  -43.210072  -32.407776  0
11.623085  -43.032482  -32.662449  0
11.885755  -42.976032  -32.439259  0
11.489333  -43.339737  -32.619514  0
14.702495  -43.742199  -32.912334  0
11.173198  -43.716663  -32.696877  0
11.460848  -43.714760  -32.470203  0
10.886360  -43.942387  -32.788891  0
14.763800  -44.155800  -32.784081  0
11.392989  -44.074314  -32.363464  0
10.728239  -44.319431  -32.739578  0
11.094375  -44.050484  -32.609093  0
14.771701  -44.653027  -32.713562  0
10.593085  -44.689602  -32.696301  0
10.990461  -44.551971  -32.476936  0
10.345338  -44.928925  -32.776428  0
14.765884  -45.060162  -32.646793  0
10.857623  -45.095905  -32.374744  0
10.206919  -45.292847  -32.748390  0
10.572715  -45.024925  -32.594067  0
14.674525  -45.471317  -32.677952  0
14.483453  -45.788795  -32.841290  0
10.064425  -45.674267  -32.722301  0
10.465530  -45.553551  -32.481495  0
9.795403  -45.933086  -32.871201  0
14.270050  -46.128075  -32.734936  0
13.986252  -46.434944  -32.904846  0
10.436831  -46.040154  -32.373276  0
9.840885  -46.227810  -32.807163  0
10.023412  -46.425056  -32.694702  0
10.111435  -46.049065  -32.608742  0
13.883304  -46.721588  -32.642143  0
10.144017  -46.849602  -32.786907  0
10.336383  -46.521191  -32.461430  0
13.651536  -47.079025  -32.588669  0
13.326744  -47.410713  -32.765968  0
10.344229  -47.234188  -32.832439  0
10.489679  -47.398052  -32.790913  0
10.510807  -47.172798  -32.545891  0
13.183544  -47.668602  -32.503719  0
12.837240  -47.807316  -32.627235  0
12.320914  -47.881039  -32.724464  0
11.861243  -47.939201  -32.627445  0
11.526113  -47.919724  -32.779995  0
10.687027  -47.602093  -32.831863  0
11.113058  -47.800491  -32.702499  0
10.819442  -47.526569  -32.420280  0
13.358423  -42.297272  -32.284695  0
12.850915  -42.308205  -32.245869  0
12.388479  -42.425648  -32.340080  0
13.783488  -42.453278  -32.347195  0
13.964945  -42.770622  -32.086628  0
13.477879  -42.626938  -32.034336  0
12.994568  -42.595509  -32.038017  0
12.258718  -42.755817  -32.226559  0
12.601391  -42.592724  -32.119083  0
14.381695  -42.991837  -32.231007  0
14.542869  -43.304741  -32.023853  0
13.125723  -42.895863  -31.798851  0
12.144482  -43.009926  -32.197884  0
12.535973  -42.981907  -31.968868  0
11.942602  -43.356026  -32.211952  0
14.707006  -43.618721  -32.421967  0
11.712271  -43.795513  -32.202873  0
12.012553  -43.665314  -31.981747  0
14.703459  -44.132320  -32.226074  0
14.535037  -44.327103  -31.876444  0
11.615343  -44.042103  -32.179264  0
11.849023  -44.009609  -31.971407  0
11.490614  -44.356003  -32.152977  0
14.734011  -44.742065  -32.251801  0
14.572983  -44.688950  -31.864780  0
11.223622  -44.825108  -32.200825  0
11.534394  -44.687904  -31.990599  0
14.765617  -45.198055  -32.357609  0
11.071630  -45.190701  -32.189674  0
11.380406  -45.108646  -31.972414  0
10.832230  -45.429497  -32.273071  0
14.733822  -45.521816  -32.149704  0
14.550090  -45.865974  -32.393181  0
11.354249  -45.535652  -31.835016  0
10.732897  -45.799000  -32.217072  0
11.062429  -45.506012  -32.079277  0
14.323902  -46.292343  -32.079388  0
14.083661  -46.507740  -32.435635  0
10.660956  -46.290173  -32.172939  0
11.041043  -45.982655  -31.934496  0
13.871398  -46.868710  -32.175255  0
14.071152  -46.633713  -32.009350  0
10.663820  -46.842289  -32.196747  0
10.928181  -46.577335  -31.931477  0
13.664382  -47.170746  -32.119640  0
13.426987  -47.427498  -32.258030  0
10.746065  -47.260983  -32.231945  0
10.884875  -47.437626  -32.178352  0
10.987604  -47.186878  -31.987898  0
13.165884  -47.666580  -32.177486  0
12.974454  -47.801331  -32.324516  0
12.843265  -47.725613  -32.028809  0
12.599666  -47.865944  -32.315884  0
12.353988  -47.744431  -31.962698  0
12.089969  -47.890709  -32.298653  0
11.831768  -47.697216  -31.949503  0
11.094971  -47.608772  -32.226231  0
11.541088  -47.836765  -32.334263  0
11.368815  -47.533527  -31.951126  0
13.838077  -43.001163  -31.656345  0
13.544740  -42.899509  -31.750154  0
14.173830  -43.159367  -31.686584  0
14.455414  -43.416183  -31.661060  0
13.862628  -43.141903  -31.471954  0
13.282322  -43.047649  -31.612469  0
13.528286  -43.151447  -31.471569  0
12.953651  -43.286736  -31.575979  0
12.360941  -43.443970  -31.821783  0
14.609608  -43.631351  -31.889992  0
14.447448  -43.868599  -31.664137  0
14.480104  -43.589455  -31.591537  0
12.964996  -43.769585  -31.377058  0
12.215274  -43.810368  -31.747805  0
12.574721  -43.657997  -31.581337  0
14.265176  -44.130192  -31.576439  0
13.896047  -44.197960  -31.407755  0
13.326706  -44.096992  -31.305737  0
12.844759  -44.194279  -31.374714  0
12.081838  -44.135445  -31.725508  0
12.457776  -44.072620  -31.525846  0
11.803761  -44.397400  -31.859802  0
14.303645  -44.450703  -31.637136  0
14.414998  -44.840660  -31.524853  0
14.042221  -44.559731  -31.451462  0
13.595877  -44.499737  -31.329144  0
13.053794  -44.503895  -31.304531  0
12.517294  -44.571213  -31.391829  0
11.754788  -44.806293  -31.763525  0
12.105069  -44.480587  -31.611261  0
14.717753  -45.111546  -31.895607  0
11.651362  -45.238388  -31.695251  0
12.056325  -44.972542  -31.479042  0
14.799600  -45.487690  -31.687250  0
14.906206  -45.604939  -31.345404  0
14.682931  -45.893082  -31.717367  0
11.563874  -45.529819  -31.654966  0
11.812278  -45.492870  -31.448635  0
11.460360  -45.862438  -31.618092  0
14.396199  -46.319607  -31.506453  0
14.625954  -46.105152  -31.295935  0
11.233824  -46.347031  -31.685310  0
11.556931  -46.277893  -31.447796  0
14.128325  -46.598206  -31.640688  0
13.889235  -46.839916  -31.693073  0
11.795586  -46.703991  -31.356771  0
11.187203  -46.823448  -31.714380  0
11.417873  -46.620640  -31.531658  0
13.668455  -47.078766  -31.760191  0
13.488791  -47.301079  -31.876040  0
13.327777  -47.195805  -31.527407  0
13.139763  -47.473141  -31.829657  0
12.844808  -47.218609  -31.427010  0
12.604606  -47.497612  -31.687780  0
12.264321  -47.115993  -31.396912  0
12.078122  -47.468422  -31.664150  0
11.828933  -47.150238  -31.501558  0
11.295528  -47.205456  -31.744892  0
11.623298  -47.374733  -31.691336  0
11.490597  -46.989094  -31.559296  0
13.820205  -43.352650  -31.310505  0
13.365452  -43.458126  -31.289017  0
14.221404  -43.528866  -31.422678  0
14.075300  -43.849483  -31.363308  0
13.887638  -43.610500  -31.212734  0
13.372557  -43.730396  -31.216822  0
13.684384  -43.831676  -31.222675  0
13.617298  -43.577164  -31.168785  0
14.378691  -45.028385  -31.186310  0
13.948402  -44.837513  -31.226210  0
13.325902  -44.821999  -31.161676  0
12.793031  -44.861481  -31.196985  0
12.410472  -44.965931  -31.271688  0
14.702590  -45.295353  -31.265932  0
14.962890  -45.540478  -31.129179  0
14.450643  -45.183014  -31.014111  0
14.130464  -45.126125  -30.935946  0
13.591515  -45.100876  -30.910769  0
12.973332  -45.190544  -30.937969  0
12.208055  -45.299809  -31.223333  0
12.553329  -45.169525  -31.101793  0
15.014386  -45.637249  -31.154802  0
14.844810  -45.818291  -31.160763  0
14.985966  -45.638920  -31.067440  0
12.052748  -45.666634  -31.185669  0
12.473763  -45.596878  -30.940664  0
11.779049  -45.929897  -31.325626  0
14.644083  -46.080399  -31.032862  0
14.406329  -46.282871  -31.051517  0
14.535201  -46.136669  -30.888672  0
12.503831  -46.124744  -30.837505  0
11.823327  -46.278137  -31.254539  0
12.018798  -46.454739  -31.159704  0
12.108873  -46.070683  -31.081141  0
14.119427  -46.550758  -31.208447  0
13.909923  -46.762131  -31.347054  0
13.770411  -46.672283  -30.995399  0
13.580714  -46.926689  -31.304758  0
13.322169  -46.685123  -30.885820  0
13.075607  -46.947655  -31.157867  0
12.794935  -46.547001  -30.865828  0
12.175771  -46.737465  -31.193678  0
12.570017  -46.868988  -31.149315  0
12.332354  -46.480576  -31.022778  0
14.356718  -45.423061  -30.799652  0
13.805392  -45.381165  -30.660517  0
13.280066  -45.397160  -30.662411  0
12.878287  -45.516705  -30.709717  0
14.763636  -45.623993  -30.947208  0
14.628991  -45.944656  -30.861660  0
14.370313  -45.822750  -30.666550  0
13.922962  -45.731998  -30.525709  0
13.428927  -45.682510  -30.491268  0
12.755086  -45.834755  -30.655506  0
13.052325  -45.662655  -30.549145  0
14.349401  -46.137722  -30.751253  0
14.046771  -46.400333  -30.820595  0
13.976769  -46.108681  -30.569115  0
13.619674  -46.412395  -30.660992  0
13.512563  -46.049526  -30.481380  0
12.810328  -46.176357  -30.651112  0
13.156161  -46.334290  -30.616646  0
13.079283  -45.960686  -30.510754  0
9 12 0 0
0 14 9 0
0 12 1 0
1 12 18 0
14 0 21 0
21 0 1 0
19 26 2 0
19 2 18 0
2 1 18 0
2 3 1 0
21 1 22 0
1 4 22 0
1 3 4 0
5 24 4 0
4 24 22 0
5 30 24 0
26 28 2 0
2 28 3 0
3 28 29 0
35 6 29 0
6 3 29 0
6 4 3 0
31 5 37 0
5 6 37 0
5 4 6 0
5 31 30 0
35 38 6 0
6 38 37 0
45 51 7 0
8 47 7 0
7 47 45 0
10 49 8 0
8 49 47 0
10 53 49 0
7 51 11 0
11 51 56 0
7 13 8 0
7 11 13 0
13 12 9 0
10 13 9 0
8 13 10 0
15 54 14 0
14 54 9 0
54 53 9 0
53 10 9 0
15 59 54 0
57 61 16 0
57 16 56 0
16 11 56 0
16 17 11 0
11 20 13 0
11 17 20 0
20 18 12 0
20 12 13 0
21 23 15 0
21 15 14 0
59 15 60 0
15 25 60 0
15 23 25 0
25 64 60 0
61 63 16 0
67 27 63 0
27 16 63 0
27 17 16 0
27 26 19 0
20 27 19 0
17 27 20 0
20 19 18 0
22 23 21 0
23 22 24 0
23 24 25 0
32 65 30 0
30 65 24 0
65 64 24 0
64 25 24 0
32 69 65 0
27 67 33 0
33 67 72 0
34 28 26 0
27 34 26 0
33 34 27 0
36 29 28 0
36 28 34 0
36 35 29 0
37 39 31 0
39 74 31 0
31 74 30 0
74 70 30 0
70 32 30 0
32 70 69 0
33 72 40 0
40 72 76 0
33 41 34 0
33 40 41 0
34 42 36 0
34 41 42 0
43 38 35 0
36 43 35 0
42 43 36 0
43 81 38 0
38 81 37 0
81 75 37 0
75 39 37 0
39 75 74 0
76 78 40 0
40 78 41 0
41 78 79 0
41 79 42 0
42 79 80 0
42 80 43 0
43 80 82 0
43 82 81 0
92 99 44 0
46 94 44 0
44 94 92 0
48 96 46 0
46 96 94 0
48 102 96 0
100 105 50 0
100 50 99 0
50 44 99 0
50 52 44 0
52 51 45 0
46 52 45 0
44 52 46 0
46 45 47 0
46 47 48 0
103 102 48 0
47 103 48 0
49 103 47 0
49 53 103 0
103 53 107 0
50 105 55 0
55 105 110 0
50 58 52 0
50 55 58 0
58 56 51 0
58 51 52 0
108 107 53 0
108 53 54 0
54 59 108 0
108 59 112 0
55 110 62 0
62 110 115 0
62 61 57 0
58 62 57 0
55 62 58 0
58 57 56 0
113 112 59 0
113 59 60 0
60 64 113 0
113 64 117 0
62 115 66 0
66 115 118 0
68 63 61 0
62 68 61 0
66 68 62 0
68 67 63 0
64 65 71 0
121 64 71 0
117 64 121 0
69 71 65 0
118 120 66 0
123 73 120 0
73 66 120 0
73 68 66 0
73 72 67 0
73 67 68 0
121 71 70 0
74 121 70 0
125 121 74 0
70 71 69 0
73 123 77 0
77 123 126 0
77 76 72 0
77 72 73 0
81 83 75 0
83 129 75 0
129 74 75 0
129 125 74 0
126 128 77 0
128 132 84 0
128 84 78 0
77 128 78 0
76 77 78 0
85 79 78 0
85 78 84 0
86 80 79 0
86 79 85 0
87 82 80 0
87 80 86 0
87 136 82 0
82 136 81 0
136 130 81 0
130 83 81 0
83 130 129 0
132 133 84 0
84 133 85 0
85 133 134 0
85 134 86 0
86 134 135 0
86 135 87 0
87 135 137 0
87 137 136 0
140 147 88 0
89 142 88 0
88 142 140 0
90 144 89 0
89 144 142 0
90 150 144 0
147 149 88 0
156 91 149 0
91 88 149 0
91 89 88 0
89 93 90 0
89 91 93 0
150 90 151 0
90 95 151 0
90 93 95 0
97 153 95 0
95 153 151 0
97 159 153 0
157 162 98 0
157 98 156 0
98 91 156 0
98 101 91 0
101 99 92 0
93 101 92 0
91 101 93 0
93 92 94 0
93 94 95 0
95 94 96 0
95 96 97 0
104 160 102 0
102 160 96 0
160 159 96 0
159 97 96 0
104 164 160 0
98 162 106 0
106 162 166 0
106 105 100 0
101 106 100 0
98 106 101 0
101 100 99 0
103 104 102 0
103 107 104 0
107 164 104 0
107 169 164 0
167 171 109 0
167 109 166 0
109 106 166 0
109 111 106 0
111 110 105 0
111 105 106 0
170 169 107 0
170 107 108 0
108 112 170 0
170 112 173 0
109 171 114 0
114 171 175 0
109 116 111 0
109 114 116 0
116 115 110 0
116 110 111 0
174 173 112 0
174 112 113 0
113 117 174 0
174 117 178 0
175 177 114 0
180 119 177 0
119 114 177 0
119 116 114 0
119 118 115 0
119 115 116 0
121 178 117 0
121 182 178 0
119 180 122 0
122 180 183 0
124 120 118 0
119 124 118 0
122 124 119 0
124 123 120 0
125 182 121 0
125 186 182 0
183 185 122 0
188 127 185 0
127 122 185 0
127 124 122 0
127 126 123 0
127 123 124 0
192 187 131 0
187 186 131 0
186 129 131 0
186 125 129 0
188 190 127 0
127 190 126 0
190 128 126 0
190 191 128 0
132 128 191 0
132 191 195 0
198 193 138 0
138 193 192 0
138 192 131 0
136 138 131 0
130 136 131 0
130 131 129 0
195 197 132 0
132 197 133 0
197 200 139 0
134 197 139 0
133 197 134 0
134 139 202 0
199 134 202 0
135 134 199 0
138 137 198 0
137 199 198 0
137 135 199 0
137 138 136 0
200 203 139 0
139 203 202 0
205 211 141 0
143 206 141 0
141 206 205 0
145 208 143 0
143 208 206 0
145 214 208 0
209 216 146 0
148 212 146 0
146 212 209 0
212 148 211 0
211 148 141 0
148 147 141 0
147 140 141 0
141 140 142 0
141 142 143 0
143 142 144 0
143 144 145 0
152 215 150 0
150 215 144 0
215 214 144 0
214 145 144 0
152 218 215 0
146 216 154 0
154 216 220 0
146 155 148 0
146 154 155 0
158 149 147 0
148 158 147 0
155 158 148 0
158 156 149 0
151 152 150 0
219 218 152 0
151 219 152 0
153 219 151 0
153 159 219 0
219 159 222 0
154 220 161 0
161 220 224 0
154 163 155 0
154 161 163 0
163 162 157 0
158 163 157 0
155 163 158 0
158 157 156 0
223 222 159 0
223 159 160 0
160 164 223 0
223 164 226 0
161 224 165 0
165 224 228 0
161 168 163 0
161 165 168 0
168 166 162 0
168 162 163 0
169 226 164 0
169 230 226 0
165 228 172 0
172 228 232 0
172 171 167 0
168 172 167 0
165 172 168 0
168 167 166 0
231 230 169 0
231 169 170 0
170 173 231 0
231 173 234 0
172 232 176 0
176 232 236 0
176 175 171 0
176 171 172 0
173 174 179 0
239 173 179 0
234 173 239 0
178 179 174 0
236 238 176 0
238 241 181 0
238 181 177 0
176 238 177 0
175 176 177 0
181 180 177 0
240 239 179 0
179 178 240 0
178 243 240 0
178 182 243 0
181 241 184 0
184 241 245 0
184 183 180 0
184 180 181 0
186 243 182 0
186 248 243 0
245 247 184 0
247 251 189 0
247 189 185 0
184 247 185 0
183 184 185 0
189 188 185 0
254 249 187 0
254 187 192 0
186 187 248 0
248 187 249 0
251 253 189 0
253 257 194 0
253 194 190 0
189 253 190 0
188 189 190 0
196 191 190 0
196 190 194 0
196 195 191 0
262 255 193 0
262 193 198 0
192 193 254 0
254 193 255 0
257 259 194 0
194 259 196 0
196 259 260 0
260 265 201 0
260 201 197 0
196 260 197 0
195 196 197 0
261 201 267 0
261 197 201 0
261 204 200 0
197 261 200 0
199 202 204 0
261 199 204 0
263 199 261 0
198 199 262 0
262 199 263 0
265 268 201 0
268 204 267 0
268 203 204 0
268 201 200 0
203 268 200 0
203 204 202 0
270 275 207 0
207 278 270 0
271 280 210 0
213 273 210 0
210 273 271 0
211 205 213 0
205 273 213 0
205 276 273 0
206 207 275 0
276 206 275 0
205 206 276 0
279 278 207 0
206 279 207 0
208 279 206 0
208 214 279 0
279 214 283 0
281 285 217 0
281 217 280 0
280 217 210 0
217 216 210 0
216 209 210 0
210 209 212 0
210 212 213 0
213 212 211 0
284 283 214 0
284 214 215 0
215 218 284 0
284 218 287 0
217 285 221 0
221 285 289 0
221 220 216 0
221 216 217 0
288 287 218 0
288 218 219 0
219 222 288 0
288 222 291 0
221 289 225 0
225 289 292 0
225 224 220 0
225 220 221 0
222 223 227 0
294 222 227 0
291 222 294 0
226 227 223 0
225 292 229 0
229 292 296 0
229 228 224 0
229 224 225 0
295 294 227 0
227 226 295 0
226 298 295 0
226 230 298 0
229 296 233 0
233 296 299 0
233 232 228 0
233 228 229 0
230 231 235 0
301 230 235 0
298 230 301 0
234 235 231 0
233 299 237 0
237 299 303 0
237 236 232 0
237 232 233 0
302 301 235 0
235 234 302 0
234 306 302 0
234 239 306 0
303 305 237 0
305 308 242 0
305 242 238 0
237 305 238 0
236 237 238 0
242 241 238 0
239 240 244 0
310 239 244 0
306 239 310 0
243 244 240 0
242 308 246 0
246 308 312 0
246 245 241 0
246 241 242 0
310 244 250 0
310 250 316 0
248 250 243 0
243 250 244 0
312 314 246 0
314 319 252 0
314 252 247 0
246 314 247 0
245 246 247 0
252 251 247 0
322 317 256 0
256 317 316 0
256 316 250 0
254 256 250 0
249 254 250 0
249 250 248 0
319 321 252 0
321 325 258 0
321 258 253 0
252 321 253 0
251 252 253 0
258 257 253 0
329 323 264 0
264 323 322 0
264 322 256 0
262 264 256 0
255 262 256 0
255 256 254 0
325 326 258 0
258 326 257 0
326 259 257 0
326 327 259 0
327 332 266 0
260 327 266 0
259 327 260 0
328 266 333 0
328 260 266 0
328 269 265 0
260 328 265 0
261 267 269 0
328 261 269 0
330 261 328 0
264 263 329 0
263 330 329 0
263 261 330 0
263 264 262 0
332 334 266 0
334 269 333 0
334 268 269 0
334 266 265 0
268 334 265 0
268 269 267 0
336 340 272 0
274 337 272 0
272 337 336 0
277 338 274 0
274 338 337 0
275 270 277 0
270 338 277 0
270 339 338 0
270 278 339 0
339 278 343 0
341 346 282 0
341 282 340 0
340 282 272 0
282 280 272 0
280 271 272 0
272 271 273 0
272 273 274 0
274 273 276 0
274 276 277 0
277 276 275 0
345 343 278 0
345 278 279 0
279 283 345 0
345 283 349 0
347 352 286 0
347 286 346 0
346 286 282 0
286 285 282 0
285 281 282 0
282 281 280 0
351 349 283 0
351 283 284 0
284 287 351 0
351 287 355 0
286 352 290 0
290 352 358 0
290 289 285 0
290 285 286 0
357 355 287 0
357 287 288 0
288 291 357 0
357 291 360 0
290 358 293 0
293 358 363 0
293 292 289 0
293 289 290 0
294 360 291 0
294 365 360 0
293 363 297 0
297 363 369 0
297 296 292 0
297 292 293 0
367 365 294 0
367 294 295 0
295 298 367 0
367 298 371 0
297 369 300 0
300 369 374 0
300 299 296 0
300 296 297 0
301 371 298 0
301 376 371 0
300 374 304 0
304 374 378 0
304 303 299 0
304 299 300 0
301 302 307 0
381 301 307 0
376 301 381 0
306 307 302 0
378 380 304 0
380 384 309 0
380 309 305 0
304 380 305 0
303 304 305 0
309 308 305 0
381 307 311 0
381 311 386 0
310 311 306 0
306 311 307 0
309 384 313 0
313 384 389 0
313 312 308 0
313 308 309 0
392 387 315 0
315 387 386 0
311 315 386 0
318 315 311 0
316 318 310 0
310 318 311 0
389 391 313 0
391 394 320 0
391 320 314 0
313 391 314 0
312 313 314 0
320 319 314 0
392 315 324 0
392 324 398 0
322 324 317 0
324 318 317 0
324 315 318 0
317 318 316 0
394 396 320 0
320 396 319 0
396 321 319 0
396 397 321 0
325 321 397 0
325 397 401 0
406 399 331 0
331 399 398 0
331 398 324 0
329 331 324 0
323 329 324 0
323 324 322 0
401 402 325 0
325 402 326 0
326 403 327 0
402 403 326 0
404 335 332 0
327 404 332 0
403 404 327 0
328 333 335 0
404 328 335 0
407 328 404 0
331 330 406 0
330 407 406 0
330 328 407 0
330 331 329 0
335 334 332 0
334 335 333 0
409 412 336 0
336 412 340 0
410 336 337 0
410 409 336 0
415 410 342 0
410 338 342 0
410 337 338 0
339 344 338 0
338 344 342 0
343 344 339 0
411 419 348 0
346 341 348 0
341 411 348 0
341 413 411 0
341 340 412 0
341 412 413 0
417 415 342 0
417 342 344 0
417 344 418 0
423 418 350 0
350 418 345 0
418 344 345 0
344 343 345 0
349 350 345 0
420 425 353 0
420 353 419 0
419 353 348 0
353 352 348 0
352 347 348 0
348 347 346 0
423 350 354 0
423 354 427 0
351 356 349 0
356 350 349 0
356 354 350 0
355 356 351 0
353 425 359 0
359 425 431 0
359 358 352 0
359 352 353 0
429 427 354 0
429 354 356 0
429 356 430 0
435 430 361 0
361 430 357 0
430 356 357 0
356 355 357 0
360 361 357 0
432 437 362 0
432 362 431 0
362 359 431 0
362 364 359 0
364 363 358 0
364 358 359 0
435 361 366 0
435 366 439 0
365 366 360 0
360 366 361 0
362 437 368 0
368 437 442 0
362 370 364 0
362 368 370 0
370 369 363 0
370 363 364 0
441 439 366 0
445 441 372 0
372 441 367 0
441 366 367 0
366 365 367 0
371 372 367 0
368 442 373 0
373 442 447 0
368 375 370 0
368 373 375 0
375 374 369 0
375 369 370 0
445 372 377 0
445 377 451 0
376 377 371 0
371 377 372 0
447 449 373 0
453 379 449 0
379 373 449 0
379 375 373 0
379 378 374 0
379 374 375 0
451 377 382 0
451 382 456 0
381 382 376 0
376 382 377 0
379 453 383 0
383 453 458 0
385 380 378 0
379 385 378 0
383 385 379 0
385 384 380 0
456 382 388 0
456 388 461 0
386 388 381 0
381 388 382 0
458 460 383 0
464 390 460 0
390 383 460 0
390 385 383 0
390 389 384 0
390 384 385 0
467 462 393 0
393 462 461 0
393 461 388 0
392 393 388 0
387 392 388 0
387 388 386 0
464 466 390 0
466 469 395 0
466 395 391 0
390 466 391 0
389 390 391 0
395 394 391 0
467 393 400 0
467 400 476 0
398 400 392 0
392 400 393 0
469 471 395 0
395 471 394 0
471 396 394 0
471 472 396 0
396 473 397 0
472 473 396 0
401 397 473 0
401 473 480 0
483 474 405 0
477 408 405 0
477 405 474 0
408 477 476 0
408 476 400 0
406 408 400 0
399 406 400 0
399 400 398 0
480 482 401 0
401 482 402 0
402 484 403 0
482 484 402 0
405 404 483 0
404 484 483 0
404 403 484 0
404 405 407 0
407 405 408 0
407 408 406 0
486 490 414 0
412 409 414 0
409 486 414 0
409 487 486 0
493 487 416 0
487 410 416 0
487 409 410 0
415 416 410 0
488 496 421 0
419 411 421 0
411 488 421 0
411 491 488 0
413 414 490 0
491 413 490 0
411 413 491 0
414 413 412 0
495 493 416 0
499 495 422 0
422 495 417 0
495 416 417 0
416 415 417 0
418 424 417 0
417 424 422 0
423 424 418 0
497 502 426 0
497 426 496 0
496 426 421 0
426 425 421 0
425 420 421 0
421 420 419 0
501 499 422 0
428 505 501 0
422 428 501 0
424 428 422 0
427 428 423 0
423 428 424 0
426 502 433 0
433 502 508 0
433 431 425 0
433 425 426 0
507 505 428 0
512 507 434 0
434 507 429 0
507 428 429 0
428 427 429 0
430 436 429 0
429 436 434 0
435 436 430 0
509 515 438 0
509 438 508 0
508 438 433 0
438 437 433 0
437 432 433 0
433 432 431 0
514 512 434 0
440 517 514 0
434 440 514 0
436 440 434 0
439 440 435 0
435 440 436 0
438 515 443 0
443 515 519 0
443 442 437 0
443 437 438 0
517 440 444 0
517 444 521 0
441 446 439 0
446 440 439 0
446 444 440 0
445 446 441 0
443 519 448 0
448 519 523 0
448 447 442 0
448 442 443 0
521 444 450 0
521 450 525 0
452 444 446 0
450 444 452 0
451 452 445 0
445 452 446 0
523 524 448 0
524 527 454 0
524 454 449 0
448 524 449 0
447 448 449 0
454 453 449 0
525 450 455 0
525 455 529 0
457 450 452 0
455 450 457 0
456 457 451 0
451 457 452 0
454 527 459 0
459 527 532 0
459 458 453 0
459 453 454 0
531 529 455 0
463 534 531 0
455 463 531 0
457 463 455 0
461 463 456 0
456 463 457 0
532 533 459 0
533 537 465 0
533 465 460 0
459 533 460 0
458 459 460 0
465 464 460 0
539 535 468 0
468 535 534 0
468 534 463 0
467 468 463 0
462 467 463 0
462 463 461 0
537 538 465 0
538 542 470 0
538 470 466 0
465 538 466 0
464 465 466 0
470 469 466 0
546 540 475 0
475 540 539 0
468 475 539 0
478 475 468 0
476 478 467 0
467 478 468 0
542 544 470 0
470 544 469 0
544 471 469 0
544 545 471 0
545 549 479 0
472 545 479 0
471 545 472 0
481 473 472 0
481 472 479 0
481 480 473 0
553 547 485 0
485 547 546 0
485 546 475 0
483 485 475 0
474 483 475 0
474 475 477 0
477 475 478 0
477 478 476 0
549 551 479 0
479 551 481 0
481 551 552 0
481 552 480 0
552 482 480 0
552 554 482 0
485 484 553 0
484 554 553 0
484 482 554 0
484 485 483 0
555 558 489 0
492 556 489 0
489 556 555 0
490 486 492 0
486 556 492 0
486 557 556 0
562 557 494 0
557 487 494 0
557 486 487 0
493 494 487 0
559 565 498 0
559 498 558 0
558 498 489 0
498 496 489 0
496 488 489 0
489 488 491 0
489 491 492 0
492 491 490 0
564 562 494 0
568 564 500 0
500 564 495 0
564 494 495 0
494 493 495 0
499 500 495 0
566 570 503 0
566 503 565 0
565 503 498 0
503 502 498 0
502 497 498 0
498 497 496 0
568 500 504 0
568 504 572 0
501 506 499 0
506 500 499 0
506 504 500 0
505 506 501 0
503 570 510 0
510 570 575 0
510 508 502 0
510 502 503 0
574 572 504 0
511 576 574 0
504 511 574 0
506 511 504 0
507 513 505 0
513 506 505 0
513 511 506 0
512 513 507 0
510 575 509 0
575 515 509 0
575 579 515 0
510 509 508 0
578 576 511 0
516 581 578 0
511 516 578 0
513 516 511 0
514 518 512 0
518 513 512 0
518 516 513 0
517 518 514 0
579 519 515 0
583 519 579 0
581 516 520 0
581 520 584 0
522 516 518 0
520 516 522 0
521 522 517 0
517 522 518 0
583 523 519 0
587 523 583 0
586 584 520 0
526 589 586 0
520 526 586 0
522 526 520 0
525 526 521 0
521 526 522 0
524 523 528 0
523 591 528 0
523 587 591 0
528 527 524 0
589 526 530 0
589 530 593 0
529 530 525 0
525 530 526 0
591 592 528 0
527 528 592 0
596 527 592 0
532 527 596 0
595 593 530 0
599 595 536 0
536 595 531 0
595 530 531 0
530 529 531 0
534 536 531 0
596 597 532 0
532 597 533 0
537 533 597 0
537 597 602 0
603 600 541 0
541 600 599 0
541 599 536 0
539 541 536 0
535 539 536 0
535 536 534 0
538 537 543 0
537 605 543 0
537 602 605 0
543 542 538 0
603 541 540 0
546 603 540 0
607 603 546 0
540 541 539 0
605 606 543 0
606 610 548 0
606 548 544 0
543 606 544 0
542 543 544 0
550 545 544 0
550 544 548 0
550 549 545 0
615 608 547 0
615 547 553 0
546 547 607 0
607 547 608 0
610 611 548 0
548 611 550 0
550 611 612 0
550 612 549 0
612 551 549 0
612 613 551 0
551 614 552 0
613 614 551 0
552 616 554 0
614 616 552 0
553 554 615 0
615 554 616 0
560 558 555 0
556 561 555 0
555 561 560 0
557 563 556 0
556 563 561 0
562 563 557 0
567 565 559 0
621 567 559 0
621 559 558 0
618 621 558 0
560 618 558 0
618 560 561 0
618 561 619 0
619 561 563 0
619 563 620 0
625 620 569 0
569 620 564 0
620 563 564 0
563 562 564 0
568 569 564 0
571 570 566 0
627 571 566 0
627 566 565 0
622 627 565 0
567 622 565 0
622 567 621 0
625 569 573 0
625 573 630 0
572 573 568 0
568 573 569 0
628 633 571 0
633 570 571 0
633 575 570 0
628 571 627 0
632 630 573 0
634 632 577 0
577 632 574 0
632 573 574 0
573 572 574 0
576 577 574 0
633 579 575 0
636 579 633 0
634 577 580 0
634 580 638 0
578 582 576 0
582 577 576 0
582 580 577 0
581 582 578 0
636 583 579 0
641 583 636 0
640 638 580 0
585 643 640 0
580 585 640 0
582 585 580 0
584 585 581 0
581 585 582 0
641 587 583 0
645 587 641 0
643 585 588 0
643 588 646 0
586 590 584 0
590 585 584 0
590 588 585 0
589 590 586 0
645 591 587 0
649 591 645 0
648 646 588 0
594 652 648 0
588 594 648 0
590 594 588 0
593 594 589 0
589 594 590 0
649 650 591 0
591 650 592 0
596 592 650 0
596 650 654 0
652 594 598 0
652 598 656 0
595 601 593 0
601 594 593 0
601 598 594 0
599 601 595 0
654 655 596 0
596 655 597 0
602 597 655 0
602 655 658 0
656 598 604 0
656 604 660 0
603 604 600 0
604 601 600 0
604 598 601 0
600 601 599 0
658 605 602 0
662 605 658 0
660 604 609 0
660 609 664 0
607 609 603 0
603 609 604 0
662 663 605 0
605 663 606 0
610 606 663 0
610 663 667 0
674 665 617 0
617 665 664 0
617 664 609 0
615 617 609 0
608 615 609 0
608 609 607 0
667 668 610 0
610 668 611 0
611 670 612 0
668 670 611 0
612 672 613 0
670 672 612 0
613 675 614 0
672 675 613 0
617 616 674 0
616 675 674 0
616 614 675 0
616 617 615 0
623 621 618 0
619 624 618 0
618 624 623 0
620 626 619 0
619 626 624 0
625 626 620 0
677 679 622 0
622 679 627 0
622 621 623 0
678 622 623 0
677 622 678 0
629 682 678 0
623 629 678 0
624 629 623 0
631 624 626 0
629 624 631 0
630 631 625 0
625 631 626 0
680 686 628 0
628 686 633 0
628 627 679 0
628 679 680 0
684 682 629 0
684 629 631 0
684 631 685 0
690 685 635 0
635 685 632 0
685 631 632 0
631 630 632 0
634 635 632 0
637 636 687 0
636 686 687 0
636 633 686 0
692 637 687 0
690 635 639 0
690 639 696 0
638 639 634 0
634 639 635 0
642 641 637 0
637 641 636 0
637 692 699 0
637 699 642 0
698 696 639 0
705 698 644 0
644 698 640 0
698 639 640 0
639 638 640 0
643 644 640 0
700 707 642 0
707 641 642 0
707 645 641 0
700 642 699 0
705 644 647 0
705 647 708 0
646 647 643 0
643 647 644 0
707 649 645 0
710 649 707 0
708 647 651 0
708 651 713 0
648 653 646 0
653 647 646 0
653 651 647 0
652 653 648 0
710 712 649 0
649 712 650 0
654 650 712 0
654 712 716 0
715 713 651 0
657 718 715 0
651 657 715 0
653 657 651 0
656 657 652 0
652 657 653 0
655 654 659 0
654 720 659 0
654 716 720 0
659 658 655 0
718 657 661 0
718 661 723 0
660 661 656 0
656 661 657 0
720 721 659 0
658 659 721 0
725 658 721 0
662 658 725 0
723 661 666 0
723 666 734 0
664 666 660 0
660 666 661 0
725 726 662 0
662 726 663 0
728 669 667 0
663 728 667 0
726 728 663 0
730 671 669 0
730 669 728 0
732 673 671 0
732 671 730 0
735 676 673 0
735 673 732 0
676 735 734 0
676 734 666 0
674 676 666 0
665 674 666 0
665 666 664 0
669 668 667 0
668 669 670 0
670 669 671 0
670 671 672 0
672 671 673 0
672 673 675 0
675 673 676 0
675 676 674 0
681 679 677 0
678 683 677 0
677 683 681 0
682 683 678 0
688 686 680 0
739 688 680 0
739 680 679 0
737 739 679 0
681 737 679 0
737 681 683 0
737 683 738 0
742 738 689 0
689 738 684 0
738 683 684 0
683 682 684 0
685 691 684 0
684 691 689 0
690 691 685 0
688 687 686 0
740 693 692 0
740 692 687 0
739 740 687 0
688 739 687 0
743 694 693 0
743 693 740 0
694 743 742 0
689 694 742 0
695 694 689 0
697 689 691 0
695 689 697 0
696 697 690 0
690 697 691 0
701 699 693 0
693 699 692 0
702 693 694 0
701 693 702 0
703 694 695 0
702 694 703 0
704 695 697 0
703 695 704 0
698 706 696 0
706 697 696 0
706 704 697 0
705 706 698 0
745 750 700 0
700 750 707 0
700 699 701 0
746 700 701 0
745 700 746 0
746 701 702 0
746 702 747 0
747 702 703 0
747 703 748 0
748 703 704 0
748 704 749 0
709 756 749 0
704 709 749 0
706 709 704 0
708 709 705 0
705 709 706 0
751 758 711 0
750 751 711 0
710 750 711 0
707 750 710 0
756 709 714 0
756 714 761 0
713 714 708 0
708 714 709 0
758 759 711 0
759 764 717 0
759 717 712 0
711 759 712 0
710 711 712 0
717 716 712 0
763 761 714 0
768 763 719 0
719 763 715 0
763 714 715 0
714 713 715 0
718 719 715 0
764 765 717 0
716 717 765 0
771 716 765 0
720 716 771 0
778 769 722 0
722 769 768 0
719 722 768 0
724 722 719 0
723 724 718 0
718 724 719 0
771 772 720 0
720 772 721 0
774 727 725 0
721 774 725 0
772 774 721 0
776 729 727 0
776 727 774 0
779 731 729 0
779 729 776 0
731 779 778 0
722 731 778 0
733 731 722 0
736 722 724 0
733 722 736 0
734 736 723 0
723 736 724 0
727 726 725 0
726 727 728 0
728 727 729 0
728 729 730 0
730 729 731 0
730 731 732 0
732 731 733 0
732 733 735 0
735 733 736 0
735 736 734 0
741 739 737 0
738 744 737 0
737 744 741 0
742 744 738 0
741 740 739 0
740 741 743 0
743 741 744 0
743 744 742 0
752 750 745 0
746 753 745 0
745 753 752 0
747 754 746 0
746 754 753 0
748 755 747 0
747 755 754 0
749 757 748 0
748 757 755 0
756 757 749 0
760 758 751 0
785 760 751 0
785 751 750 0
781 785 750 0
752 781 750 0
781 752 753 0
781 753 782 0
782 753 754 0
782 754 783 0
783 754 755 0
783 755 784 0
762 790 784 0
755 762 784 0
757 762 755 0
761 762 756 0
756 762 757 0
760 759 758 0
786 766 764 0
786 764 759 0
785 786 759 0
760 785 759 0
792 766 786 0
790 762 767 0
790 767 797 0
763 770 761 0
770 762 761 0
770 767 762 0
768 770 763 0
766 765 764 0
793 773 771 0
793 771 765 0
792 793 765 0
766 792 765 0
795 775 773 0
795 773 793 0
798 777 775 0
798 775 795 0
777 798 797 0
767 777 797 0
780 777 767 0
778 780 769 0
780 770 769 0
780 767 770 0
769 770 768 0
773 772 771 0
772 773 774 0
774 773 775 0
774 775 776 0
776 775 777 0
776 777 779 0
779 777 780 0
779 780 778 0
787 785 781 0
782 788 781 0
781 788 787 0
783 789 782 0
782 789 788 0
784 791 783 0
783 791 789 0
790 791 784 0
787 786 785 0
786 787 792 0
787 794 792 0
787 788 794 0
796 788 789 0
794 788 796 0
