#!ascii version in FreeSurfer format (SUMA)
700 1396
-7.622096  -58.485104  -30.589876  0
-7.361767  -58.816635  -30.642662  0
-7.779512  -58.921249  -30.635828  0
-7.173155  -59.454895  -30.708740  0
-7.657761  -59.367256  -30.698910  0
-8.050072  -59.351643  -30.601460  0
-6.830159  -59.888081  -30.681824  0
-7.251996  -59.998791  -30.775208  0
-7.603074  -59.896240  -30.743572  0
-8.019848  -59.823383  -30.631140  0
-6.704942  -60.360676  -30.619869  0
-7.172586  -60.398434  -30.739346  0
-7.545270  -60.321609  -30.759544  0
-7.976841  -60.377419  -30.647165  0
-7.056943  -60.843567  -30.624777  0
-7.698632  -60.838703  -30.675791  0
-7.479239  -61.250145  -30.589432  0
-7.933218  -61.321922  -30.572409  0
-7.595081  -58.218620  -30.502043  0
-7.683478  -58.024948  -30.254433  0
-8.254601  -57.995369  -30.109617  0
-7.393549  -58.333996  -30.512125  0
-7.165421  -58.533314  -30.530628  0
-7.114619  -58.294922  -30.268581  0
-7.788429  -58.301125  -30.476656  0
-8.185364  -58.423794  -30.329586  0
-8.661936  -58.411697  -30.127871  0
-6.928842  -58.896584  -30.504108  0
-6.707009  -58.691643  -30.165928  0
-7.955909  -58.645008  -30.526899  0
-8.090115  -59.016762  -30.552124  0
-8.326403  -58.938450  -30.416574  0
-8.675978  -58.895443  -30.234098  0
-9.037760  -58.867420  -30.075033  0
-6.755845  -59.419907  -30.592133  0
-6.575501  -59.631638  -30.550634  0
-6.490197  -59.313026  -30.305086  0
-8.321622  -59.290005  -30.480257  0
-8.682879  -59.438599  -30.306124  0
-9.080667  -59.334011  -30.109655  0
-6.431224  -59.938629  -30.468145  0
-6.193716  -59.776699  -30.132418  0
-8.385237  -59.697990  -30.474272  0
-8.749526  -60.034988  -30.302191  0
-9.106847  -59.855232  -30.124615  0
-6.414993  -60.317486  -30.484112  0
-6.212081  -60.243805  -30.255682  0
-6.537581  -60.636925  -30.444654  0
-8.383196  -60.202171  -30.482605  0
-8.352215  -60.617928  -30.498104  0
-8.727468  -60.608299  -30.322783  0
-9.115032  -60.384514  -30.135340  0
-6.793066  -60.944691  -30.491890  0
-6.599944  -60.931828  -30.258097  0
-7.033592  -61.197468  -30.447304  0
-8.143153  -60.815933  -30.582552  0
-8.132191  -61.100285  -30.576963  0
-8.457195  -61.027435  -30.446798  0
-8.816928  -61.091587  -30.280203  0
-9.122295  -60.899178  -30.142797  0
-7.354809  -61.424831  -30.483494  0
-7.175445  -61.473709  -30.261183  0
-7.663486  -61.594173  -30.402435  0
-8.284857  -61.336273  -30.497839  0
-8.147019  -61.557629  -30.448317  0
-8.585418  -61.521564  -30.316984  0
-9.088688  -61.404469  -30.127611  0
-7.669180  -61.850113  -30.152977  0
-8.113750  -61.835262  -30.252487  0
-8.562980  -61.932590  -30.161676  0
-8.967736  -61.853916  -30.081875  0
-7.613751  -57.721298  -29.873547  0
-8.060677  -57.557087  -29.806927  0
-8.135080  -57.302967  -29.568920  0
-9.293482  -57.560844  -29.592339  0
-7.350361  -57.920376  -30.016846  0
-7.084523  -58.064125  -29.828461  0
-8.443127  -57.738098  -29.929943  0
-8.601586  -58.021549  -30.024162  0
-8.880336  -57.821117  -29.836803  0
-9.321614  -58.014442  -29.755707  0
-9.627616  -57.918194  -29.586117  0
-6.845959  -58.338745  -29.956560  0
-6.623430  -58.586353  -29.775434  0
-8.868690  -58.230671  -29.997772  0
-9.022340  -58.540726  -30.021673  0
-9.239874  -58.395687  -29.887285  0
-9.712331  -58.414574  -29.673975  0
-6.463917  -58.940441  -29.950689  0
-9.283707  -58.799061  -29.961071  0
-9.659236  -58.954929  -29.807796  0
-10.078023  -58.911579  -29.584970  0
-6.269700  -59.353954  -29.814106  0
-6.097700  -59.785461  -29.834206  0
-9.398687  -59.207184  -29.959904  0
-9.762937  -59.533985  -29.816662  0
-10.087691  -59.380203  -29.652950  0
-6.054293  -60.043785  -30.001554  0
-6.070836  -60.094727  -29.750286  0
-9.450098  -59.704109  -29.963127  0
-9.789462  -60.045712  -29.816448  0
-10.113738  -59.878788  -29.669487  0
-6.072749  -60.294132  -29.991922  0
-6.264424  -60.582767  -30.109293  0
-6.142035  -60.431206  -29.814346  0
-9.460321  -60.210293  -29.969492  0
-9.783405  -60.552921  -29.818005  0
-10.111926  -60.382843  -29.664875  0
-6.388329  -60.796852  -29.798489  0
-6.767024  -61.208122  -30.059946  0
-9.455776  -60.717731  -29.981335  0
-9.755217  -61.057556  -29.811951  0
-10.088843  -60.908779  -29.630451  0
-6.940222  -61.480106  -29.838980  0
-7.320261  -61.706871  -30.052784  0
-9.443189  -61.228886  -29.968853  0
-9.700860  -61.475952  -29.786749  0
-10.006769  -61.452190  -29.569370  0
-7.477168  -61.930691  -29.833004  0
-7.836219  -62.017948  -30.008381  0
-8.244170  -62.160088  -29.965473  0
-8.763672  -62.189873  -29.963261  0
-9.438312  -61.820965  -29.825375  0
-9.147929  -62.169899  -29.848181  0
-9.793203  -61.775955  -29.616455  0
-8.134763  -62.371178  -29.677893  0
-8.516544  -62.431767  -29.748753  0
-8.962470  -62.463200  -29.687698  0
-8.200679  -57.209885  -29.278677  0
-9.273893  -57.150906  -29.307316  0
-9.031380  -56.969707  -29.188444  0
-7.996053  -57.372074  -29.464836  0
-7.714196  -57.588623  -29.425545  0
-8.355261  -57.230679  -29.504211  0
-8.939637  -57.306335  -29.540112  0
-8.545303  -57.427971  -29.702435  0
-8.711313  -57.097538  -29.367331  0
-9.499088  -57.306175  -29.372505  0
-9.715020  -57.536198  -29.370806  0
-9.679089  -57.291958  -29.255360  0
-7.367874  -57.818916  -29.616209  0
-7.123533  -58.058495  -29.319288  0
-9.923085  -57.847286  -29.371159  0
-10.188918  -58.014519  -29.223303  0
-6.848748  -58.291508  -29.546061  0
-6.641729  -58.587807  -29.314829  0
-9.960439  -58.166630  -29.463503  0
-10.184200  -58.520737  -29.404482  0
-10.190873  -58.252552  -29.319529  0
-6.434768  -58.898758  -29.568718  0
-10.378839  -58.894897  -29.373770  0
-10.650707  -59.062923  -29.168966  0
-6.331499  -59.209705  -29.390636  0
-10.413254  -59.258675  -29.440022  0
-10.795505  -59.544117  -29.210173  0
-6.216172  -59.691635  -29.453955  0
-10.443990  -59.720154  -29.494509  0
-10.774255  -60.053894  -29.343407  0
-11.113846  -59.941422  -29.109217  0
-6.245937  -60.299366  -29.430471  0
-10.440039  -60.208858  -29.521236  0
-10.737436  -60.531593  -29.358488  0
-11.076097  -60.406742  -29.171659  0
-6.422614  -60.773766  -29.298677  0
-6.616834  -61.159615  -29.579502  0
-10.419468  -60.707394  -29.490288  0
-10.675449  -60.930435  -29.319723  0
-10.990222  -60.912811  -29.121826  0
-6.828482  -61.430809  -29.334038  0
-7.125556  -61.721962  -29.598175  0
-10.417101  -61.287205  -29.342192  0
-10.218636  -61.672787  -29.324102  0
-10.767508  -61.220680  -29.156796  0
-7.355845  -61.958294  -29.361561  0
-7.767194  -62.173538  -29.644230  0
-10.025919  -61.915894  -29.346430  0
-9.738165  -62.126171  -29.459497  0
-10.221458  -61.876175  -29.211945  0
-7.945693  -62.426338  -29.347492  0
-8.284369  -62.551929  -29.502386  0
-8.666791  -62.702675  -29.431700  0
-9.427634  -62.411716  -29.488811  0
-9.098944  -62.697975  -29.413713  0
-9.725619  -62.383694  -29.298052  0
-8.602847  -62.911404  -29.105953  0
-8.970923  -62.919491  -29.166773  0
-9.057328  -56.805454  -28.850504  0
-8.277751  -57.163254  -28.841475  0
-8.857037  -56.888672  -29.037882  0
-8.549878  -57.021160  -29.038744  0
-9.312784  -56.874008  -28.833323  0
-9.627968  -57.091858  -29.002975  0
-7.975715  -57.409126  -28.976934  0
-7.696105  -57.666962  -28.948530  0
-8.145947  -57.291286  -28.694515  0
-9.917057  -57.294384  -29.007462  0
-10.182959  -57.607777  -29.006796  0
-10.175982  -57.301521  -28.754210  0
-7.446304  -57.901688  -28.987309  0
-7.189137  -58.166267  -28.865290  0
-7.627773  -57.824226  -28.729677  0
-10.429844  -57.917931  -28.944689  0
-10.677024  -58.041088  -28.712204  0
-6.935535  -58.393497  -28.946892  0
-6.694702  -58.696213  -28.921036  0
-7.145380  -58.331985  -28.655918  0
-10.423619  -58.267536  -29.098135  0
-10.529314  -58.663315  -29.141918  0
-10.691000  -58.406040  -28.852390  0
-6.497724  -58.918983  -29.142593  0
-6.644208  -59.032349  -28.756369  0
-10.810222  -58.751389  -28.847906  0
-6.422278  -59.337482  -29.040318  0
-6.619537  -59.504704  -28.672571  0
-10.961392  -59.192123  -28.870571  0
-11.193870  -59.547848  -28.857729  0
-11.138482  -59.325794  -28.737061  0
-6.395401  -59.862736  -29.012274  0
-6.615845  -60.041565  -28.660185  0
-11.410577  -59.868919  -28.866394  0
-11.673514  -60.047180  -28.709745  0
-6.435551  -60.390274  -28.984962  0
-6.632024  -60.556980  -28.688789  0
-11.398295  -60.249111  -28.962889  0
-11.673059  -60.485245  -28.740826  0
-6.512366  -60.770657  -28.956251  0
-6.606977  -61.089294  -29.114454  0
-6.660743  -60.938145  -28.788141  0
-11.396871  -60.799641  -28.861624  0
-11.215629  -61.160385  -28.848648  0
-11.670967  -60.788734  -28.675636  0
-6.860483  -61.288113  -28.792480  0
-7.079617  -61.674042  -29.060673  0
-11.014364  -61.386612  -28.881535  0
-10.697526  -61.601658  -29.002121  0
-11.223286  -61.380032  -28.712187  0
-7.344815  -61.925533  -28.833921  0
-7.601378  -62.196766  -29.123415  0
-10.400201  -61.778038  -29.124958  0
-10.226492  -62.091625  -29.075207  0
-10.573955  -62.113644  -28.798655  0
-7.850263  -62.434288  -28.860849  0
-8.238667  -62.696789  -29.117035  0
-9.943027  -62.291485  -29.177111  0
-9.741773  -62.577499  -29.124880  0
-10.145402  -62.512249  -28.866249  0
-10.536232  -62.610649  -28.540409  0
-8.433601  -62.941868  -28.767206  0
-8.820758  -63.071304  -28.847919  0
-9.386094  -62.798458  -29.157574  0
-9.269418  -63.056782  -28.853037  0
-9.732322  -62.879383  -28.837494  0
-10.132827  -62.923882  -28.566105  0
-9.136642  -56.771709  -28.461632  0
-8.867577  -56.847553  -28.644346  0
-8.577763  -57.057541  -28.416985  0
-9.383304  -56.781528  -28.296295  0
-9.627981  -56.888973  -28.510109  0
-10.080186  -57.019573  -28.363495  0
-10.181078  -56.838612  -27.962057  0
-8.294667  -57.241528  -28.475950  0
-8.114107  -57.493622  -28.386524  0
-10.416707  -57.342896  -28.525324  0
-10.576108  -57.665928  -28.633577  0
-10.692353  -57.432274  -28.277952  0
-7.832160  -57.771492  -28.502127  0
-7.621624  -58.047840  -28.444098  0
-10.839226  -57.739437  -28.300890  0
-7.388405  -58.316467  -28.428585  0
-7.134555  -58.568153  -28.455338  0
-7.628904  -58.295486  -28.157228  0
-10.980373  -58.270622  -28.409843  0
-11.351547  -58.565132  -28.168087  0
-6.885976  -58.775028  -28.582867  0
-7.133385  -58.978317  -28.225008  0
-11.073663  -58.839088  -28.564070  0
-11.140177  -59.159641  -28.630520  0
-11.316559  -59.012516  -28.403437  0
-11.618191  -58.890968  -28.117239  0
-6.872449  -59.212166  -28.416519  0
-7.137488  -59.456936  -28.127501  0
-11.315395  -59.322170  -28.578857  0
-11.644382  -59.579391  -28.497515  0
-11.545684  -59.207512  -28.334473  0
-6.866970  -59.725491  -28.371492  0
-7.132435  -59.989697  -28.121998  0
-11.932976  -59.888660  -28.418234  0
-12.196899  -60.043758  -28.208570  0
-6.861535  -60.282978  -28.394161  0
-7.123522  -60.545101  -28.153130  0
-11.939177  -60.278576  -28.499205  0
-12.199508  -60.495300  -28.232794  0
-6.875065  -60.861923  -28.472424  0
-7.141397  -61.032852  -28.184906  0
-11.934304  -60.805550  -28.393652  0
-11.677711  -61.087208  -28.485321  0
-12.194726  -60.813950  -28.166546  0
-7.022810  -61.245968  -28.411592  0
-7.214123  -61.561489  -28.445827  0
-7.166906  -61.314064  -28.243317  0
-11.445504  -61.373512  -28.492233  0
-11.217684  -61.648464  -28.524599  0
-11.688341  -61.381001  -28.260643  0
-7.457809  -61.881916  -28.400244  0
-7.591009  -62.148743  -28.621513  0
-7.653920  -62.019989  -28.216928  0
-10.952033  -61.850941  -28.645550  0
-11.193799  -62.050022  -28.274603  0
-7.859632  -62.323853  -28.291374  0
-8.112679  -62.677563  -28.574135  0
-10.938889  -62.372265  -28.330502  0
-10.755101  -62.739140  -28.297668  0
-11.186328  -62.306824  -28.104839  0
-8.377028  -62.907722  -28.319857  0
-8.716809  -63.106773  -28.449142  0
-9.100889  -63.177685  -28.538729  0
-9.633804  -63.203308  -28.438864  0
-10.480104  -62.997089  -28.288712  0
-10.106304  -63.209797  -28.333889  0
-10.724568  -62.923977  -28.148039  0
-9.616796  -63.403294  -28.093933  0
-9.910665  -63.411396  -28.165567  0
-9.192879  -56.771404  -28.098343  0
-10.174113  -56.782494  -27.759701  0
-8.974317  -56.921982  -28.017900  0
-8.694073  -57.161739  -27.889118  0
-9.340977  -56.812038  -27.912775  0
-9.187451  -56.836861  -27.852495  0
-10.042024  -56.821339  -27.927244  0
-9.702995  -56.850529  -27.925659  0
-10.335162  -56.892429  -27.784290  0
-10.542110  -57.159283  -28.049160  0
-8.436624  -57.394638  -27.973015  0
-8.220427  -57.699848  -27.939081  0
-8.652266  -57.334747  -27.671429  0
-10.829808  -57.395054  -27.885000  0
-8.032687  -57.837582  -28.081757  0
-8.180103  -58.033512  -27.710243  0
-11.071011  -57.747715  -27.859600  0
-11.319148  -58.090851  -27.849335  0
-11.247825  -57.823162  -27.646868  0
-7.899033  -58.248947  -27.910736  0
-7.642437  -58.574249  -27.947807  0
-8.159081  -58.299320  -27.558371  0
-11.549121  -58.314175  -27.840872  0
-11.756699  -58.532955  -27.822903  0
-11.725710  -58.307236  -27.692610  0
-7.391102  -58.770721  -28.081303  0
-7.658659  -59.019081  -27.733414  0
-11.942824  -58.830582  -27.832947  0
-12.216197  -59.006233  -27.661556  0
-7.403429  -59.229965  -27.917818  0
-7.668606  -59.492859  -27.645437  0
-11.903467  -59.186703  -28.050234  0
-12.172700  -59.585144  -28.017954  0
-12.193757  -59.257805  -27.817450  0
-7.406986  -59.728916  -27.875883  0
-7.665758  -59.999065  -27.635336  0
-12.426734  -59.894520  -27.917934  0
-12.672058  -60.052067  -27.680977  0
-7.396983  -60.263092  -27.887012  0
-7.652061  -60.521938  -27.649105  0
-12.460814  -60.278442  -27.968620  0
-12.738084  -60.502335  -27.685080  0
-7.384271  -60.790939  -27.916517  0
-7.635346  -61.007824  -27.687883  0
-12.470514  -60.826412  -27.872030  0
-12.196172  -61.123104  -27.973337  0
-12.755489  -60.829288  -27.643024  0
-7.385678  -61.268925  -28.004211  0
-7.632957  -61.644745  -27.934353  0
-7.625833  -61.319702  -27.756292  0
-11.943485  -61.395927  -27.985863  0
-11.699192  -61.677513  -27.983654  0
-12.198981  -61.418961  -27.742519  0
-7.873450  -62.015965  -27.883760  0
-8.128308  -62.097458  -27.618444  0
-11.449475  -61.923534  -28.050087  0
-11.691381  -62.052181  -27.639338  0
-8.007266  -62.276413  -27.895508  0
-8.200703  -62.562389  -27.988861  0
-8.149373  -62.320984  -27.744106  0
-11.326076  -62.255856  -27.946558  0
-11.191933  -62.563114  -27.843838  0
-8.472235  -62.852524  -27.958570  0
-8.658771  -63.042034  -28.100760  0
-8.800170  -62.926170  -27.757847  0
-9.197117  -63.189842  -27.978071  0
-9.077187  -62.966988  -27.598698  0
-10.905421  -62.786362  -28.031727  0
-10.604869  -63.124275  -27.852324  0
-9.623450  -63.412392  -27.859283  0
-9.805059  -63.497185  -27.973301  0
-9.925679  -63.439682  -27.754839  0
-10.245357  -63.316196  -28.089033  0
-10.021447  -63.475948  -27.967274  0
-10.218183  -63.381302  -27.822451  0
-10.212660  -56.790718  -27.556196  0
-9.332396  -57.026470  -27.456444  0
-10.018815  -56.795662  -27.623957  0
-9.846997  -56.923241  -27.360569  0
-10.328946  -56.887527  -27.411470  0
-10.134508  -56.847103  -27.360098  0
-10.600424  -57.099388  -27.492872  0
-8.903874  -57.319729  -27.410936  0
-8.637955  -57.603390  -27.453415  0
-9.151222  -57.310314  -27.105330  0
-10.936126  -57.403522  -27.374563  0
-11.163822  -57.662277  -27.444008  0
-8.411189  -57.831333  -27.579876  0
-8.621652  -58.026306  -27.181816  0
-11.370180  -57.863110  -27.313353  0
-11.673850  -58.139145  -27.476656  0
-8.405519  -58.311577  -27.287001  0
-8.161341  -58.588627  -27.412983  0
-8.621217  -58.305809  -27.036604  0
-11.953888  -58.322895  -27.479811  0
-12.221763  -58.599979  -27.415068  0
-12.194318  -58.336441  -27.232891  0
-7.909127  -58.792698  -27.579975  0
-8.169823  -59.041138  -27.238834  0
-12.507419  -58.954582  -27.259096  0
-12.702797  -58.938385  -26.947443  0
-7.919957  -59.265316  -27.433239  0
-8.170112  -59.510983  -27.161587  0
-12.447943  -59.327702  -27.513147  0
-12.553669  -59.693020  -27.632629  0
-7.920914  -59.749626  -27.392775  0
-8.163787  -60.004120  -27.148199  0
-12.778687  -59.882187  -27.418039  0
-7.912964  -60.258263  -27.394741  0
-8.157711  -60.510952  -27.156441  0
-12.944141  -60.267059  -27.360193  0
-13.211406  -60.579563  -27.121107  0
-7.898861  -60.766800  -27.415918  0
-8.148973  -60.990685  -27.194571  0
-13.015714  -60.817406  -27.340326  0
-12.741783  -61.118519  -27.481331  0
-13.263316  -60.819569  -27.115387  0
-7.880121  -61.257805  -27.500158  0
-8.112632  -61.667679  -27.431791  0
-8.135007  -61.307590  -27.261604  0
-12.457325  -61.400436  -27.482918  0
-12.198570  -61.668827  -27.477173  0
-12.723942  -61.389538  -27.252531  0
-8.372032  -61.972504  -27.336260  0
-8.727835  -62.079079  -27.126995  0
-11.961357  -61.936150  -27.421375  0
-11.775224  -62.250710  -27.312363  0
-12.198052  -61.903248  -27.190798  0
-8.393596  -62.305244  -27.522690  0
-8.580304  -62.642029  -27.630318  0
-8.745768  -62.410320  -27.315060  0
-9.057674  -62.673985  -27.296694  0
-9.012382  -62.316418  -27.064926  0
-11.504478  -62.429653  -27.455557  0
-11.260691  -62.780247  -27.424963  0
-11.715880  -62.424915  -27.122721  0
-9.378470  -62.977165  -27.376715  0
-9.718752  -63.236710  -27.494799  0
-9.738345  -62.994503  -27.094389  0
-10.267889  -63.263214  -27.447609  0
-11.008475  -62.925297  -27.610121  0
-10.779705  -63.118282  -27.320280  0
-11.106554  -62.982555  -27.244551  0
-9.731887  -57.154182  -26.952833  0
-10.249599  -57.064041  -27.082327  0
-10.681637  -57.217953  -27.097191  0
-9.410865  -57.387627  -26.791027  0
-9.102859  -57.589668  -26.846519  0
-9.693834  -57.341755  -26.653603  0
-10.030058  -57.323132  -26.655333  0
-10.850969  -57.359745  -27.010689  0
-10.576388  -57.367664  -26.768259  0
-11.039989  -57.589291  -26.963102  0
-8.862357  -57.845203  -26.964251  0
-9.083070  -57.923988  -26.579458  0
-11.310296  -57.834801  -26.814148  0
-11.079788  -57.763210  -26.590940  0
-11.687800  -58.034637  -26.871935  0
-12.047364  -58.200745  -27.104031  0
-8.776691  -58.284714  -26.839312  0
-8.639776  -58.578983  -26.892584  0
-12.371995  -58.384514  -26.915573  0
-12.582876  -58.679226  -26.984837  0
-8.416535  -58.807919  -27.061163  0
-8.661966  -59.024723  -26.727610  0
-12.740898  -58.802738  -26.760378  0
-12.739201  -59.045048  -26.687843  0
-8.419026  -59.275673  -26.941792  0
-8.657598  -59.515747  -26.661608  0
-12.667344  -59.336838  -26.923393  0
-12.712292  -59.638065  -27.249035  0
-8.411314  -59.760509  -26.905708  0
-8.650863  -60.017487  -26.653484  0
-12.891604  -59.940071  -27.167860  0
-12.834527  -59.818008  -26.871485  0
-13.072535  -60.220863  -26.934982  0
-8.408261  -60.264172  -26.905865  0
-8.673399  -60.520172  -26.656761  0
-13.293205  -60.552166  -26.785854  0
-13.158013  -60.352402  -26.597912  0
-8.423204  -60.774410  -26.924313  0
-8.779134  -61.043880  -26.656364  0
-13.340328  -60.775349  -26.924387  0
-13.233333  -61.030464  -26.872559  0
-8.414514  -61.289364  -27.029766  0
-8.545836  -61.717552  -27.081461  0
-8.793506  -61.498032  -26.796745  0
-9.099221  -61.410183  -26.527721  0
-12.938601  -61.263870  -27.090746  0
-12.683173  -61.600342  -26.897751  0
-8.863636  -61.804775  -26.882566  0
-9.152027  -62.027630  -26.794716  0
-9.069496  -61.701279  -26.682560  0
-12.377945  -61.803802  -27.071321  0
-12.177340  -62.087280  -26.878305  0
-9.344636  -62.377296  -26.860397  0
-9.626096  -62.676987  -26.869692  0
-9.601213  -62.399090  -26.677195  0
-11.890009  -62.302864  -26.989807  0
-11.574011  -62.589657  -26.807364  0
-9.972172  -62.890034  -26.813438  0
-10.088754  -63.101177  -27.051619  0
-10.352374  -62.928173  -26.695139  0
-10.558990  -63.106850  -26.976959  0
-10.822081  -62.929180  -26.650402  0
-11.310958  -62.826576  -27.070389  0
-10.993073  -63.025406  -26.955961  0
-11.201854  -62.863754  -26.737726  0
-9.755717  -57.568855  -26.405268  0
-10.283332  -57.578175  -26.400421  0
-10.766613  -57.644299  -26.520103  0
-9.392991  -57.838650  -26.354923  0
-9.185181  -58.152020  -26.313311  0
-9.700910  -57.812073  -26.172754  0
-10.038475  -57.819344  -26.136490  0
-10.933276  -57.807312  -26.393379  0
-10.610524  -57.861965  -26.210815  0
-11.237497  -58.009052  -26.356445  0
-11.806633  -58.164204  -26.425114  0
-12.137330  -58.214962  -26.663029  0
-8.985764  -58.234039  -26.544847  0
-9.162127  -58.511765  -26.213957  0
-11.194181  -58.274994  -25.999926  0
-11.623567  -58.308220  -26.109726  0
-12.384215  -58.357052  -26.564428  0
-12.153129  -58.394543  -26.293245  0
-12.556036  -58.616257  -26.540348  0
-8.898381  -58.698566  -26.515095  0
-9.149075  -58.987854  -26.152718  0
-12.735045  -58.879623  -26.556990  0
-12.702045  -59.053257  -26.476231  0
-12.547641  -58.971039  -26.276367  0
-8.900988  -59.250816  -26.411770  0
-9.140595  -59.504608  -26.134483  0
-12.546940  -59.330383  -26.340420  0
-12.303969  -59.215485  -26.002480  0
-8.892049  -59.765717  -26.394932  0
-9.131449  -60.014732  -26.152910  0
-12.672733  -59.739788  -26.444191  0
-12.918150  -60.096436  -26.513573  0
-8.894478  -60.262852  -26.405441  0
-9.136848  -60.475712  -26.187685  0
-13.028042  -60.350048  -26.242542  0
-13.244223  -60.545429  -26.437418  0
-8.951071  -60.703251  -26.403467  0
-9.174550  -61.040421  -26.314487  0
-9.146813  -60.761318  -26.228125  0
-13.329792  -60.818581  -26.510521  0
-13.268585  -61.134624  -26.349619  0
-9.396021  -61.386692  -26.304644  0
-9.778371  -61.575577  -26.160114  0
-10.116933  -61.566746  -25.974148  0
-13.018949  -61.384579  -26.576738  0
-12.628316  -61.710907  -26.243774  0
-9.415458  -61.754208  -26.468279  0
-9.545424  -62.160049  -26.582140  0
-9.843683  -62.028061  -26.326853  0
-10.249924  -61.950108  -26.087709  0
-12.417618  -61.945873  -26.612860  0
-12.225435  -62.150848  -26.528465  0
-12.189450  -62.090748  -26.227123  0
-9.831165  -62.383453  -26.516012  0
-10.097260  -62.667824  -26.556696  0
-10.224974  -62.356426  -26.301790  0
-10.571707  -62.683643  -26.413679  0
-10.746737  -62.349957  -26.140268  0
-11.142151  -62.667484  -26.421824  0
-11.321973  -62.400608  -26.117228  0
-11.956228  -62.331070  -26.532394  0
-11.588635  -62.506981  -26.371517  0
-11.777874  -62.306293  -26.148838  0
-9.778761  -58.099442  -25.979485  0
-10.295100  -58.117607  -25.927954  0
-10.799159  -58.173016  -25.985155  0
-9.416909  -58.296112  -26.053371  0
-9.721439  -58.536743  -25.796911  0
-10.118094  -58.446095  -25.734877  0
-10.988328  -58.429260  -25.818287  0
-10.597242  -58.448227  -25.746719  0
-11.386691  -58.522537  -25.845371  0
-11.868448  -58.595459  -25.949160  0
-12.290866  -58.731552  -26.110142  0
-9.414803  -58.746231  -25.930445  0
-9.710505  -58.999317  -25.715134  0
-10.004047  -58.794369  -25.632870  0
-10.445429  -58.860424  -25.555004  0
-11.087112  -58.807976  -25.623110  0
-11.612158  -58.796238  -25.747076  0
-12.288069  -58.996677  -25.984915  0
-12.093600  -59.130836  -25.833113  0
-12.001966  -58.905624  -25.841591  0
-9.408191  -59.244625  -25.895969  0
-9.686466  -59.520767  -25.701538  0
-10.079254  -59.270107  -25.535179  0
-12.069008  -59.274113  -25.814539  0
-11.721572  -59.186733  -25.641682  0
-12.148537  -59.476593  -25.846003  0
-9.389269  -59.758297  -25.911472  0
-9.629758  -59.984707  -25.743664  0
-9.957242  -59.887459  -25.535986  0
-12.430653  -59.716572  -26.049368  0
-12.209756  -59.851852  -25.681356  0
-12.649194  -60.090698  -25.987749  0
-9.397664  -60.252556  -25.943743  0
-9.800590  -60.453083  -25.700911  0
-12.895374  -60.365932  -25.952148  0
-12.704766  -60.389297  -25.668278  0
-13.086628  -60.643360  -25.994036  0
-9.403419  -60.735840  -26.039808  0
-9.556681  -61.149521  -26.096863  0
-9.756886  -60.912262  -25.875118  0
-9.927843  -61.249580  -25.927059  0
-10.208819  -60.960754  -25.636671  0
-10.653566  -61.041969  -25.421774  0
-13.283255  -60.959724  -26.115028  0
-13.244030  -61.128822  -26.038641  0
-13.068165  -61.016777  -25.765778  0
-10.257450  -61.388981  -25.816784  0
-10.692266  -61.470005  -25.639482  0
-12.143523  -61.829762  -25.804596  0
-13.022448  -61.334030  -26.018162  0
-12.602584  -61.521549  -25.717215  0
-12.856927  -61.250137  -25.580521  0
-10.443336  -61.717838  -25.878613  0
-10.646419  -62.027538  -25.951244  0
-10.794593  -61.869289  -25.808800  0
-11.040502  -62.147247  -25.914471  0
-11.213020  -61.865761  -25.700508  0
-11.894179  -62.104668  -25.936331  0
-11.509007  -62.166862  -25.900225  0
-11.694757  -61.960686  -25.745756  0
-10.841800  -59.172977  -25.397385  0
-11.239811  -59.200970  -25.432556  0
-10.477169  -59.280994  -25.401409  0
-10.722572  -59.566864  -25.263853  0
-11.483355  -59.459072  -25.375141  0
-11.138928  -59.510422  -25.261719  0
-11.831935  -59.633041  -25.490377  0
-10.325568  -59.655231  -25.366993  0
-10.232144  -60.015339  -25.359304  0
-10.549970  -59.947498  -25.228806  0
-11.035901  -59.987381  -25.096376  0
-11.989369  -59.981148  -25.365953  0
-11.566673  -59.884388  -25.208197  0
-12.343251  -60.180172  -25.499762  0
-10.077086  -60.250450  -25.456739  0
-10.181195  -60.523800  -25.460045  0
-10.365022  -60.272400  -25.299906  0
-10.605694  -60.604965  -25.264837  0
-10.693189  -60.219559  -25.151163  0
-11.472778  -60.382763  -25.018490  0
-12.462795  -60.408352  -25.382555  0
-12.089098  -60.429131  -25.149269  0
-12.671639  -60.712173  -25.403133  0
-10.900615  -60.880993  -25.224833  0
-11.314521  -60.891521  -25.111387  0
-11.859039  -60.851082  -25.009604  0
-12.826273  -61.041927  -25.421816  0
-12.737966  -61.171936  -25.356205  0
-12.538559  -61.036114  -25.186314  0
-10.987647  -61.223747  -25.359533  0
-11.156613  -61.550720  -25.494991  0
-11.350284  -61.356178  -25.318756  0
-11.635906  -61.659950  -25.508461  0
-11.744478  -61.271267  -25.214849  0
-12.546920  -61.300323  -25.365574  0
-12.158800  -61.496994  -25.426306  0
-12.185789  -61.156647  -25.107025  0
-11.181477  -60.284431  -24.954626  0
-10.952278  -60.324978  -25.031460  0
-11.237117  -60.487854  -24.963842  0
-11.025672  -60.587994  -25.051064  0
-11.119572  -60.394108  -24.945194  0
-12.326460  -60.808071  -25.019180  0
-12.117431  -60.791924  -24.925554  0
-12.281758  -60.985558  -24.956509  0
-12.126113  -60.953957  -24.909956  0
-12.210074  -60.895164  -24.880024  0
18 21 0 0
0 24 18 0
22 27 1 0
22 1 21 0
1 0 21 0
1 2 0 0
24 0 29 0
29 0 2 0
1 27 3 0
3 27 34 0
1 4 2 0
1 3 4 0
29 2 30 0
2 5 30 0
2 4 5 0
5 37 30 0
35 40 6 0
35 6 34 0
6 3 34 0
6 7 3 0
3 8 4 0
3 7 8 0
4 9 5 0
4 8 9 0
37 5 42 0
42 5 9 0
6 40 10 0
10 40 45 0
6 11 7 0
6 10 11 0
7 12 8 0
7 11 12 0
8 13 9 0
8 12 13 0
42 9 48 0
48 9 13 0
45 47 10 0
52 14 47 0
14 10 47 0
14 11 10 0
11 15 12 0
11 14 15 0
49 13 55 0
13 15 55 0
13 12 15 0
13 49 48 0
52 54 14 0
60 16 54 0
16 14 54 0
16 15 14 0
55 15 56 0
15 17 56 0
15 16 17 0
17 63 56 0
60 62 16 0
16 62 17 0
17 62 64 0
17 64 63 0
71 75 19 0
20 72 19 0
19 72 71 0
20 77 72 0
76 82 23 0
76 23 75 0
75 23 19 0
23 21 19 0
21 18 19 0
19 18 24 0
25 19 24 0
20 19 25 0
77 20 78 0
20 26 78 0
20 25 26 0
26 84 78 0
83 88 28 0
83 28 82 0
82 28 23 0
28 27 23 0
27 22 23 0
23 22 21 0
29 31 25 0
29 25 24 0
25 32 26 0
25 31 32 0
84 26 85 0
26 33 85 0
26 32 33 0
33 89 85 0
28 88 36 0
36 88 92 0
36 34 27 0
36 27 28 0
30 31 29 0
31 30 37 0
38 31 37 0
32 31 38 0
32 39 33 0
32 38 39 0
89 33 94 0
94 33 39 0
93 97 41 0
93 41 92 0
92 41 36 0
41 40 36 0
40 35 36 0
36 35 34 0
42 43 38 0
42 38 37 0
38 44 39 0
38 43 44 0
94 39 99 0
99 39 44 0
41 97 46 0
46 97 102 0
46 45 40 0
46 40 41 0
48 50 43 0
48 43 42 0
43 51 44 0
43 50 51 0
99 44 105 0
105 44 51 0
102 103 46 0
103 108 53 0
103 53 47 0
46 103 47 0
45 46 47 0
53 52 47 0
55 57 49 0
50 48 49 0
57 50 49 0
58 50 57 0
50 59 51 0
50 58 59 0
105 51 110 0
110 51 59 0
108 109 53 0
109 113 61 0
109 61 54 0
53 109 54 0
52 53 54 0
61 60 54 0
56 57 55 0
57 56 63 0
65 57 63 0
58 57 65 0
58 66 59 0
58 65 66 0
110 59 115 0
115 59 66 0
113 114 61 0
114 118 67 0
114 67 62 0
61 114 62 0
60 61 62 0
68 64 62 0
68 62 67 0
65 63 64 0
68 65 64 0
69 65 68 0
65 70 66 0
65 69 70 0
115 66 122 0
122 66 70 0
118 119 67 0
67 119 68 0
68 119 120 0
68 120 69 0
69 120 121 0
69 121 70 0
70 121 123 0
70 123 122 0
128 131 73 0
73 133 128 0
129 134 74 0
74 137 129 0
132 140 71 0
71 140 75 0
72 73 131 0
132 72 131 0
71 72 132 0
79 135 77 0
77 135 72 0
135 133 72 0
133 73 72 0
135 79 134 0
79 74 134 0
79 80 74 0
137 74 138 0
74 81 138 0
74 80 81 0
81 142 138 0
141 144 76 0
76 144 82 0
76 75 140 0
76 140 141 0
78 79 77 0
79 78 84 0
86 79 84 0
80 79 86 0
80 87 81 0
80 86 87 0
142 81 146 0
146 81 87 0
145 149 83 0
83 149 88 0
83 82 144 0
83 144 145 0
85 86 84 0
86 85 89 0
90 86 89 0
87 86 90 0
146 87 147 0
87 91 147 0
87 90 91 0
91 150 147 0
149 92 88 0
152 92 149 0
94 95 90 0
94 90 89 0
90 96 91 0
90 95 96 0
150 91 153 0
153 91 96 0
98 97 93 0
155 98 93 0
92 155 93 0
152 155 92 0
99 100 95 0
99 95 94 0
95 101 96 0
95 100 101 0
153 96 156 0
156 96 101 0
104 102 98 0
98 102 97 0
98 155 159 0
98 159 104 0
105 106 100 0
105 100 99 0
100 107 101 0
100 106 107 0
156 101 160 0
160 101 107 0
104 103 102 0
108 103 104 0
159 108 104 0
163 108 159 0
110 111 106 0
110 106 105 0
106 112 107 0
106 111 112 0
160 107 165 0
165 107 112 0
163 164 108 0
108 164 109 0
113 109 164 0
113 164 168 0
115 116 111 0
115 111 110 0
111 117 112 0
111 116 117 0
165 112 170 0
170 112 117 0
168 169 113 0
113 169 114 0
118 114 169 0
118 169 173 0
122 124 116 0
122 116 115 0
171 117 175 0
117 124 175 0
117 116 124 0
117 171 170 0
173 174 118 0
118 174 119 0
174 178 125 0
120 174 125 0
119 174 120 0
126 121 120 0
126 120 125 0
127 123 121 0
127 121 126 0
127 181 123 0
123 181 122 0
181 176 122 0
176 124 122 0
124 176 175 0
178 179 125 0
125 179 126 0
126 179 180 0
126 180 127 0
127 180 182 0
127 182 181 0
186 188 130 0
130 190 186 0
187 192 128 0
128 192 131 0
136 189 133 0
189 128 133 0
189 187 128 0
189 136 188 0
188 136 130 0
136 134 130 0
134 129 130 0
139 191 137 0
137 191 129 0
191 190 129 0
190 130 129 0
139 195 191 0
193 198 132 0
132 198 140 0
132 131 192 0
132 192 193 0
135 136 133 0
136 135 134 0
138 139 137 0
143 196 142 0
142 196 138 0
196 195 138 0
195 139 138 0
143 201 196 0
199 203 141 0
141 203 144 0
141 140 198 0
141 198 199 0
146 148 143 0
146 143 142 0
201 143 206 0
206 143 148 0
204 209 145 0
145 209 149 0
145 144 203 0
145 203 204 0
147 148 146 0
151 207 150 0
150 207 147 0
207 206 147 0
206 148 147 0
151 211 207 0
209 152 149 0
212 152 209 0
153 154 151 0
153 151 150 0
211 151 214 0
214 151 154 0
212 155 152 0
217 155 212 0
156 157 154 0
156 154 153 0
214 154 215 0
154 158 215 0
154 157 158 0
158 219 215 0
217 159 155 0
221 159 217 0
160 161 157 0
160 157 156 0
157 162 158 0
157 161 162 0
219 158 223 0
223 158 162 0
221 163 159 0
225 163 221 0
165 166 161 0
165 161 160 0
161 167 162 0
161 166 167 0
223 162 228 0
228 162 167 0
225 226 163 0
163 226 164 0
168 164 226 0
168 226 231 0
170 172 166 0
170 166 165 0
229 167 233 0
167 172 233 0
167 166 172 0
167 229 228 0
231 232 168 0
168 232 169 0
173 169 232 0
173 232 236 0
175 177 171 0
177 238 171 0
171 238 170 0
238 234 170 0
234 172 170 0
172 234 233 0
236 237 173 0
173 237 174 0
178 174 237 0
178 237 241 0
181 183 176 0
183 243 176 0
176 243 175 0
243 239 175 0
239 177 175 0
177 239 238 0
241 242 178 0
178 242 179 0
242 247 184 0
180 242 184 0
179 242 180 0
185 182 180 0
185 180 184 0
185 249 182 0
182 249 181 0
249 244 181 0
244 183 181 0
183 244 243 0
247 248 184 0
184 248 185 0
185 248 250 0
185 250 249 0
253 254 186 0
186 254 188 0
186 190 253 0
253 190 256 0
194 192 187 0
194 187 260 0
187 255 260 0
187 189 255 0
189 188 254 0
189 254 255 0
257 256 190 0
257 190 191 0
197 258 195 0
258 191 195 0
258 257 191 0
197 262 258 0
200 198 193 0
265 200 193 0
265 193 192 0
261 265 192 0
194 261 192 0
261 194 260 0
196 197 195 0
202 263 201 0
201 263 196 0
263 262 196 0
262 197 196 0
202 267 263 0
205 203 199 0
268 205 199 0
268 199 198 0
266 268 198 0
200 266 198 0
266 200 265 0
206 208 202 0
206 202 201 0
267 202 271 0
271 202 208 0
210 209 204 0
273 210 204 0
273 204 203 0
269 273 203 0
205 269 203 0
269 205 268 0
207 208 206 0
207 211 208 0
211 271 208 0
211 275 271 0
213 212 210 0
210 212 209 0
210 273 279 0
210 279 213 0
214 216 276 0
275 214 276 0
211 214 275 0
216 281 276 0
218 217 213 0
213 217 212 0
213 279 284 0
213 284 218 0
215 216 214 0
220 282 219 0
219 282 215 0
282 281 215 0
281 216 215 0
220 286 282 0
222 221 218 0
218 221 217 0
218 284 288 0
218 288 222 0
223 224 220 0
223 220 219 0
286 220 290 0
290 220 224 0
227 225 222 0
222 225 221 0
222 288 292 0
222 292 227 0
228 230 224 0
228 224 223 0
290 224 294 0
294 224 230 0
227 226 225 0
231 226 227 0
292 231 227 0
297 231 292 0
233 235 229 0
235 300 229 0
229 300 228 0
300 295 228 0
295 230 228 0
230 295 294 0
297 298 231 0
231 298 232 0
236 232 298 0
236 298 303 0
238 240 234 0
240 306 234 0
234 306 233 0
306 301 233 0
301 235 233 0
235 301 300 0
303 304 236 0
236 304 237 0
241 237 304 0
241 304 308 0
243 245 239 0
240 238 239 0
245 240 239 0
246 240 245 0
306 240 310 0
310 240 246 0
308 309 241 0
241 309 242 0
247 242 309 0
247 309 313 0
249 251 244 0
245 243 244 0
251 245 244 0
252 245 251 0
311 246 317 0
246 252 317 0
246 245 252 0
246 311 310 0
313 314 247 0
247 314 248 0
248 315 250 0
314 315 248 0
249 250 251 0
250 316 251 0
250 315 316 0
251 316 252 0
252 316 318 0
252 318 317 0
322 324 253 0
253 324 254 0
253 256 322 0
322 256 326 0
323 328 259 0
259 330 323 0
325 332 255 0
255 332 260 0
255 254 324 0
255 324 325 0
329 326 256 0
329 256 257 0
258 259 328 0
329 258 328 0
257 258 329 0
264 331 262 0
262 331 258 0
331 330 258 0
330 259 258 0
264 335 331 0
333 336 261 0
261 336 265 0
261 260 332 0
261 332 333 0
263 264 262 0
263 267 264 0
267 335 264 0
267 338 335 0
270 268 266 0
341 270 266 0
265 341 266 0
336 341 265 0
271 272 339 0
338 271 339 0
267 271 338 0
272 344 339 0
274 273 269 0
347 274 269 0
347 269 268 0
342 347 268 0
270 342 268 0
342 270 341 0
275 277 272 0
275 272 271 0
344 272 345 0
272 278 345 0
272 277 278 0
278 349 345 0
280 279 274 0
274 279 273 0
274 347 351 0
274 351 280 0
276 277 275 0
277 276 281 0
283 277 281 0
278 277 283 0
349 278 353 0
353 278 283 0
285 284 280 0
280 284 279 0
280 351 356 0
280 356 285 0
282 283 281 0
287 354 286 0
286 354 282 0
354 353 282 0
353 283 282 0
287 358 354 0
289 288 285 0
285 288 284 0
285 356 360 0
285 360 289 0
290 291 287 0
290 287 286 0
358 287 362 0
362 287 291 0
293 292 289 0
289 292 288 0
289 360 364 0
289 364 293 0
294 296 291 0
294 291 290 0
362 291 366 0
366 291 296 0
299 297 293 0
293 297 292 0
293 364 369 0
293 369 299 0
300 302 295 0
302 372 295 0
295 372 294 0
372 367 294 0
367 296 294 0
296 367 366 0
299 298 297 0
370 305 303 0
370 303 298 0
369 370 298 0
299 369 298 0
375 305 370 0
306 307 301 0
307 377 301 0
301 377 300 0
377 373 300 0
373 302 300 0
302 373 372 0
305 304 303 0
308 304 305 0
375 308 305 0
379 308 375 0
310 312 307 0
310 307 306 0
377 307 382 0
382 307 312 0
379 380 308 0
308 380 309 0
313 309 380 0
313 380 384 0
317 319 311 0
319 389 311 0
311 389 310 0
389 383 310 0
383 312 310 0
312 383 382 0
384 385 313 0
313 385 314 0
314 387 315 0
385 387 314 0
387 391 320 0
316 387 320 0
315 387 316 0
321 318 316 0
321 316 320 0
321 394 318 0
318 394 317 0
394 390 317 0
390 319 317 0
319 390 389 0
391 392 320 0
320 392 321 0
321 392 395 0
321 395 394 0
327 324 322 0
326 327 322 0
397 399 323 0
323 399 328 0
323 330 397 0
397 330 401 0
334 332 325 0
404 334 325 0
404 325 324 0
398 404 324 0
327 398 324 0
398 327 326 0
329 398 326 0
400 398 329 0
329 328 399 0
329 399 400 0
403 401 330 0
403 330 331 0
331 335 403 0
403 335 407 0
337 336 333 0
409 337 333 0
409 333 332 0
405 409 332 0
334 405 332 0
405 334 404 0
338 340 408 0
407 338 408 0
335 338 407 0
340 411 408 0
343 341 337 0
337 341 336 0
337 409 413 0
337 413 343 0
339 340 338 0
346 412 344 0
344 412 339 0
412 411 339 0
411 340 339 0
346 416 412 0
348 347 342 0
419 348 342 0
419 342 341 0
414 419 341 0
343 414 341 0
414 343 413 0
345 346 344 0
350 417 349 0
349 417 345 0
417 416 345 0
416 346 345 0
350 421 417 0
352 351 348 0
348 351 347 0
348 419 423 0
348 423 352 0
353 355 350 0
353 350 349 0
421 350 425 0
425 350 355 0
357 356 352 0
352 356 351 0
352 423 427 0
352 427 357 0
354 355 353 0
359 426 358 0
358 426 354 0
426 425 354 0
425 355 354 0
359 429 426 0
361 360 357 0
357 360 356 0
357 427 430 0
357 430 361 0
362 363 359 0
362 359 358 0
429 359 432 0
432 359 363 0
365 364 361 0
361 364 360 0
361 430 434 0
361 434 365 0
366 368 363 0
366 363 362 0
432 363 436 0
436 363 368 0
371 369 365 0
365 369 364 0
365 434 439 0
365 439 371 0
372 374 367 0
374 442 367 0
367 442 366 0
442 437 366 0
437 368 366 0
368 437 436 0
371 370 369 0
440 376 375 0
440 375 370 0
439 440 370 0
371 439 370 0
445 376 440 0
377 378 373 0
378 447 373 0
373 447 372 0
447 443 372 0
443 374 372 0
374 443 442 0
381 379 376 0
376 379 375 0
376 445 450 0
376 450 381 0
455 448 378 0
377 455 378 0
382 455 377 0
378 448 447 0
381 380 379 0
451 386 384 0
451 384 380 0
450 451 380 0
381 450 380 0
453 388 386 0
453 386 451 0
458 388 453 0
462 456 383 0
462 383 389 0
382 383 455 0
455 383 456 0
386 385 384 0
385 386 387 0
387 386 388 0
459 393 391 0
459 391 387 0
458 459 387 0
388 458 387 0
461 396 393 0
461 393 459 0
390 394 396 0
461 390 396 0
463 390 461 0
389 390 462 0
462 390 463 0
393 392 391 0
392 393 395 0
395 393 396 0
395 396 394 0
402 399 397 0
401 402 397 0
406 404 398 0
406 398 468 0
398 465 468 0
398 400 465 0
400 399 402 0
466 400 402 0
465 400 466 0
466 402 401 0
403 466 401 0
467 466 403 0
403 407 467 0
467 407 472 0
410 409 405 0
475 410 405 0
475 405 404 0
469 475 404 0
406 469 404 0
469 406 468 0
474 472 407 0
474 407 408 0
408 411 474 0
474 411 477 0
415 413 410 0
410 413 409 0
410 475 481 0
410 481 415 0
479 477 411 0
479 411 412 0
418 480 416 0
480 412 416 0
480 479 412 0
418 483 480 0
420 419 414 0
485 420 414 0
485 414 413 0
482 485 413 0
415 482 413 0
482 415 481 0
417 418 416 0
422 484 421 0
421 484 417 0
484 483 417 0
483 418 417 0
422 487 484 0
424 423 420 0
420 423 419 0
420 485 489 0
420 489 424 0
491 488 422 0
421 491 422 0
425 491 421 0
422 488 487 0
428 427 424 0
424 427 423 0
424 489 493 0
424 493 428 0
492 491 425 0
492 425 426 0
426 429 492 0
492 429 495 0
431 430 428 0
428 430 427 0
428 493 498 0
428 498 431 0
432 433 497 0
495 432 497 0
429 432 495 0
433 500 497 0
435 434 431 0
431 434 430 0
431 498 502 0
431 502 435 0
436 438 433 0
436 433 432 0
500 433 504 0
504 433 438 0
441 439 435 0
435 439 434 0
435 502 506 0
435 506 441 0
442 444 437 0
444 510 437 0
437 510 436 0
510 505 436 0
505 438 436 0
438 505 504 0
441 440 439 0
507 446 445 0
507 445 440 0
506 507 440 0
441 506 440 0
512 446 507 0
447 449 443 0
449 515 443 0
443 515 442 0
515 511 442 0
511 444 442 0
444 511 510 0
452 450 446 0
446 450 445 0
446 512 513 0
454 446 513 0
452 446 454 0
517 454 513 0
455 457 448 0
457 520 448 0
448 520 447 0
520 516 447 0
516 449 447 0
449 516 515 0
452 451 450 0
451 452 453 0
453 452 454 0
518 460 458 0
518 458 453 0
517 518 453 0
454 517 453 0
522 460 518 0
462 464 456 0
464 527 456 0
456 527 455 0
527 521 455 0
521 457 455 0
457 521 520 0
460 459 458 0
522 523 460 0
523 459 460 0
523 461 459 0
461 525 463 0
523 525 461 0
462 463 464 0
463 528 464 0
463 525 528 0
464 528 527 0
470 468 465 0
466 471 465 0
465 471 470 0
467 473 466 0
466 473 471 0
472 473 467 0
476 475 469 0
533 476 469 0
533 469 468 0
530 533 468 0
470 530 468 0
530 470 471 0
530 471 531 0
531 471 473 0
531 473 532 0
537 532 478 0
478 532 474 0
532 473 474 0
473 472 474 0
477 478 474 0
534 542 476 0
542 475 476 0
542 481 475 0
534 476 533 0
539 537 478 0
539 478 477 0
479 539 477 0
540 539 479 0
541 479 480 0
541 540 479 0
480 483 541 0
541 483 546 0
486 485 482 0
549 486 482 0
481 549 482 0
542 549 481 0
548 546 483 0
548 483 484 0
484 487 548 0
548 487 551 0
490 489 486 0
486 489 485 0
486 549 554 0
486 554 490 0
556 552 488 0
556 488 491 0
487 488 551 0
551 488 552 0
494 493 490 0
490 493 489 0
490 554 558 0
490 558 494 0
491 492 496 0
560 491 496 0
556 491 560 0
495 496 492 0
499 498 494 0
494 498 493 0
494 558 562 0
494 562 499 0
561 560 496 0
564 561 501 0
501 561 497 0
561 496 497 0
496 495 497 0
500 501 497 0
503 502 499 0
499 502 498 0
499 562 566 0
499 566 503 0
565 564 501 0
501 500 565 0
500 569 565 0
500 504 569 0
508 506 503 0
503 506 502 0
503 566 567 0
509 503 567 0
508 503 509 0
571 509 567 0
574 570 505 0
574 505 510 0
504 505 569 0
569 505 570 0
508 507 506 0
507 508 512 0
508 514 512 0
508 509 514 0
509 571 576 0
509 576 514 0
580 575 511 0
580 511 515 0
510 511 574 0
574 511 575 0
514 513 512 0
577 519 517 0
577 517 513 0
576 577 513 0
514 576 513 0
583 519 577 0
590 581 516 0
590 516 520 0
515 516 580 0
580 516 581 0
519 518 517 0
584 524 522 0
584 522 518 0
583 584 518 0
519 583 518 0
586 526 524 0
586 524 584 0
588 529 526 0
588 526 586 0
521 527 529 0
588 521 529 0
591 521 588 0
520 521 590 0
590 521 591 0
524 523 522 0
523 524 525 0
525 524 526 0
525 526 528 0
528 526 529 0
528 529 527 0
535 533 530 0
531 536 530 0
530 536 535 0
532 538 531 0
531 538 536 0
537 538 532 0
543 542 534 0
596 543 534 0
596 534 533 0
593 596 533 0
535 593 533 0
593 535 536 0
593 536 594 0
594 536 538 0
594 538 595 0
599 595 544 0
544 595 539 0
595 538 539 0
538 537 539 0
540 545 539 0
539 545 544 0
541 547 540 0
540 547 545 0
546 547 541 0
550 549 543 0
543 549 542 0
543 596 604 0
543 604 550 0
601 599 544 0
601 544 545 0
601 545 602 0
602 545 547 0
602 547 603 0
610 603 553 0
553 603 548 0
603 547 548 0
547 546 548 0
551 553 548 0
555 554 550 0
550 554 549 0
550 604 613 0
550 613 555 0
616 611 557 0
557 611 610 0
557 610 553 0
556 557 553 0
552 556 553 0
552 553 551 0
559 558 555 0
555 558 554 0
555 613 619 0
555 619 559 0
618 616 557 0
557 556 618 0
556 622 618 0
556 560 622 0
563 562 559 0
559 562 558 0
559 619 625 0
559 625 563 0
624 622 560 0
624 560 561 0
561 564 624 0
624 564 627 0
568 566 563 0
563 566 562 0
563 625 630 0
563 630 568 0
629 627 564 0
629 564 565 0
565 569 629 0
629 569 636 0
568 567 566 0
631 572 571 0
631 571 567 0
630 631 567 0
568 630 567 0
633 573 572 0
633 572 631 0
639 573 633 0
642 637 570 0
642 570 574 0
569 570 636 0
636 570 637 0
578 576 572 0
572 576 571 0
579 572 573 0
578 572 579 0
573 639 645 0
573 645 579 0
650 641 582 0
575 580 582 0
641 575 582 0
643 575 641 0
574 575 642 0
642 575 643 0
578 577 576 0
577 578 583 0
578 585 583 0
578 579 585 0
579 645 646 0
587 579 646 0
585 579 587 0
648 589 587 0
648 587 646 0
651 592 589 0
651 589 648 0
592 651 650 0
592 650 582 0
590 592 582 0
581 590 582 0
581 582 580 0
585 584 583 0
584 585 586 0
586 585 587 0
586 587 588 0
588 587 589 0
588 589 591 0
591 589 592 0
591 592 590 0
597 596 593 0
594 598 593 0
593 598 597 0
595 600 594 0
594 600 598 0
599 600 595 0
605 604 597 0
597 604 596 0
606 597 598 0
605 597 606 0
607 598 600 0
606 598 607 0
601 608 599 0
608 600 599 0
608 607 600 0
602 609 601 0
601 609 608 0
603 612 602 0
602 612 609 0
610 612 603 0
614 613 605 0
605 613 604 0
615 605 606 0
614 605 615 0
607 653 655 0
615 607 655 0
606 607 615 0
653 607 608 0
653 608 654 0
617 657 654 0
608 617 654 0
609 617 608 0
616 617 611 0
617 612 611 0
617 609 612 0
611 612 610 0
620 619 614 0
614 619 613 0
621 614 615 0
620 614 621 0
615 655 660 0
615 660 621 0
659 657 617 0
664 659 623 0
623 659 618 0
659 617 618 0
617 616 618 0
622 623 618 0
626 625 620 0
620 625 619 0
621 661 667 0
626 621 667 0
620 621 626 0
661 621 660 0
666 664 623 0
673 666 628 0
628 666 624 0
666 623 624 0
623 622 624 0
627 628 624 0
632 630 626 0
626 630 625 0
626 667 668 0
634 626 668 0
632 626 634 0
670 635 634 0
670 634 668 0
676 635 670 0
675 673 628 0
679 675 638 0
638 675 629 0
675 628 629 0
628 627 629 0
636 638 629 0
632 631 630 0
631 632 633 0
633 632 634 0
633 634 639 0
634 640 639 0
634 635 640 0
635 676 682 0
635 682 640 0
687 680 644 0
644 680 679 0
644 679 638 0
642 644 638 0
637 642 638 0
637 638 636 0
647 645 640 0
640 645 639 0
640 682 683 0
649 640 683 0
647 640 649 0
685 652 649 0
685 649 683 0
641 650 652 0
685 641 652 0
688 641 685 0
644 643 687 0
643 688 687 0
643 641 688 0
643 644 642 0
647 646 645 0
646 647 648 0
648 647 649 0
648 649 651 0
651 649 652 0
651 652 650 0
656 655 653 0
654 658 653 0
653 658 656 0
657 658 654 0
662 660 656 0
656 660 655 0
663 656 658 0
662 656 663 0
659 665 657 0
665 658 657 0
665 663 658 0
664 665 659 0
669 667 661 0
660 662 661 0
662 669 661 0
662 671 669 0
663 690 691 0
671 663 691 0
662 663 671 0
672 692 690 0
663 672 690 0
665 672 663 0
666 674 664 0
674 665 664 0
674 672 665 0
673 674 666 0
669 668 667 0
668 669 670 0
670 669 671 0
693 677 676 0
693 676 670 0
691 693 670 0
671 691 670 0
677 693 692 0
672 677 692 0
678 677 672 0
674 695 696 0
678 674 696 0
672 674 678 0
697 695 681 0
681 695 675 0
695 674 675 0
674 673 675 0
679 681 675 0
684 682 677 0
677 682 676 0
686 677 678 0
684 677 686 0
678 696 698 0
689 678 698 0
686 678 689 0
689 698 697 0
689 697 681 0
687 689 681 0
680 687 681 0
680 681 679 0
684 683 682 0
683 684 685 0
685 684 686 0
685 686 688 0
688 686 689 0
688 689 687 0
694 691 690 0
692 694 690 0
694 693 691 0
693 694 692 0
699 696 695 0
697 699 695 0
699 698 696 0
698 699 697 0
