#!ascii version in FreeSurfer format (SUMA)
732 1460
4.700531  -59.028015  -30.646591  0
4.263287  -59.004505  -30.580601  0
5.659169  -59.467915  -30.623648  0
5.166375  -59.339344  -30.709393  0
4.745446  -59.466095  -30.752247  0
4.371336  -59.392876  -30.654690  0
5.740266  -59.936966  -30.663029  0
5.292680  -59.852718  -30.752859  0
4.918106  -59.764946  -30.776865  0
4.508737  -59.890377  -30.678726  0
5.759459  -60.430180  -30.672071  0
5.339192  -60.358635  -30.766327  0
4.782189  -60.321426  -30.720814  0
5.732703  -60.888809  -30.643410  0
5.366611  -60.843025  -30.738815  0
4.985191  -60.772469  -30.751110  0
4.505868  -60.983295  -30.563400  0
5.401183  -61.256008  -30.649748  0
4.941529  -61.270691  -30.637289  0
5.672111  -57.978161  -30.107761  0
5.162016  -57.949955  -30.083296  0
6.154259  -58.345898  -30.127090  0
5.729746  -58.367676  -30.272293  0
5.369075  -58.217133  -30.258188  0
4.874002  -58.663254  -30.491646  0
4.830709  -58.295551  -30.248985  0
4.354574  -58.624298  -30.362852  0
4.408803  -58.336533  -30.158669  0
6.439922  -58.848797  -30.155655  0
5.937250  -59.197517  -30.466270  0
5.952744  -58.786900  -30.336634  0
5.145016  -58.908283  -30.593182  0
5.562251  -59.030884  -30.540646  0
5.366461  -58.592800  -30.415255  0
4.006382  -58.890636  -30.409788  0
3.755043  -59.049870  -30.212843  0
6.707078  -59.314857  -30.121662  0
6.067270  -59.571274  -30.491224  0
6.287672  -59.219471  -30.316542  0
3.999572  -59.253929  -30.480070  0
3.753442  -59.468277  -30.215731  0
6.791031  -59.857624  -30.144629  0
6.128624  -60.045868  -30.513943  0
6.440357  -59.685997  -30.324137  0
4.037616  -59.807728  -30.377874  0
4.235236  -60.168869  -30.479422  0
3.769985  -59.762695  -30.126179  0
6.787579  -60.382080  -30.151840  0
6.095635  -60.554909  -30.520264  0
6.463643  -60.211208  -30.340448  0
4.404318  -60.288322  -30.592867  0
4.245473  -60.604923  -30.429703  0
4.218664  -60.381302  -30.436337  0
6.778718  -60.850288  -30.102808  0
5.975609  -60.983326  -30.516287  0
6.361462  -60.821724  -30.334959  0
5.711130  -61.225887  -30.576599  0
4.035049  -61.006161  -30.221128  0
4.221736  -61.272396  -30.347185  0
3.814597  -60.939171  -30.001825  0
6.417670  -61.362709  -30.179379  0
5.517238  -61.507584  -30.519331  0
5.913357  -61.392540  -30.397943  0
5.159352  -61.630123  -30.504543  0
4.479964  -61.485222  -30.377165  0
4.802499  -61.682587  -30.425592  0
4.220199  -61.454681  -30.222872  0
6.349478  -61.774483  -30.096581  0
5.992736  -61.819054  -30.165226  0
5.453109  -61.851273  -30.265289  0
4.960468  -61.925262  -30.218266  0
5.731230  -57.690380  -29.954130  0
5.793168  -57.467529  -29.743275  0
5.354156  -57.608433  -29.837215  0
5.431144  -57.364693  -29.660084  0
6.725801  -57.831070  -29.582088  0
6.045638  -57.867474  -29.966015  0
6.427368  -58.142246  -29.927887  0
6.372454  -57.762287  -29.739824  0
4.969464  -57.770004  -29.860863  0
4.738438  -57.990063  -29.947456  0
4.700512  -57.826942  -29.685686  0
4.466504  -58.183121  -29.999426  0
6.619764  -58.549923  -29.977335  0
6.831445  -58.266998  -29.714960  0
4.139171  -58.366268  -29.901953  0
3.887545  -58.698162  -30.096643  0
7.197420  -58.711304  -29.611038  0
6.763695  -58.932644  -30.013351  0
6.975097  -59.162827  -29.931843  0
6.962981  -58.806179  -29.837889  0
3.654259  -58.877777  -29.875288  0
7.061356  -59.558578  -29.936745  0
7.258452  -59.211609  -29.705927  0
3.595183  -59.222588  -29.881256  0
7.103502  -60.057800  -29.949533  0
7.360440  -59.774376  -29.714014  0
3.636638  -59.625484  -29.866711  0
3.787957  -60.004921  -29.838137  0
7.079619  -60.525223  -29.951323  0
7.363701  -60.275555  -29.724609  0
3.991190  -60.382900  -30.114777  0
3.891768  -60.765701  -30.072006  0
7.030286  -60.826283  -29.945362  0
7.281786  -60.753719  -29.725864  0
6.928596  -61.153484  -29.912426  0
3.750343  -60.890690  -29.842054  0
3.831161  -61.078300  -29.814634  0
6.642097  -61.590881  -29.996983  0
6.963509  -61.471531  -29.770016  0
4.054472  -61.318085  -30.038946  0
4.273650  -61.620750  -29.913397  0
6.493622  -61.848335  -29.994835  0
6.751047  -61.821068  -29.789288  0
6.282691  -62.098083  -29.893509  0
5.658338  -62.207584  -29.871424  0
5.135754  -62.135902  -29.876116  0
4.605372  -61.838696  -30.109068  0
4.782400  -62.051960  -29.878380  0
6.367922  -62.405323  -29.614649  0
5.992080  -62.439392  -29.656855  0
6.571441  -56.883785  -29.113878  0
6.163936  -56.765518  -29.101439  0
5.792765  -57.152046  -29.438906  0
5.794699  -56.867603  -29.154259  0
5.484574  -57.230175  -29.512766  0
6.796323  -57.673992  -29.453484  0
6.846054  -57.400642  -29.255728  0
6.153721  -57.379436  -29.574749  0
6.538021  -57.516251  -29.506159  0
6.267758  -57.118511  -29.329235  0
5.166810  -57.344883  -29.409815  0
4.911756  -57.624290  -29.561455  0
7.020976  -57.965382  -29.422197  0
7.262879  -57.804958  -29.145102  0
4.572537  -57.827175  -29.313658  0
4.385184  -58.057552  -29.623545  0
7.177826  -58.394386  -29.497963  0
7.339106  -58.616100  -29.445990  0
7.427604  -58.386116  -29.250601  0
4.037385  -58.302849  -29.359375  0
3.799269  -58.597855  -29.613848  0
7.497170  -58.941208  -29.397266  0
7.755664  -58.810513  -29.114145  0
3.620746  -58.938534  -29.471588  0
7.589484  -59.512684  -29.448738  0
7.825498  -59.288254  -29.182018  0
3.574157  -59.357502  -29.467793  0
7.622396  -60.031151  -29.467382  0
7.870500  -59.796692  -29.209908  0
3.647127  -59.742073  -29.461203  0
3.760840  -60.018578  -29.346231  0
3.723834  -59.781517  -29.119471  0
7.582241  -60.496162  -29.476820  0
7.854256  -60.288639  -29.217569  0
3.867165  -60.438057  -29.397686  0
3.793874  -60.719601  -29.729988  0
7.510540  -60.801346  -29.483646  0
7.758646  -60.758442  -29.221899  0
7.366181  -61.148598  -29.488947  0
3.740409  -60.925636  -29.626190  0
3.829640  -61.049839  -29.463261  0
3.804148  -60.839081  -29.425966  0
7.129038  -61.599800  -29.532213  0
7.450954  -61.457859  -29.226212  0
4.019138  -61.341148  -29.522299  0
4.270166  -61.686684  -29.351032  0
6.979649  -61.859764  -29.550413  0
7.229604  -61.826237  -29.248840  0
6.776333  -62.164249  -29.510176  0
5.306513  -62.308781  -29.393854  0
4.521676  -61.920738  -29.629881  0
4.849510  -62.118099  -29.456757  0
6.577327  -62.487411  -29.380095  0
6.843139  -62.419376  -29.187349  0
6.248960  -62.593113  -29.328213  0
5.662088  -62.452576  -29.529604  0
5.886779  -62.566135  -29.369455  0
6.687348  -56.667805  -28.952900  0
6.736956  -56.432507  -28.699955  0
6.364262  -56.561668  -28.929241  0
6.171821  -56.317406  -28.689039  0
5.845152  -56.531376  -28.831242  0
5.882178  -56.299866  -28.647501  0
7.663839  -56.861340  -28.590801  0
6.989272  -56.928444  -28.952700  0
7.264832  -56.678276  -28.687780  0
5.494768  -56.767628  -28.902754  0
5.382127  -57.042858  -29.169889  0
5.246595  -56.922295  -28.771490  0
7.909744  -57.339287  -28.628641  0
7.213339  -57.388638  -29.024504  0
7.461420  -57.637936  -28.945587  0
7.473846  -57.212490  -28.808765  0
5.017357  -57.260700  -28.842419  0
4.795165  -57.577293  -29.094444  0
8.258529  -57.896961  -28.622208  0
7.602766  -58.053734  -28.984600  0
7.778605  -57.737457  -28.795799  0
4.504191  -57.953522  -28.769299  0
4.261061  -58.094063  -29.116425  0
8.609542  -58.360367  -28.589054  0
8.306224  -58.320351  -28.698574  0
7.743095  -58.449680  -29.008835  0
7.973022  -58.672806  -28.925501  0
7.994086  -58.272938  -28.820860  0
4.051303  -58.293106  -29.019819  0
4.177051  -58.301052  -28.752068  0
3.867857  -58.599117  -29.015282  0
8.733592  -58.886269  -28.626074  0
8.074330  -59.057949  -28.957745  0
8.314240  -58.702175  -28.772163  0
3.677257  -59.070198  -29.038179  0
3.865519  -58.888069  -28.687109  0
8.791400  -59.390621  -28.642517  0
8.139026  -59.542450  -28.984312  0
8.431312  -59.236328  -28.799994  0
3.659590  -59.473896  -29.086426  0
3.801522  -59.599167  -28.842627  0
3.815518  -59.246376  -28.719458  0
8.817066  -59.814117  -28.599476  0
8.153754  -60.037735  -28.979023  0
8.474863  -59.729332  -28.793385  0
3.902855  -59.972881  -28.920261  0
8.092042  -60.505154  -28.967621  0
8.493792  -60.232449  -28.711523  0
4.069721  -60.411758  -28.823633  0
4.252881  -60.316341  -28.499813  0
7.999654  -60.810268  -28.964544  0
8.283843  -60.750286  -28.715508  0
7.855734  -61.130043  -28.951078  0
4.020044  -60.979992  -29.101603  0
4.272106  -60.752922  -28.610455  0
7.657543  -61.582493  -28.861372  0
7.991202  -61.349358  -28.637672  0
4.164769  -61.447075  -29.107246  0
4.307434  -61.642017  -29.026596  0
4.374945  -61.389763  -28.752432  0
7.435735  -61.923195  -28.868378  0
7.140091  -62.182167  -29.049152  0
5.425230  -62.324734  -28.873091  0
4.544482  -61.852379  -29.076162  0
4.996208  -62.083324  -28.890856  0
4.695199  -61.750576  -28.635380  0
7.052470  -62.457134  -28.790413  0
6.637851  -62.598812  -28.985046  0
6.336849  -62.650017  -28.980721  0
5.645657  -62.494316  -29.170118  0
6.027147  -62.587208  -28.973389  0
5.731668  -62.460464  -28.810715  0
6.843586  -56.158260  -28.274334  0
6.388540  -56.191132  -28.444723  0
5.999860  -56.212955  -28.446680  0
7.754856  -56.645954  -28.438814  0
7.790002  -56.426189  -28.195772  0
7.141678  -56.348072  -28.499640  0
7.499914  -56.490997  -28.468508  0
7.313822  -56.248585  -28.285223  0
5.740815  -56.351215  -28.541813  0
5.820496  -56.317848  -28.238354  0
5.491805  -56.630718  -28.479141  0
8.027788  -56.943882  -28.424767  0
8.323811  -56.764412  -28.173649  0
5.171163  -57.049809  -28.375444  0
5.403543  -56.797768  -28.134121  0
8.716047  -57.167599  -28.134893  0
8.241033  -57.427284  -28.501162  0
8.513340  -57.687092  -28.454473  0
8.463498  -57.293884  -28.342115  0
4.935703  -57.439365  -28.367277  0
4.761278  -57.642559  -28.602985  0
8.642772  -57.992275  -28.488237  0
8.819429  -58.170879  -28.455885  0
8.884962  -57.820553  -28.286570  0
4.671335  -58.004620  -28.289934  0
4.821096  -57.737041  -28.246904  0
9.001553  -58.485172  -28.418053  0
9.270912  -58.265659  -28.172245  0
4.417848  -58.400105  -28.319502  0
4.090778  -58.639790  -28.518480  0
9.089015  -59.065899  -28.460384  0
9.354658  -58.769741  -28.227755  0
4.049016  -59.023739  -28.420965  0
4.275776  -58.802422  -28.231352  0
9.087824  -59.530361  -28.463589  0
9.375480  -59.290462  -28.233511  0
4.037910  -59.516315  -28.511522  0
4.293482  -59.200985  -28.171581  0
9.046471  -59.813400  -28.450285  0
9.276219  -59.785221  -28.212118  0
8.941115  -60.116268  -28.406647  0
4.153574  -59.983639  -28.528858  0
4.342731  -60.065346  -28.299746  0
4.320224  -59.683758  -28.218454  0
8.673948  -60.528873  -28.460020  0
8.967972  -60.426960  -28.212389  0
4.430985  -60.426567  -28.288929  0
8.522914  -60.800415  -28.463108  0
8.769803  -60.771351  -28.191994  0
8.325257  -61.092354  -28.455606  0
4.554066  -60.975651  -28.322319  0
4.756721  -60.888840  -28.060011  0
8.151606  -61.353394  -28.441938  0
8.313777  -61.394630  -28.198332  0
7.976810  -61.580486  -28.445604  0
4.635450  -61.454956  -28.433941  0
4.777046  -61.635929  -28.400047  0
4.878233  -61.372971  -28.194267  0
7.680407  -61.831165  -28.598396  0
7.877940  -61.899368  -28.268343  0
7.481004  -62.191711  -28.516706  0
5.639664  -62.295227  -28.559690  0
5.730697  -62.043350  -28.199867  0
4.976578  -61.815033  -28.441832  0
5.334436  -62.082821  -28.499983  0
5.267731  -61.741528  -28.188215  0
7.268137  -62.495335  -28.388296  0
7.533364  -62.421864  -28.138802  0
6.948544  -62.601299  -28.451519  0
5.969730  -62.411980  -28.529263  0
6.450447  -62.562996  -28.514032  0
6.187412  -62.285469  -28.175837  0
7.891956  -56.182529  -27.720036  0
7.262914  -56.123657  -27.929842  0
6.787212  -56.076103  -27.970636  0
6.321068  -56.151596  -28.077765  0
8.176674  -56.415359  -27.990265  0
8.397701  -56.548466  -27.998705  0
8.417269  -56.422722  -27.746822  0
5.986661  -56.285866  -27.976269  0
6.244449  -56.294090  -27.735023  0
5.757776  -56.540192  -27.941452  0
8.613282  -56.762123  -27.975824  0
8.838186  -57.021698  -27.960741  0
8.873434  -56.814922  -27.682297  0
5.522436  -56.789913  -27.919966  0
5.755466  -56.805546  -27.672230  0
5.404035  -57.034782  -27.901314  0
9.061227  -57.394279  -27.951311  0
9.248725  -57.240185  -27.612659  0
5.132785  -57.369194  -28.025953  0
5.391710  -57.352074  -27.677084  0
9.241339  -57.894348  -28.053818  0
9.407509  -58.119793  -28.006166  0
9.462910  -57.833328  -27.791220  0
4.965858  -57.647396  -28.056248  0
5.190241  -57.719093  -27.693213  0
4.900903  -57.993103  -27.920374  0
9.564586  -58.440769  -27.959473  0
9.786168  -58.242939  -27.669510  0
4.712618  -58.378330  -27.954147  0
4.927952  -58.349026  -27.692991  0
9.643475  -59.015354  -27.983685  0
9.870335  -58.738144  -27.741091  0
4.552321  -58.861233  -27.956152  0
4.850338  -58.710228  -27.662947  0
9.651158  -59.557762  -27.861584  0
9.915866  -59.203262  -27.711782  0
4.548945  -59.433601  -27.921787  0
4.802992  -59.193855  -27.647303  0
9.480933  -60.036987  -27.800951  0
9.216723  -60.192863  -28.060837  0
4.561805  -60.016495  -28.013994  0
4.813453  -59.741936  -27.677258  0
9.138828  -60.546654  -27.894670  0
9.361252  -60.334549  -27.752481  0
4.650350  -60.536804  -28.046850  0
4.805362  -60.668480  -27.922096  0
4.908054  -60.384483  -27.748444  0
8.969128  -60.868057  -27.837524  0
8.666300  -61.133545  -27.991301  0
5.005658  -60.962410  -27.889948  0
5.303998  -60.854855  -27.622324  0
8.548435  -61.537621  -27.739458  0
8.178214  -61.698822  -28.074455  0
5.777339  -61.773026  -27.920677  0
5.757916  -61.435741  -27.657572  0
5.191416  -61.393738  -27.986185  0
5.515997  -61.614342  -27.944775  0
5.345209  -61.249432  -27.807041  0
8.057426  -61.921268  -28.012253  0
8.245544  -61.907097  -27.756502  0
7.881703  -62.191395  -27.944120  0
6.031541  -61.960087  -27.917768  0
6.284513  -62.165970  -27.930456  0
6.298679  -61.950935  -27.632912  0
7.682015  -62.466888  -27.848911  0
7.895527  -62.393925  -27.616665  0
7.347842  -62.577011  -27.991203  0
6.501111  -62.349865  -27.975462  0
6.925933  -62.554134  -27.952084  0
6.730095  -62.312374  -27.613659  0
8.213784  -56.192223  -27.314501  0
7.861274  -56.078075  -27.380844  0
7.438944  -56.105965  -27.423750  0
6.778226  -56.141621  -27.666716  0
8.609680  -56.430359  -27.395247  0
8.875690  -56.616024  -27.237261  0
7.460817  -56.206051  -27.058039  0
6.543029  -56.296249  -27.485079  0
6.939549  -56.313179  -27.239031  0
6.264199  -56.557171  -27.440506  0
9.113611  -56.891354  -27.389605  0
9.335400  -57.137035  -27.258678  0
6.007740  -56.825611  -27.418943  0
6.278007  -56.841099  -27.177103  0
5.811316  -57.099300  -27.397638  0
9.502644  -57.486725  -27.468885  0
5.594662  -57.555538  -27.285912  0
5.934774  -57.311451  -27.070215  0
9.731059  -57.839756  -27.476164  0
9.910283  -58.114086  -27.478392  0
9.980905  -57.941063  -27.228399  0
5.384826  -58.005966  -27.290154  0
5.121026  -58.151752  -27.547932  0
10.064390  -58.431774  -27.459095  0
10.268861  -58.256531  -27.149227  0
5.085353  -58.538811  -27.447561  0
5.278459  -58.355988  -27.281572  0
10.120048  -58.950176  -27.519924  0
10.324183  -58.701199  -27.253738  0
5.059283  -58.979122  -27.399572  0
5.293569  -58.739723  -27.185572  0
10.100557  -59.254730  -27.520250  0
10.278829  -59.194912  -27.259380  0
9.999392  -59.543846  -27.462769  0
5.063056  -59.491760  -27.399738  0
5.309883  -59.245655  -27.155512  0
9.758885  -60.001282  -27.407536  0
9.991300  -59.865318  -27.186928  0
5.105838  -60.018543  -27.446985  0
5.380626  -59.812023  -27.168764  0
9.512711  -60.437016  -27.394295  0
9.326235  -60.566589  -27.594585  0
5.633811  -60.210285  -27.064116  0
5.204749  -60.430920  -27.488194  0
5.423016  -60.636871  -27.399744  0
5.392418  -60.297291  -27.286604  0
9.171391  -60.779568  -27.625256  0
9.305687  -60.832222  -27.345016  0
8.986105  -61.162823  -27.504215  0
5.595529  -60.939411  -27.438984  0
5.832819  -61.107342  -27.331806  0
5.689045  -60.668732  -27.201448  0
8.833919  -61.595234  -27.263803  0
9.054746  -61.405632  -27.144854  0
6.079336  -61.453606  -27.330320  0
6.341616  -61.731853  -27.239870  0
8.529428  -61.883076  -27.346851  0
8.168466  -62.180939  -27.405985  0
6.578489  -62.040012  -27.350075  0
6.953857  -62.235291  -27.230610  0
7.917655  -62.397755  -27.345388  0
7.669081  -62.530056  -27.594147  0
7.643553  -62.447628  -27.266533  0
7.066263  -62.480068  -27.528334  0
7.348449  -62.567631  -27.590574  0
7.304510  -62.445015  -27.299482  0
8.181393  -56.205250  -26.944345  0
7.840785  -56.128841  -27.086653  0
8.519934  -56.399368  -26.947466  0
8.859877  -56.623913  -26.911160  0
8.249264  -56.317589  -26.761106  0
7.666123  -56.236053  -26.889898  0
7.924324  -56.319786  -26.751743  0
7.358301  -56.470909  -26.797974  0
6.725321  -56.637318  -27.022320  0
9.099547  -56.822243  -27.063402  0
9.276875  -57.082130  -26.819790  0
8.992179  -56.808590  -26.762064  0
7.353531  -56.777264  -26.510838  0
6.564155  -56.851627  -26.934416  0
6.891395  -56.859684  -26.701471  0
6.314659  -57.095852  -26.910067  0
9.634673  -57.473576  -27.113134  0
9.909012  -57.647587  -26.816599  0
6.102183  -57.316364  -26.872776  0
6.269768  -57.369492  -26.671347  0
5.931827  -57.556274  -26.859425  0
10.174982  -57.930511  -26.947018  0
10.386775  -58.137505  -26.817801  0
5.672327  -57.923306  -26.955273  0
5.911586  -57.869827  -26.676695  0
10.459731  -58.467178  -26.999392  0
5.522628  -58.410183  -26.986437  0
5.811142  -58.233772  -26.677658  0
10.514898  -58.848717  -26.937229  0
5.535469  -58.976063  -26.923487  0
5.771163  -58.726265  -26.674353  0
10.472961  -59.318092  -26.815895  0
10.211049  -59.619598  -27.062794  0
5.586036  -59.511955  -26.929241  0
5.804006  -59.268589  -26.682510  0
10.088508  -60.013229  -26.804892  0
9.895376  -60.129021  -27.043451  0
5.651103  -59.907627  -26.957584  0
5.777264  -60.110611  -26.907026  0
5.893667  -59.872673  -26.730280  0
9.737240  -60.452560  -26.935266  0
9.916448  -60.300484  -26.762386  0
5.926175  -60.429245  -26.879416  0
6.182211  -60.290844  -26.579187  0
9.477969  -60.911961  -26.895582  0
9.223030  -61.186523  -27.100483  0
6.053180  -61.039970  -27.033882  0
6.262374  -60.790352  -26.673492  0
9.157623  -61.409405  -26.969711  0
9.273584  -61.355480  -26.752630  0
9.045731  -61.619812  -26.869123  0
6.229486  -61.443588  -27.077282  0
6.368435  -61.605247  -27.023342  0
6.423949  -61.369904  -26.790594  0
8.784190  -61.878315  -26.942255  0
8.959474  -61.855221  -26.621714  0
8.473491  -62.073814  -26.950623  0
8.002896  -62.200287  -26.923111  0
7.666502  -61.988010  -26.605705  0
7.411942  -62.219841  -26.963522  0
7.221244  -61.902428  -26.642397  0
6.609179  -61.838718  -27.021551  0
6.984091  -62.016987  -26.894091  0
6.804031  -61.711536  -26.690758  0
8.234600  -56.579185  -26.555220  0
7.739910  -56.643887  -26.500696  0
9.237105  -57.184502  -26.462410  0
8.686948  -56.696602  -26.627119  0
8.943899  -56.982269  -26.493919  0
8.450192  -57.000824  -26.288593  0
7.516963  -56.936825  -26.345034  0
7.889678  -56.954414  -26.293270  0
7.122088  -57.075386  -26.400307  0
6.659811  -57.204540  -26.540234  0
9.558990  -57.355637  -26.631710  0
9.773425  -57.554600  -26.291712  0
9.380009  -57.346355  -26.278658  0
8.930991  -57.243591  -26.162544  0
8.448706  -57.308220  -26.030594  0
7.941382  -57.353146  -26.068529  0
7.365527  -57.323174  -26.205370  0
6.472039  -57.475513  -26.440313  0
6.824106  -57.432335  -26.312937  0
6.171508  -57.666035  -26.541182  0
10.169253  -57.818993  -26.576202  0
10.434789  -58.083843  -26.369139  0
7.383361  -57.763161  -26.010365  0
6.861534  -57.794102  -26.179350  0
6.104380  -58.031887  -26.457371  0
6.455226  -57.762527  -26.329739  0
10.577408  -58.465508  -26.647673  0
6.844442  -58.276917  -26.067560  0
6.051405  -58.483616  -26.436911  0
6.413860  -58.182373  -26.263865  0
10.718280  -58.978588  -26.403744  0
10.889684  -58.817345  -26.056408  0
6.682594  -58.818336  -26.059095  0
6.054802  -59.002327  -26.435690  0
6.373565  -58.686768  -26.236111  0
10.577787  -59.527287  -26.357492  0
10.351072  -59.736862  -26.640833  0
6.102651  -59.531136  -26.460787  0
6.430522  -59.282078  -26.192732  0
10.229136  -60.069355  -26.345274  0
10.425916  -59.853516  -26.267967  0
6.677623  -59.758732  -26.072906  0
6.179209  -59.934223  -26.478846  0
6.386202  -60.178558  -26.369722  0
6.398860  -59.828968  -26.282547  0
10.012306  -60.331745  -26.408579  0
9.851040  -60.525341  -26.531200  0
6.477867  -60.565765  -26.397703  0
6.747836  -60.315662  -26.157495  0
9.685121  -60.812241  -26.431622  0
7.205047  -60.927567  -26.092163  0
6.574928  -61.031059  -26.458843  0
6.771518  -60.808971  -26.257250  0
9.445625  -61.233299  -26.313801  0
9.159421  -61.624241  -26.366316  0
9.313952  -61.450375  -26.100626  0
7.747717  -61.794247  -26.377579  0
7.746836  -61.476948  -26.141718  0
7.456222  -61.710178  -26.388350  0
7.268930  -61.392406  -26.247581  0
6.721803  -61.398727  -26.503462  0
7.044861  -61.576603  -26.434364  0
6.913188  -61.201580  -26.302023  0
8.925803  -61.884239  -26.361885  0
8.740241  -61.998093  -26.596355  0
8.674192  -61.901749  -26.249437  0
8.014049  -61.911118  -26.440222  0
8.407939  -62.029293  -26.534931  0
8.285420  -61.768429  -26.171906  0
9.765953  -57.650951  -25.746758  0
9.279310  -57.487404  -25.884377  0
8.677136  -57.466434  -25.835627  0
8.231936  -57.490173  -25.878590  0
7.852563  -57.657909  -25.859257  0
10.138182  -57.803905  -26.056017  0
10.423115  -58.088791  -25.815399  0
7.582540  -57.837265  -25.855404  0
7.810061  -57.855408  -25.681479  0
7.383944  -58.100395  -25.810114  0
10.693476  -58.466969  -26.102207  0
10.902055  -58.709076  -25.715248  0
7.041998  -58.548737  -25.882111  0
7.387052  -58.397442  -25.652771  0
11.001362  -59.006405  -25.768486  0
10.916394  -59.089951  -26.027435  0
6.900587  -58.922081  -25.909510  0
7.220703  -58.826256  -25.684633  0
6.710767  -59.151505  -26.008047  0
10.788030  -59.436115  -25.919085  0
10.968483  -59.266426  -25.749865  0
7.290382  -59.257408  -25.614481  0
6.713133  -59.429363  -26.004095  0
6.911630  -59.656540  -25.905207  0
6.981883  -59.282906  -25.838209  0
10.539431  -59.820908  -25.900200  0
10.337642  -60.063759  -25.977102  0
7.012611  -60.047016  -25.923342  0
7.282700  -59.775372  -25.689613  0
10.095365  -60.345798  -25.859306  0
9.855000  -60.631088  -26.077793  0
7.634168  -60.254837  -25.562136  0
7.152641  -60.464203  -25.959129  0
7.441070  -60.723351  -25.883318  0
7.388378  -60.349232  -25.781870  0
9.596886  -60.973312  -25.839293  0
9.348942  -61.281769  -25.848661  0
7.622032  -61.039890  -25.930779  0
7.843409  -61.203537  -25.901079  0
7.840177  -60.859745  -25.701328  0
9.122814  -61.502773  -25.913292  0
8.902066  -61.723808  -26.063646  0
8.768296  -61.455441  -25.717348  0
8.117412  -61.395741  -25.893364  0
8.542269  -61.634415  -25.927551  0
8.343304  -61.266560  -25.658358  0
9.742853  -57.731865  -25.381571  0
9.394400  -57.658821  -25.446785  0
8.857412  -57.641018  -25.512606  0
8.267747  -57.676243  -25.634285  0
10.054144  -57.896648  -25.452055  0
10.374721  -58.136024  -25.393387  0
9.797081  -57.839046  -25.217123  0
9.510980  -57.826004  -25.144955  0
9.023362  -57.822777  -25.155005  0
8.067189  -57.852730  -25.487446  0
8.413898  -57.875801  -25.274658  0
7.821743  -58.111645  -25.425219  0
10.630576  -58.433929  -25.429037  0
10.886296  -58.768375  -25.309921  0
10.421151  -58.274441  -25.207232  0
7.578944  -58.534634  -25.405764  0
7.873834  -58.372116  -25.156696  0
11.019048  -58.981750  -25.405277  0
10.953923  -58.992165  -25.083372  0
7.510865  -58.989014  -25.403418  0
7.786345  -58.735390  -25.137243  0
11.005486  -59.263203  -25.408932  0
10.889989  -59.486149  -25.476690  0
7.538617  -59.500126  -25.422119  0
7.776021  -59.249039  -25.155613  0
10.639739  -59.787724  -25.346575  0
10.314303  -60.126869  -25.468662  0
7.605524  -59.911266  -25.455904  0
7.758541  -60.141350  -25.395487  0
7.870700  -59.901108  -25.209383  0
10.040640  -60.386906  -25.343838  0
9.775751  -60.628574  -25.424610  0
9.898924  -60.446976  -25.131466  0
7.969653  -60.483376  -25.368307  0
8.262983  -60.406731  -25.077604  0
9.483378  -60.894707  -25.376856  0
9.353827  -61.094555  -25.526331  0
9.166175  -60.924202  -25.216082  0
9.020854  -61.212463  -25.509504  0
8.690273  -60.829540  -25.153370  0
8.197392  -60.929192  -25.459780  0
8.555499  -61.117435  -25.426998  0
8.320022  -60.784267  -25.268896  0
9.730812  -58.073544  -24.995924  0
9.186667  -58.068359  -24.888023  0
8.670406  -58.074760  -24.923967  0
8.199592  -58.174965  -25.038208  0
10.172254  -58.193027  -25.099251  0
10.368146  -58.475124  -24.971785  0
9.890574  -58.502197  -24.729631  0
9.308170  -58.433201  -24.692915  0
8.792726  -58.376766  -24.719828  0
8.093479  -58.509995  -24.919161  0
8.413290  -58.332832  -24.808891  0
10.648733  -58.860195  -24.884939  0
10.893064  -59.156258  -24.844238  0
10.229797  -58.742485  -24.656607  0
9.889812  -58.857559  -24.483862  0
9.390310  -58.895947  -24.493362  0
8.840177  -58.816467  -24.603554  0
8.052228  -58.961109  -24.900606  0
8.401818  -58.679256  -24.730816  0
10.997139  -59.224125  -25.059185  0
10.806919  -59.521431  -24.968397  0
10.899282  -59.331345  -24.815056  0
8.900125  -59.389351  -24.517920  0
8.079023  -59.510178  -24.923756  0
8.409108  -59.187302  -24.706102  0
10.523529  -59.827465  -24.843712  0
10.366861  -60.022999  -25.008484  0
10.194209  -59.941246  -24.654564  0
10.039812  -60.228783  -24.972757  0
9.689281  -60.035084  -24.591536  0
9.132830  -59.856865  -24.515343  0
8.766157  -59.822895  -24.594883  0
8.173751  -59.976562  -24.941851  0
8.409698  -60.196423  -24.852093  0
8.452004  -59.772312  -24.729752  0
9.684181  -60.419460  -24.940405  0
9.399352  -60.669888  -25.059813  0
9.261295  -60.326580  -24.745340  0
8.593513  -60.483437  -24.912060  0
8.969597  -60.609028  -24.924746  0
8.763679  -60.185127  -24.720829  0
10.194883  -59.096783  -24.455145  0
9.681699  -59.125610  -24.342560  0
9.309910  -59.241798  -24.364471  0
10.638980  -59.311584  -24.626488  0
10.435679  -59.651093  -24.558205  0
10.249359  -59.436928  -24.374640  0
10.002076  -59.693230  -24.386858  0
9.859303  -59.385719  -24.292320  0
9.238967  -59.493244  -24.367805  0
9.548040  -59.637501  -24.347542  0
9.500128  -59.363533  -24.291025  0
24 31 0 0
1 26 0 0
0 26 24 0
1 34 26 0
29 37 2 0
3 32 2 0
2 32 29 0
32 3 31 0
3 0 31 0
3 4 0 0
0 5 1 0
0 4 5 0
34 1 39 0
39 1 5 0
2 37 6 0
6 37 42 0
2 7 3 0
2 6 7 0
3 8 4 0
3 7 8 0
4 9 5 0
4 8 9 0
39 5 44 0
44 5 9 0
6 42 10 0
10 42 48 0
6 11 7 0
6 10 11 0
7 12 8 0
7 11 12 0
45 9 50 0
9 12 50 0
9 8 12 0
9 45 44 0
10 48 13 0
13 48 54 0
10 14 11 0
10 13 14 0
11 15 12 0
11 14 15 0
50 12 51 0
12 16 51 0
12 15 16 0
16 57 51 0
54 56 13 0
61 17 56 0
17 13 56 0
17 14 13 0
14 18 15 0
14 17 18 0
58 16 64 0
16 18 64 0
16 15 18 0
16 58 57 0
61 63 17 0
17 63 18 0
18 63 65 0
18 65 64 0
71 76 19 0
20 73 19 0
19 73 71 0
20 79 73 0
77 83 21 0
77 21 76 0
21 19 76 0
21 22 19 0
19 23 20 0
19 22 23 0
79 20 80 0
20 25 80 0
20 23 25 0
27 82 25 0
25 82 80 0
27 85 82 0
21 83 28 0
28 83 88 0
21 30 22 0
21 28 30 0
22 33 23 0
22 30 33 0
33 31 24 0
25 33 24 0
23 33 25 0
25 24 26 0
25 26 27 0
35 86 34 0
34 86 26 0
86 85 26 0
85 27 26 0
35 91 86 0
89 92 36 0
89 36 88 0
36 28 88 0
36 38 28 0
38 37 29 0
30 38 29 0
28 38 30 0
30 29 32 0
30 32 33 0
33 32 31 0
39 40 35 0
39 35 34 0
91 35 94 0
94 35 40 0
36 92 41 0
41 92 95 0
36 43 38 0
36 41 43 0
43 42 37 0
43 37 38 0
44 46 40 0
44 40 39 0
94 40 97 0
97 40 46 0
41 95 47 0
47 95 99 0
41 49 43 0
41 47 49 0
49 48 42 0
49 42 43 0
50 52 45 0
52 101 45 0
45 101 44 0
101 98 44 0
98 46 44 0
46 98 97 0
47 99 53 0
53 99 103 0
47 55 49 0
47 53 55 0
55 54 48 0
55 48 49 0
51 52 50 0
59 102 57 0
57 102 51 0
102 101 51 0
101 52 51 0
59 106 102 0
103 105 53 0
108 60 105 0
60 53 105 0
60 55 53 0
62 56 54 0
55 62 54 0
60 62 55 0
62 61 56 0
64 66 58 0
66 110 58 0
58 110 57 0
110 107 57 0
107 59 57 0
59 107 106 0
60 108 67 0
67 108 112 0
60 68 62 0
60 67 68 0
69 63 61 0
62 69 61 0
68 69 62 0
70 65 63 0
70 63 69 0
70 117 65 0
65 117 64 0
117 111 64 0
111 66 64 0
66 111 110 0
112 114 67 0
67 114 68 0
68 114 115 0
68 115 69 0
69 115 116 0
69 116 70 0
70 116 118 0
70 118 117 0
123 128 72 0
74 125 72 0
72 125 123 0
74 131 125 0
126 133 75 0
78 129 75 0
75 129 126 0
129 78 128 0
128 78 72 0
78 76 72 0
76 71 72 0
72 71 73 0
72 73 74 0
81 132 79 0
79 132 73 0
132 131 73 0
131 74 73 0
81 135 132 0
75 133 84 0
84 133 137 0
84 83 77 0
78 84 77 0
75 84 78 0
78 77 76 0
80 81 79 0
136 135 81 0
80 136 81 0
82 136 80 0
82 85 136 0
136 85 140 0
138 142 87 0
138 87 137 0
87 84 137 0
87 90 84 0
90 88 83 0
90 83 84 0
141 140 85 0
141 85 86 0
86 91 141 0
141 91 144 0
87 142 93 0
93 142 145 0
93 92 89 0
90 93 89 0
87 93 90 0
90 89 88 0
94 144 91 0
94 147 144 0
93 145 96 0
96 145 148 0
96 95 92 0
96 92 93 0
97 147 94 0
97 150 147 0
96 148 100 0
100 148 153 0
100 99 95 0
100 95 96 0
155 151 98 0
155 98 101 0
97 98 150 0
150 98 151 0
100 153 104 0
104 153 157 0
104 103 99 0
104 99 100 0
156 155 101 0
156 101 102 0
102 106 156 0
156 106 160 0
157 159 104 0
159 163 109 0
159 109 105 0
104 159 105 0
103 104 105 0
109 108 105 0
165 161 107 0
165 107 110 0
106 107 160 0
160 107 161 0
109 163 113 0
113 163 167 0
113 112 108 0
113 108 109 0
171 166 111 0
171 111 117 0
110 111 165 0
165 111 166 0
167 169 113 0
169 173 119 0
169 119 114 0
113 169 114 0
112 113 114 0
120 115 114 0
120 114 119 0
115 120 176 0
170 115 176 0
116 115 170 0
116 172 118 0
170 172 116 0
117 118 171 0
171 118 172 0
173 175 119 0
119 175 120 0
120 175 177 0
120 177 176 0
178 185 121 0
122 180 121 0
121 180 178 0
124 182 122 0
122 182 180 0
124 187 182 0
121 185 127 0
127 185 191 0
121 130 122 0
121 127 130 0
130 128 123 0
124 130 123 0
122 130 124 0
188 187 124 0
123 188 124 0
125 188 123 0
125 131 188 0
188 131 194 0
192 197 134 0
192 134 191 0
191 134 127 0
134 133 127 0
133 126 127 0
127 126 129 0
127 129 130 0
130 129 128 0
195 194 131 0
195 131 132 0
132 135 195 0
195 135 199 0
134 197 139 0
139 197 203 0
139 137 133 0
139 133 134 0
200 199 135 0
200 135 136 0
136 140 200 0
200 140 206 0
204 210 143 0
204 143 203 0
203 143 139 0
143 142 139 0
142 138 139 0
139 138 137 0
208 206 140 0
208 140 141 0
141 144 208 0
208 144 212 0
143 210 146 0
146 210 215 0
146 145 142 0
146 142 143 0
147 212 144 0
147 217 212 0
146 215 149 0
149 215 221 0
149 148 145 0
149 145 146 0
223 218 152 0
218 217 152 0
217 150 152 0
217 147 150 0
149 221 154 0
154 221 224 0
154 153 148 0
154 148 149 0
223 152 151 0
155 223 151 0
226 223 155 0
151 152 150 0
154 224 158 0
158 224 228 0
158 157 153 0
158 153 154 0
155 156 162 0
231 155 162 0
226 155 231 0
160 162 156 0
228 230 158 0
230 233 164 0
230 164 159 0
158 230 159 0
157 158 159 0
164 163 159 0
231 162 161 0
165 231 161 0
235 231 165 0
161 162 160 0
164 233 168 0
168 233 238 0
168 167 163 0
168 163 164 0
241 236 166 0
241 166 171 0
165 166 235 0
235 166 236 0
238 239 168 0
239 244 174 0
239 174 169 0
168 239 169 0
167 168 169 0
174 173 169 0
247 240 170 0
247 170 176 0
170 242 172 0
240 242 170 0
171 172 241 0
241 172 242 0
244 245 174 0
174 245 173 0
245 175 173 0
245 246 175 0
175 248 177 0
246 248 175 0
176 177 247 0
247 177 248 0
250 255 179 0
181 251 179 0
179 251 250 0
183 252 181 0
181 252 251 0
183 258 252 0
253 261 184 0
186 256 184 0
184 256 253 0
256 186 255 0
255 186 179 0
186 185 179 0
185 178 179 0
179 178 180 0
179 180 181 0
181 180 182 0
181 182 183 0
189 260 187 0
187 260 182 0
260 258 182 0
258 183 182 0
189 263 260 0
184 261 190 0
190 261 266 0
184 193 186 0
184 190 193 0
193 191 185 0
193 185 186 0
188 189 187 0
188 194 189 0
194 263 189 0
194 269 263 0
267 271 196 0
267 196 266 0
196 190 266 0
196 198 190 0
198 197 192 0
193 198 192 0
190 198 193 0
193 192 191 0
270 269 194 0
270 194 195 0
195 199 270 0
270 199 274 0
272 276 201 0
272 201 271 0
201 196 271 0
201 202 196 0
196 205 198 0
196 202 205 0
205 203 197 0
205 197 198 0
199 200 207 0
278 199 207 0
274 199 278 0
206 207 200 0
201 276 209 0
209 276 280 0
201 211 202 0
201 209 211 0
211 210 204 0
205 211 204 0
202 211 205 0
205 204 203 0
279 278 207 0
282 279 213 0
213 279 208 0
279 207 208 0
207 206 208 0
212 213 208 0
209 280 214 0
214 280 284 0
209 216 211 0
209 214 216 0
216 215 210 0
216 210 211 0
282 213 219 0
282 219 286 0
217 219 212 0
212 219 213 0
214 284 220 0
220 284 288 0
214 222 216 0
214 220 222 0
222 221 215 0
222 215 216 0
286 219 218 0
223 286 218 0
291 286 223 0
218 219 217 0
288 290 220 0
294 225 290 0
225 220 290 0
225 222 220 0
225 224 221 0
225 221 222 0
296 292 227 0
292 291 227 0
291 226 227 0
291 223 226 0
225 294 229 0
229 294 297 0
229 228 224 0
229 224 225 0
296 227 232 0
296 232 300 0
231 232 226 0
226 232 227 0
297 299 229 0
299 302 234 0
299 234 230 0
229 299 230 0
228 229 230 0
234 233 230 0
300 232 237 0
300 237 305 0
235 237 231 0
231 237 232 0
302 304 234 0
233 234 304 0
308 233 304 0
238 233 308 0
313 306 243 0
243 306 305 0
243 305 237 0
241 243 237 0
236 241 237 0
236 237 235 0
308 310 238 0
238 310 239 0
244 239 310 0
244 310 316 0
319 311 249 0
240 247 249 0
311 240 249 0
314 240 311 0
243 242 313 0
242 314 313 0
242 240 314 0
242 243 241 0
316 318 244 0
244 318 245 0
245 320 246 0
318 320 245 0
249 248 319 0
248 320 319 0
248 246 320 0
248 249 247 0
322 326 254 0
257 323 254 0
254 323 322 0
255 250 257 0
250 323 257 0
250 324 323 0
325 250 251 0
325 324 250 0
329 325 259 0
325 252 259 0
325 251 252 0
258 259 252 0
327 332 262 0
327 262 326 0
326 262 254 0
262 261 254 0
261 253 254 0
254 253 256 0
254 256 257 0
257 256 255 0
331 329 259 0
335 331 264 0
264 331 260 0
331 259 260 0
259 258 260 0
263 264 260 0
333 338 265 0
333 265 332 0
265 262 332 0
265 268 262 0
268 266 261 0
268 261 262 0
337 335 264 0
264 263 337 0
263 340 337 0
263 269 340 0
265 338 273 0
273 338 342 0
273 271 267 0
268 273 267 0
265 273 268 0
268 267 266 0
269 270 275 0
345 269 275 0
340 269 345 0
274 275 270 0
343 348 277 0
343 277 342 0
342 277 273 0
277 276 273 0
276 272 273 0
273 272 271 0
347 345 275 0
275 274 347 0
274 350 347 0
274 278 350 0
277 348 281 0
281 348 352 0
281 280 276 0
281 276 277 0
278 279 283 0
354 278 283 0
350 278 354 0
282 283 279 0
281 352 285 0
285 352 356 0
285 284 280 0
285 280 281 0
354 283 287 0
354 287 358 0
286 287 282 0
282 287 283 0
285 356 289 0
289 356 360 0
289 288 284 0
289 284 285 0
358 287 293 0
358 293 362 0
291 293 286 0
286 293 287 0
360 361 289 0
361 364 295 0
361 295 290 0
289 361 290 0
288 289 290 0
295 294 290 0
362 293 292 0
296 362 292 0
366 362 296 0
292 293 291 0
295 364 298 0
298 364 369 0
298 297 294 0
298 294 295 0
371 367 301 0
367 366 301 0
366 300 301 0
366 296 300 0
369 370 298 0
370 373 303 0
370 303 299 0
298 370 299 0
297 298 299 0
303 302 299 0
371 301 307 0
371 307 377 0
305 307 300 0
300 307 301 0
373 374 303 0
374 380 309 0
374 309 304 0
303 374 304 0
302 303 304 0
309 308 304 0
383 375 312 0
378 315 312 0
378 312 375 0
315 378 377 0
315 377 307 0
313 315 307 0
306 313 307 0
306 307 305 0
380 382 309 0
382 386 317 0
382 317 310 0
309 382 310 0
308 309 310 0
317 316 310 0
389 384 321 0
321 384 383 0
321 383 312 0
319 321 312 0
311 319 312 0
311 312 314 0
314 312 315 0
314 315 313 0
386 388 317 0
317 388 316 0
388 318 316 0
388 390 318 0
321 320 389 0
320 390 389 0
320 318 390 0
320 321 319 0
392 396 328 0
326 322 328 0
322 392 328 0
322 393 392 0
394 322 323 0
394 393 322 0
395 323 324 0
395 394 323 0
399 395 330 0
395 325 330 0
395 324 325 0
329 330 325 0
397 402 334 0
397 334 396 0
396 334 328 0
334 332 328 0
332 327 328 0
328 327 326 0
401 399 330 0
404 401 336 0
336 401 331 0
401 330 331 0
330 329 331 0
335 336 331 0
403 407 339 0
403 339 402 0
402 339 334 0
339 338 334 0
338 333 334 0
334 333 332 0
406 404 336 0
408 406 341 0
341 406 337 0
406 336 337 0
336 335 337 0
340 341 337 0
339 407 344 0
344 407 410 0
344 342 338 0
344 338 339 0
408 341 346 0
408 346 413 0
345 346 340 0
340 346 341 0
411 415 349 0
411 349 410 0
410 349 344 0
349 348 344 0
348 343 344 0
344 343 342 0
414 413 346 0
417 414 351 0
351 414 347 0
414 346 347 0
346 345 347 0
350 351 347 0
349 415 353 0
353 415 419 0
353 352 348 0
353 348 349 0
417 351 355 0
417 355 421 0
354 355 350 0
350 355 351 0
353 419 357 0
357 419 423 0
357 356 352 0
357 352 353 0
421 355 359 0
421 359 426 0
358 359 354 0
354 359 355 0
423 425 357 0
356 357 425 0
428 356 425 0
360 356 428 0
426 359 363 0
426 363 430 0
362 363 358 0
358 363 359 0
361 360 365 0
360 432 365 0
360 428 432 0
365 364 361 0
430 363 368 0
430 368 435 0
366 368 362 0
362 368 363 0
432 433 365 0
364 365 433 0
438 364 433 0
369 364 438 0
441 436 372 0
372 436 435 0
372 435 368 0
371 372 368 0
367 371 368 0
367 368 366 0
438 440 369 0
369 440 370 0
373 370 440 0
373 440 444 0
446 442 376 0
376 442 441 0
372 376 441 0
379 376 372 0
377 379 371 0
371 379 372 0
374 373 381 0
373 448 381 0
373 444 448 0
381 380 374 0
450 447 385 0
385 447 446 0
385 446 376 0
383 385 376 0
375 383 376 0
375 376 378 0
378 376 379 0
378 379 377 0
448 449 381 0
449 452 387 0
449 387 382 0
381 449 382 0
380 381 382 0
387 386 382 0
455 451 391 0
391 451 450 0
391 450 385 0
389 391 385 0
384 389 385 0
384 385 383 0
452 453 387 0
387 453 386 0
453 388 386 0
453 456 388 0
391 390 455 0
390 456 455 0
390 388 456 0
390 391 389 0
458 460 392 0
392 460 396 0
459 392 393 0
459 458 392 0
463 459 398 0
459 394 398 0
459 393 394 0
395 400 394 0
394 400 398 0
399 400 395 0
461 467 397 0
397 467 402 0
397 396 460 0
397 460 461 0
465 463 398 0
465 398 400 0
465 400 466 0
471 466 405 0
405 466 401 0
466 400 401 0
400 399 401 0
404 405 401 0
468 474 403 0
403 474 407 0
403 402 467 0
403 467 468 0
473 471 405 0
476 473 409 0
409 473 406 0
473 405 406 0
405 404 406 0
408 409 406 0
475 479 412 0
474 475 412 0
410 474 412 0
407 474 410 0
478 476 409 0
409 408 478 0
408 481 478 0
408 413 481 0
480 483 416 0
480 416 479 0
479 416 412 0
416 415 412 0
415 411 412 0
412 411 410 0
413 414 418 0
484 413 418 0
481 413 484 0
417 418 414 0
416 483 420 0
420 483 486 0
420 419 415 0
420 415 416 0
484 418 422 0
484 422 487 0
421 422 417 0
417 422 418 0
420 486 424 0
424 486 489 0
424 423 419 0
424 419 420 0
487 422 427 0
487 427 491 0
426 427 421 0
421 427 422 0
489 490 424 0
490 493 429 0
490 429 425 0
424 490 425 0
423 424 425 0
429 428 425 0
491 427 431 0
491 431 495 0
430 431 426 0
426 431 427 0
493 494 429 0
428 429 494 0
498 428 494 0
432 428 498 0
500 496 434 0
434 496 495 0
431 434 495 0
437 434 431 0
435 437 430 0
430 437 431 0
433 432 439 0
432 502 439 0
432 498 502 0
439 438 433 0
500 434 443 0
500 443 504 0
441 443 436 0
443 437 436 0
443 434 437 0
436 437 435 0
502 503 439 0
503 506 445 0
503 445 440 0
439 503 440 0
438 439 440 0
445 444 440 0
504 443 442 0
446 504 442 0
509 504 446 0
442 443 441 0
506 508 445 0
444 445 508 0
512 444 508 0
448 444 512 0
519 510 447 0
519 447 450 0
446 447 509 0
509 447 510 0
512 514 448 0
448 514 449 0
515 454 452 0
449 515 452 0
514 515 449 0
517 457 454 0
517 454 515 0
451 455 457 0
517 451 457 0
520 451 517 0
450 451 519 0
519 451 520 0
454 453 452 0
453 454 456 0
456 454 457 0
456 457 455 0
462 460 458 0
459 464 458 0
458 464 462 0
463 464 459 0
469 467 461 0
525 469 461 0
525 461 460 0
522 525 460 0
462 522 460 0
522 462 464 0
522 464 523 0
528 523 470 0
470 523 465 0
523 464 465 0
464 463 465 0
466 472 465 0
465 472 470 0
471 472 466 0
524 532 468 0
468 532 474 0
468 467 469 0
526 468 469 0
524 468 526 0
526 469 525 0
530 528 470 0
530 470 472 0
530 472 531 0
539 531 477 0
477 531 473 0
531 472 473 0
472 471 473 0
476 477 473 0
533 542 475 0
475 542 479 0
475 474 532 0
475 532 533 0
541 539 477 0
546 541 482 0
482 541 478 0
541 477 478 0
477 476 478 0
481 482 478 0
543 548 480 0
480 548 483 0
480 479 542 0
480 542 543 0
546 482 485 0
546 485 550 0
484 485 481 0
481 485 482 0
548 486 483 0
552 486 548 0
550 485 488 0
550 488 555 0
487 488 484 0
484 488 485 0
552 489 486 0
557 489 552 0
555 488 492 0
555 492 559 0
491 492 487 0
487 492 488 0
557 558 489 0
489 558 490 0
493 490 558 0
493 558 561 0
559 492 497 0
559 497 564 0
495 497 491 0
491 497 492 0
494 493 499 0
493 567 499 0
493 561 567 0
499 498 494 0
569 565 501 0
501 565 564 0
501 564 497 0
500 501 497 0
496 500 497 0
496 497 495 0
567 568 499 0
498 499 568 0
571 498 568 0
502 498 571 0
569 501 505 0
569 505 573 0
504 505 500 0
500 505 501 0
503 502 507 0
502 575 507 0
502 571 575 0
507 506 503 0
573 505 511 0
573 511 582 0
509 511 504 0
504 511 505 0
575 576 507 0
576 585 513 0
576 513 508 0
507 576 508 0
506 507 508 0
513 512 508 0
588 578 516 0
580 518 516 0
580 516 578 0
583 521 518 0
583 518 580 0
521 583 582 0
521 582 511 0
519 521 511 0
510 519 511 0
510 511 509 0
585 586 513 0
513 586 512 0
586 514 512 0
586 589 514 0
516 515 588 0
515 589 588 0
515 514 589 0
515 516 517 0
517 516 518 0
517 518 520 0
520 518 521 0
520 521 519 0
527 525 522 0
523 529 522 0
522 529 527 0
528 529 523 0
534 532 524 0
526 535 524 0
524 535 534 0
525 527 526 0
527 535 526 0
527 536 535 0
537 527 529 0
536 527 537 0
530 538 528 0
538 529 528 0
538 537 529 0
531 540 530 0
530 540 538 0
539 540 531 0
591 596 533 0
533 596 542 0
533 532 534 0
592 533 534 0
591 533 592 0
592 534 535 0
592 535 593 0
593 535 536 0
593 536 594 0
594 536 537 0
594 537 595 0
544 598 595 0
537 544 595 0
538 544 537 0
545 538 540 0
544 538 545 0
541 547 539 0
547 540 539 0
547 545 540 0
546 547 541 0
597 601 543 0
543 601 548 0
543 542 596 0
543 596 597 0
600 598 544 0
549 603 600 0
544 549 600 0
545 549 544 0
551 545 547 0
549 545 551 0
550 551 546 0
546 551 547 0
602 605 553 0
601 602 553 0
552 601 553 0
548 601 552 0
603 549 554 0
603 554 607 0
556 549 551 0
554 549 556 0
555 556 550 0
550 556 551 0
605 606 553 0
552 553 606 0
610 552 606 0
557 552 610 0
609 607 554 0
560 613 609 0
554 560 609 0
556 560 554 0
559 560 555 0
555 560 556 0
558 557 562 0
557 616 562 0
557 610 616 0
562 561 558 0
618 614 563 0
563 614 613 0
560 563 613 0
566 563 560 0
564 566 559 0
559 566 560 0
616 617 562 0
561 562 617 0
620 561 617 0
567 561 620 0
618 563 570 0
618 570 623 0
569 570 565 0
570 566 565 0
570 563 566 0
565 566 564 0
620 621 567 0
567 621 568 0
571 568 621 0
571 621 626 0
628 624 572 0
572 624 623 0
570 572 623 0
574 572 570 0
573 574 569 0
569 574 570 0
577 575 627 0
575 626 627 0
575 571 626 0
631 577 627 0
634 629 579 0
579 629 628 0
572 579 628 0
581 579 572 0
584 572 574 0
581 572 584 0
582 584 573 0
573 584 574 0
577 576 575 0
632 587 585 0
632 585 576 0
631 632 576 0
577 631 576 0
635 590 587 0
635 587 632 0
590 635 634 0
590 634 579 0
588 590 579 0
578 588 579 0
578 579 580 0
580 579 581 0
580 581 583 0
583 581 584 0
583 584 582 0
587 586 585 0
586 587 589 0
589 587 590 0
589 590 588 0
637 641 591 0
591 641 596 0
638 591 592 0
638 637 591 0
639 592 593 0
639 638 592 0
640 593 594 0
640 639 593 0
646 640 599 0
640 595 599 0
640 594 595 0
598 599 595 0
642 649 597 0
597 649 601 0
597 596 641 0
597 641 642 0
648 646 599 0
652 648 604 0
604 648 600 0
648 599 600 0
599 598 600 0
603 604 600 0
650 654 602 0
602 654 605 0
602 601 649 0
602 649 650 0
652 604 608 0
652 608 656 0
607 608 603 0
603 608 604 0
606 605 611 0
605 658 611 0
605 654 658 0
611 610 606 0
656 608 612 0
656 612 660 0
609 615 607 0
615 608 607 0
615 612 608 0
613 615 609 0
658 659 611 0
610 611 659 0
662 610 659 0
616 610 662 0
660 612 619 0
660 619 664 0
618 619 614 0
619 615 614 0
619 612 615 0
614 615 613 0
662 663 616 0
616 663 617 0
620 617 663 0
620 663 667 0
670 665 622 0
622 665 664 0
619 622 664 0
625 622 619 0
623 625 618 0
618 625 619 0
667 668 620 0
620 668 621 0
626 621 668 0
626 668 672 0
670 622 630 0
670 630 677 0
628 630 624 0
630 625 624 0
630 622 625 0
624 625 623 0
672 673 626 0
626 673 627 0
675 633 631 0
627 675 631 0
673 675 627 0
678 636 633 0
678 633 675 0
636 678 677 0
636 677 630 0
634 636 630 0
629 634 630 0
629 630 628 0
633 632 631 0
632 633 635 0
635 633 636 0
635 636 634 0
643 641 637 0
638 644 637 0
637 644 643 0
639 645 638 0
638 645 644 0
640 647 639 0
639 647 645 0
646 647 640 0
651 649 642 0
684 651 642 0
684 642 641 0
680 684 641 0
643 680 641 0
680 643 644 0
680 644 681 0
681 644 645 0
681 645 682 0
682 645 647 0
682 647 683 0
689 683 653 0
653 683 648 0
683 647 648 0
647 646 648 0
652 653 648 0
655 654 650 0
691 655 650 0
691 650 649 0
685 691 649 0
651 685 649 0
685 651 684 0
689 653 657 0
689 657 697 0
656 657 652 0
652 657 653 0
692 699 655 0
699 654 655 0
699 658 654 0
692 655 691 0
697 657 661 0
697 661 703 0
660 661 656 0
656 661 657 0
699 700 658 0
658 700 659 0
662 659 700 0
662 700 705 0
703 661 666 0
703 666 712 0
664 666 660 0
660 666 661 0
705 706 662 0
662 706 663 0
708 669 667 0
663 708 667 0
706 708 663 0
715 669 708 0
718 713 671 0
671 713 712 0
671 712 666 0
670 671 666 0
665 670 666 0
665 666 664 0
669 668 667 0
716 674 672 0
716 672 668 0
715 716 668 0
669 715 668 0
719 676 674 0
719 674 716 0
676 719 718 0
671 676 718 0
679 676 671 0
677 679 670 0
670 679 671 0
674 673 672 0
673 674 675 0
675 674 676 0
675 676 678 0
678 676 679 0
678 679 677 0
686 684 680 0
681 687 680 0
680 687 686 0
682 688 681 0
681 688 687 0
683 690 682 0
682 690 688 0
689 690 683 0
693 691 685 0
684 686 685 0
686 693 685 0
686 694 693 0
695 686 687 0
694 686 695 0
696 687 688 0
695 687 696 0
698 688 690 0
696 688 698 0
697 698 689 0
689 698 690 0
701 699 692 0
724 701 692 0
724 692 691 0
721 724 691 0
693 721 691 0
721 693 694 0
721 694 722 0
722 694 695 0
722 695 723 0
702 729 723 0
695 702 723 0
696 702 695 0
704 696 698 0
702 696 704 0
703 704 697 0
697 704 698 0
701 700 699 0
725 707 705 0
725 705 700 0
724 725 700 0
701 724 700 0
727 709 707 0
727 707 725 0
730 710 709 0
730 709 727 0
710 730 729 0
702 710 729 0
711 710 702 0
714 702 704 0
711 702 714 0
712 714 703 0
703 714 704 0
707 706 705 0
706 707 708 0
708 707 709 0
708 709 715 0
709 717 715 0
709 710 717 0
720 710 711 0
717 710 720 0
718 720 713 0
720 714 713 0
720 711 714 0
713 714 712 0
717 716 715 0
716 717 719 0
719 717 720 0
719 720 718 0
726 724 721 0
722 728 721 0
721 728 726 0
723 731 722 0
722 731 728 0
729 731 723 0
726 725 724 0
725 726 727 0
727 726 728 0
727 728 730 0
730 728 731 0
730 731 729 0
