#!ascii version in FreeSurfer format (SUMA)
734 1464
-9.051242  -61.498802  -62.281021  0
-9.225126  -61.559643  -62.268127  0
-9.164345  -62.730556  -62.358742  0
-9.569468  -62.719036  -62.355587  0
-9.058609  -63.173008  -62.428284  0
-9.513878  -63.118740  -62.454178  0
-9.932963  -63.030048  -62.380272  0
-10.300444  -63.252659  -62.318298  0
-8.968383  -63.670624  -62.452969  0
-9.416122  -63.607811  -62.492367  0
-9.955327  -63.539181  -62.406155  0
-8.879217  -64.025459  -62.399574  0
-9.239615  -64.050011  -62.430054  0
-9.733829  -64.038963  -62.380936  0
-9.601320  -59.978069  -61.797382  0
-9.964090  -60.157696  -61.833885  0
-10.365567  -60.219872  -61.838997  0
-10.307181  -60.624847  -61.844292  0
-9.021400  -61.389034  -62.230339  0
-9.001583  -61.240227  -61.970005  0
-9.212925  -61.392536  -62.213947  0
-9.539445  -61.214699  -61.987782  0
-10.098853  -61.097500  -61.899208  0
-10.502687  -61.129921  -61.843346  0
-8.913969  -61.461079  -62.170158  0
-8.655009  -61.503986  -61.880810  0
-8.998356  -61.728550  -62.163906  0
-9.474581  -61.504574  -62.187366  0
-9.429651  -61.706226  -62.203365  0
-9.917305  -61.689121  -62.058289  0
-10.519768  -61.618561  -61.879742  0
-8.973764  -62.472504  -62.252060  0
-8.840101  -62.218193  -62.104897  0
-9.269184  -62.411518  -62.259773  0
-9.528131  -62.095757  -62.170193  0
-10.107517  -62.206894  -62.082508  0
-10.486463  -62.139980  -61.963272  0
-10.865162  -62.105244  -61.818089  0
-8.756843  -62.728191  -62.216408  0
-8.446340  -62.497162  -61.928036  0
-9.657584  -62.464043  -62.253395  0
-9.898197  -62.704865  -62.292889  0
-10.006289  -62.491032  -62.181637  0
-10.226684  -62.867710  -62.250038  0
-10.472290  -62.650150  -62.073643  0
-10.876689  -62.582729  -61.885292  0
-8.665875  -63.298920  -62.280102  0
-8.392319  -62.968040  -61.985641  0
-10.520085  -63.070717  -62.182568  0
-10.560432  -63.364819  -62.201420  0
-10.815043  -63.188076  -61.987488  0
-8.646337  -63.793053  -62.302361  0
-8.381964  -63.495716  -62.032326  0
-10.367164  -63.590889  -62.277889  0
-10.601473  -63.667679  -62.096592  0
-10.858133  -63.719288  -61.862438  0
-8.702071  -64.088493  -62.290829  0
-8.478462  -64.018143  -62.026257  0
-8.919686  -64.339172  -62.196136  0
-9.485198  -64.405052  -62.254303  0
-10.248519  -64.048737  -62.159992  0
-9.896335  -64.384979  -62.186043  0
-10.616778  -64.009247  -61.930244  0
-8.885236  -64.635139  -61.891949  0
-9.272536  -64.665596  -62.010189  0
-9.718439  -64.661797  -62.007221  0
-9.505900  -59.827557  -61.756943  0
-9.446353  -59.653088  -61.521801  0
-9.761960  -59.827915  -61.775475  0
-9.979054  -59.567432  -61.579319  0
-10.207430  -59.896942  -61.779659  0
-10.546100  -59.678833  -61.543934  0
-10.947000  -59.714180  -61.358624  0
-9.398114  -59.910633  -61.677654  0
-9.145946  -59.954742  -61.391045  0
-9.527313  -60.217129  -61.667553  0
-9.932330  -60.429165  -61.798187  0
-10.558789  -60.056183  -61.738445  0
-10.892807  -60.128147  -61.520466  0
-8.874063  -61.003357  -61.615620  0
-9.230833  -60.871037  -61.666866  0
-9.413451  -60.546146  -61.583641  0
-9.996486  -60.682163  -61.816700  0
-9.705382  -60.805885  -61.774090  0
-9.744077  -60.522499  -61.726112  0
-10.668333  -60.438717  -61.735661  0
-11.054699  -60.725094  -61.491009  0
-8.680132  -61.202358  -61.680870  0
-8.418503  -61.343998  -61.473091  0
-10.735984  -60.929543  -61.733276  0
-11.085478  -61.271748  -61.574184  0
-11.394349  -61.168266  -61.330410  0
-8.303134  -61.740631  -61.529636  0
-8.538741  -61.907990  -61.878864  0
-10.802005  -61.409477  -61.752708  0
-10.885226  -61.784416  -61.762550  0
-11.133673  -61.732727  -61.634178  0
-11.493787  -61.676384  -61.426903  0
-8.436366  -62.204956  -61.856728  0
-8.284133  -62.368687  -61.747829  0
-8.215453  -62.189911  -61.584232  0
-11.118746  -62.055779  -61.698601  0
-11.473678  -62.205025  -61.550018  0
-11.835699  -62.124237  -61.364010  0
-8.150349  -62.676441  -61.610817  0
-7.987932  -62.466942  -61.314003  0
-11.209019  -62.449089  -61.716015  0
-11.558581  -62.783916  -61.571060  0
-11.881801  -62.612804  -61.395008  0
-8.187286  -63.172649  -61.727085  0
-11.218084  -62.959862  -61.754574  0
-11.509527  -63.300529  -61.565533  0
-11.883393  -63.159401  -61.371090  0
-8.195748  -63.607494  -61.660004  0
-11.152461  -63.452362  -61.745258  0
-11.068530  -63.815376  -61.674194  0
-11.346745  -63.727982  -61.536308  0
-11.748567  -63.703876  -61.307262  0
-8.274217  -64.074020  -61.553841  0
-8.561386  -64.413658  -61.805336  0
-10.850896  -64.146759  -61.650124  0
-10.488169  -64.391632  -61.786480  0
-11.148064  -64.029755  -61.505848  0
-11.418694  -64.065536  -61.314323  0
-8.723070  -64.676903  -61.539967  0
-9.124439  -64.814735  -61.679955  0
-9.503608  -64.833473  -61.787552  0
-10.117702  -64.563416  -61.919601  0
-9.872264  -64.854950  -61.696922  0
-10.312665  -64.848923  -61.538246  0
-9.971482  -65.070168  -61.393085  0
-10.274749  -65.164680  -61.290825  0
-9.316189  -59.453743  -61.134129  0
-9.719448  -59.280922  -61.191467  0
-10.103745  -59.013573  -60.956589  0
-10.285393  -59.265556  -61.291878  0
-10.570290  -59.010345  -60.992107  0
-10.881505  -59.293610  -61.138214  0
-10.876040  -59.013824  -60.936310  0
-9.131509  -59.667606  -61.212997  0
-8.927063  -59.881516  -60.998409  0
-11.184193  -59.589573  -61.116508  0
-11.436678  -59.765827  -60.931969  0
-8.838015  -60.214764  -61.068375  0
-9.107262  -60.339798  -61.370438  0
-11.184987  -59.956562  -61.234283  0
-11.427935  -60.182793  -61.025326  0
-9.084920  -60.614819  -61.408443  0
-8.906913  -60.799252  -61.414970  0
-8.771998  -60.603466  -61.165310  0
-11.227635  -60.376228  -61.261993  0
-11.445442  -60.758820  -61.144344  0
-11.426023  -60.463253  -61.071171  0
-8.604452  -60.987850  -61.343372  0
-8.338768  -61.172241  -61.137733  0
-8.453990  -60.873367  -60.938419  0
-11.667137  -61.126717  -61.105942  0
-12.045437  -61.330418  -60.944592  0
-8.201245  -61.505318  -61.126625  0
-11.743400  -61.465931  -61.209038  0
-11.848294  -61.801201  -61.281616  0
-12.091607  -61.739559  -61.119324  0
-12.492887  -61.719650  -60.854782  0
-8.068058  -62.052216  -61.089535  0
-7.933724  -62.484207  -61.097771  0
-12.071486  -62.037838  -61.231739  0
-12.358146  -62.122765  -61.069733  0
-12.763097  -62.197266  -60.808006  0
-7.895195  -62.614620  -61.204174  0
-7.951181  -62.718540  -61.300983  0
-7.923936  -62.695351  -61.124252  0
-12.166987  -62.418552  -61.228874  0
-12.519880  -62.637913  -60.995155  0
-8.048553  -63.037518  -61.265755  0
-12.218022  -62.943050  -61.191608  0
-12.497718  -63.189205  -60.960472  0
-8.137574  -63.632416  -61.189785  0
-12.212942  -63.541588  -61.081120  0
-11.999372  -63.914047  -61.083797  0
-12.491181  -63.501522  -60.905777  0
-8.240170  -64.068008  -61.078487  0
-8.420784  -64.416214  -61.332344  0
-11.099904  -64.399391  -61.297043  0
-11.752573  -64.145866  -61.078247  0
-11.428598  -64.376183  -61.098148  0
-11.998341  -64.098228  -60.986080  0
-8.659957  -64.654449  -61.067192  0
-9.010020  -64.853943  -61.252464  0
-9.499746  -64.971848  -61.421822  0
-10.720997  -64.628113  -61.429466  0
-10.939557  -64.799919  -61.138847  0
-11.265139  -64.743820  -60.938740  0
-9.746519  -65.182144  -61.089935  0
-10.071486  -65.272552  -61.173717  0
-10.638947  -65.127441  -61.136105  0
-10.325214  -65.392097  -61.058807  0
-11.002098  -65.065491  -60.913803  0
-10.337044  -65.611450  -60.808895  0
-10.045456  -58.924107  -60.544758  0
-10.470562  -58.864132  -60.632637  0
-10.894297  -58.886250  -60.668949  0
-9.759851  -59.072544  -60.777634  0
-9.436460  -59.307762  -60.721691  0
-11.162206  -59.024902  -60.741783  0
-11.450814  -59.297962  -60.709667  0
-11.444297  -59.014687  -60.507179  0
-9.113692  -59.631977  -60.790939  0
-8.913705  -59.922832  -60.636646  0
-11.710962  -59.609524  -60.608448  0
-11.996160  -59.766930  -60.388500  0
-8.757540  -60.172302  -60.690422  0
-8.853219  -60.164387  -60.374172  0
-11.701941  -60.011612  -60.728298  0
-12.068143  -60.270382  -60.473976  0
-8.608571  -60.521427  -60.756393  0
-8.408048  -60.859978  -60.514359  0
-11.682837  -60.486691  -60.852497  0
-11.815511  -60.921173  -60.898151  0
-12.048842  -60.738953  -60.636272  0
-12.373438  -60.663841  -60.360920  0
-8.251072  -61.185543  -60.785122  0
-12.128419  -61.057968  -60.726677  0
-12.479381  -61.289772  -60.615532  0
-12.330227  -60.965324  -60.526043  0
-8.135824  -61.573643  -60.688137  0
-12.774235  -61.554848  -60.593910  0
-12.983945  -61.805317  -60.574055  0
-12.985146  -61.580597  -60.463211  0
-8.097075  -61.955238  -60.594097  0
-13.198342  -62.156418  -60.488350  0
-12.993207  -62.425797  -60.633801  0
-13.475244  -62.096230  -60.286007  0
-8.050529  -62.506035  -60.789211  0
-12.804558  -62.588333  -60.775795  0
-12.993150  -62.768761  -60.571850  0
-8.170710  -63.113335  -60.703163  0
-8.342188  -63.343987  -60.376244  0
-12.751449  -62.972366  -60.768543  0
-12.958271  -63.226994  -60.515308  0
-8.218440  -63.688725  -60.765888  0
-8.367068  -63.798519  -60.442509  0
-12.685894  -63.417500  -60.744648  0
-12.486388  -63.756516  -60.802189  0
-12.830572  -63.783627  -60.484962  0
-8.289116  -64.024834  -60.728294  0
-8.459915  -64.330917  -60.738792  0
-8.389556  -64.077278  -60.524792  0
-12.195823  -63.984596  -60.913223  0
-11.989520  -64.279480  -60.849731  0
-12.380986  -64.213715  -60.630024  0
-12.779035  -64.313339  -60.314930  0
-8.712143  -64.625412  -60.652905  0
-8.948284  -64.820526  -60.781437  0
-8.924799  -64.722595  -60.409592  0
-9.326866  -65.013084  -60.932285  0
-11.643424  -64.512985  -60.871765  0
-11.537827  -64.835831  -60.698467  0
-11.925529  -64.668716  -60.605724  0
-12.380231  -64.721062  -60.331924  0
-9.630132  -65.214363  -60.630405  0
-10.024976  -65.433624  -60.841801  0
-11.285403  -65.176308  -60.633469  0
-10.911305  -65.398834  -60.756924  0
-11.640992  -65.044456  -60.504040  0
-11.951146  -65.077179  -60.329250  0
-10.235386  -65.683128  -60.499298  0
-10.596326  -65.541656  -60.845264  0
-10.564092  -65.761513  -60.546303  0
-10.827368  -65.680489  -60.567013  0
-10.038011  -58.943295  -60.222023  0
-10.443054  -58.863697  -60.165077  0
-10.938982  -58.814823  -60.203766  0
-11.379392  -58.874878  -60.268860  0
-9.753331  -59.145897  -60.276432  0
-9.461901  -59.417736  -60.257721  0
-9.970078  -59.051189  -60.045830  0
-10.228206  -59.003834  -59.923866  0
-11.722522  -59.018890  -60.227608  0
-12.002775  -59.291119  -60.168602  0
-12.005774  -59.007362  -59.945934  0
-9.270626  -59.568409  -60.412376  0
-9.378872  -59.729813  -60.028435  0
-12.266648  -59.573685  -60.071159  0
-12.523213  -59.702869  -59.896862  0
-9.130918  -59.991928  -60.179466  0
-8.932897  -60.344086  -60.070984  0
-9.345808  -59.988201  -59.871895  0
-12.301516  -59.918659  -60.178181  0
-12.501932  -60.268757  -60.124218  0
-12.518453  -59.961693  -60.014427  0
-8.688664  -60.569233  -60.211575  0
-8.447117  -60.955082  -60.147633  0
-8.910921  -60.551922  -59.905968  0
-12.671138  -60.641014  -60.116692  0
-12.936251  -60.773933  -59.934559  0
-8.267388  -61.217472  -60.366314  0
-8.409174  -61.294933  -59.984467  0
-12.675164  -60.983757  -60.273067  0
-12.979571  -61.312344  -60.239693  0
-12.965917  -61.036186  -60.046448  0
-8.219499  -61.616219  -60.262959  0
-8.411910  -61.738914  -59.911674  0
-13.234901  -61.588634  -60.254234  0
-13.471718  -61.849144  -60.213627  0
-13.491527  -61.599392  -60.043137  0
-8.219178  -62.085083  -60.263371  0
-8.435306  -62.230537  -59.940060  0
-13.718618  -62.135326  -60.049961  0
-13.475067  -62.342857  -60.234615  0
-13.934964  -62.068165  -59.838512  0
-8.261389  -62.574295  -60.304623  0
-8.339499  -62.928295  -60.269341  0
-8.441818  -62.638268  -60.025429  0
-13.224914  -62.541653  -60.402119  0
-13.474209  -62.759224  -60.105427  0
-8.506725  -63.001293  -60.018738  0
-13.222870  -62.981182  -60.300678  0
-13.455331  -63.241375  -60.007172  0
-8.532836  -63.494236  -60.070335  0
-13.199851  -63.495262  -60.223026  0
-13.440174  -63.726349  -59.931732  0
-8.599463  -64.033859  -60.143833  0
-8.760873  -64.471390  -60.270813  0
-13.195629  -64.090096  -60.068420  0
-13.018085  -64.461517  -60.073303  0
-13.447187  -64.039490  -59.854172  0
-9.076528  -64.669136  -60.031902  0
-9.254534  -64.937637  -60.385681  0
-12.791119  -64.716728  -60.072815  0
-12.546328  -64.975693  -60.065449  0
-13.021329  -64.654572  -59.949608  0
-9.620341  -65.156700  -60.115482  0
-9.920757  -65.448677  -60.336929  0
-11.581122  -65.414703  -60.281845  0
-12.284801  -65.189346  -60.074139  0
-11.950094  -65.405151  -60.095562  0
-12.518050  -65.176552  -59.931778  0
-10.201543  -65.678322  -60.041679  0
-10.532338  -65.849251  -60.148018  0
-11.148910  -65.586021  -60.417683  0
-10.966218  -65.837456  -60.177574  0
-11.386041  -65.733902  -60.090378  0
-11.774384  -65.680183  -59.912361  0
-11.008540  -58.892010  -59.661575  0
-11.477396  -58.824043  -59.716236  0
-11.911076  -58.884487  -59.759174  0
-10.052345  -59.306046  -59.670734  0
-10.585035  -58.957596  -59.763027  0
-10.485099  -59.146671  -59.538280  0
-10.828808  -59.052639  -59.447067  0
-12.245967  -59.024166  -59.699963  0
-12.487040  -59.297100  -59.660027  0
-12.462148  -59.032936  -59.470078  0
-9.659530  -59.578457  -59.796768  0
-9.901612  -59.674931  -59.394161  0
-12.738884  -59.600517  -59.587135  0
-12.965702  -59.792648  -59.392288  0
-9.519341  -60.001339  -59.627365  0
-9.372819  -60.267029  -59.642570  0
-12.751598  -59.971565  -59.791714  0
-12.851201  -60.392162  -59.862064  0
-13.010981  -60.140774  -59.578640  0
-9.159891  -60.546322  -59.669861  0
-8.907023  -60.806957  -59.713234  0
-9.412230  -60.551838  -59.397675  0
-13.127673  -60.482132  -59.579754  0
-8.646832  -61.017792  -59.827911  0
-8.909698  -61.224777  -59.478115  0
-13.248544  -60.938732  -59.689491  0
-13.482291  -61.334332  -59.766083  0
-13.499043  -61.054424  -59.460651  0
-8.646811  -61.452999  -59.658703  0
-8.919674  -61.689018  -59.380787  0
-13.715710  -61.627869  -59.833660  0
-13.848331  -61.883614  -59.875790  0
-13.966777  -61.714001  -59.590584  0
-8.662679  -61.948841  -59.632462  0
-8.925711  -62.208591  -59.392258  0
-14.086609  -62.010357  -59.550503  0
-13.961807  -62.312202  -59.740784  0
-8.661613  -62.539078  -59.717850  0
-8.928209  -62.763412  -59.426647  0
-13.729827  -62.541386  -59.923988  0
-13.980298  -62.754314  -59.557323  0
-8.712445  -63.116322  -59.725998  0
-8.928922  -63.304298  -59.439144  0
-13.723830  -63.070747  -59.743870  0
-13.969453  -63.175877  -59.404362  0
-8.734180  -63.627762  -59.740063  0
-8.935536  -63.765354  -59.452995  0
-13.620773  -63.521049  -59.747257  0
-8.808083  -63.976967  -59.689590  0
-8.976525  -64.297569  -59.719883  0
-8.944007  -64.037598  -59.509136  0
-13.617431  -63.988831  -59.606617  0
-13.449971  -64.316551  -59.703362  0
-9.269751  -64.608986  -59.667641  0
-9.398483  -64.871521  -59.882179  0
-9.607196  -64.737808  -59.472595  0
-9.915771  -64.774513  -59.244244  0
-13.239048  -64.616707  -59.721226  0
-13.001502  -64.879921  -59.743473  0
-13.462865  -64.588829  -59.493439  0
-9.670598  -65.032722  -59.730869  0
-9.983873  -65.320007  -59.732834  0
-9.847529  -64.990715  -59.482746  0
-12.747078  -65.150444  -59.709915  0
-12.468958  -65.402298  -59.743786  0
-12.979976  -65.116371  -59.489849  0
-10.279590  -65.630569  -59.637913  0
-10.501357  -65.830391  -59.730156  0
-10.504908  -65.712578  -59.414799  0
-10.922163  -65.919312  -59.713856  0
-11.486121  -65.886711  -59.670528  0
-12.163861  -65.559479  -59.817268  0
-12.038476  -65.806870  -59.523331  0
-12.363750  -65.669495  -59.507610  0
-11.549501  -58.920452  -59.240097  0
-11.961509  -58.890854  -59.292091  0
-12.310863  -58.941605  -59.375942  0
-10.457056  -59.419319  -59.221245  0
-11.231126  -59.108475  -59.118095  0
-10.816889  -59.276463  -59.161869  0
-11.592514  -59.055672  -58.959198  0
-11.902882  -59.044071  -58.934502  0
-12.545777  -59.092892  -59.302734  0
-12.372574  -59.087284  -59.025787  0
-12.764832  -59.384518  -59.170525  0
-10.208916  -59.685242  -59.119267  0
-9.971370  -59.928570  -59.100594  0
-10.480109  -59.623383  -58.981194  0
-10.728384  -59.557278  -58.908123  0
-13.057940  -59.719204  -58.967014  0
-12.883640  -59.496540  -58.790504  0
-9.752808  -59.983204  -59.319901  0
-9.923810  -60.267368  -58.932053  0
-13.174536  -60.097401  -59.226021  0
-9.654399  -60.495888  -59.135807  0
-9.428507  -60.837246  -59.201065  0
-9.905075  -60.549786  -58.793106  0
-13.363569  -60.501114  -59.158165  0
-13.496464  -60.852001  -59.275154  0
-13.554340  -60.692955  -58.966888  0
-9.176598  -61.025776  -59.340324  0
-9.440827  -61.277069  -58.989185  0
-13.688882  -61.046425  -59.102211  0
-13.862526  -61.447132  -59.398746  0
-9.184870  -61.474777  -59.174122  0
-9.442088  -61.734768  -58.901051  0
-14.124924  -61.689518  -59.201427  0
-9.186019  -61.954254  -59.135750  0
-9.432876  -62.225033  -58.899410  0
-14.331225  -62.062412  -59.045040  0
-14.498861  -62.182915  -58.763245  0
-9.178439  -62.473000  -59.155102  0
-9.421915  -62.741936  -58.915207  0
-14.196763  -62.449482  -59.330669  0
-9.169436  -63.009514  -59.170612  0
-9.436538  -63.255421  -58.916000  0
-14.260596  -63.031300  -59.049995  0
-14.061075  -63.445641  -59.155014  0
-14.446753  -63.090969  -58.773720  0
-9.176899  -63.528179  -59.184948  0
-9.528748  -63.757572  -58.919247  0
-13.831828  -63.603825  -59.414772  0
-14.016547  -63.856709  -58.993870  0
-9.185909  -64.007530  -59.292412  0
-9.387719  -64.383980  -59.354610  0
-9.537574  -64.137978  -59.069344  0
-9.863785  -64.414925  -59.025002  0
-9.796928  -64.049698  -58.832253  0
-13.819929  -64.161125  -59.155788  0
-13.978652  -64.261436  -58.801147  0
-10.151719  -64.680939  -59.006927  0
-10.418962  -64.805550  -58.884563  0
-13.621164  -64.459831  -59.319656  0
-13.467578  -64.840454  -59.160469  0
-10.150504  -65.013199  -59.230846  0
-10.421873  -65.378723  -59.225842  0
-10.409245  -65.065147  -59.029606  0
-13.168751  -65.026527  -59.349911  0
-12.939536  -65.343491  -59.138680  0
-10.708447  -65.642960  -59.147240  0
-10.817475  -65.834938  -59.348907  0
-11.084612  -65.687981  -58.959137  0
-11.361376  -65.885002  -59.180004  0
-11.479207  -65.730042  -58.778488  0
-11.918183  -65.900406  -59.152958  0
-12.621232  -65.544365  -59.338947  0
-12.352056  -65.793228  -59.162914  0
-11.607478  -59.305107  -58.731155  0
-12.147443  -59.293083  -58.670971  0
-12.596607  -59.347244  -58.747875  0
-10.540551  -59.859890  -58.749390  0
-11.115025  -59.442326  -58.817337  0
-10.917196  -59.739567  -58.649010  0
-11.298990  -59.708973  -58.511890  0
-11.830748  -59.656853  -58.391907  0
-12.744041  -59.538437  -58.542637  0
-12.382410  -59.549076  -58.435364  0
-12.982917  -59.709354  -58.576412  0
-10.189865  -60.081749  -58.810856  0
-10.442987  -60.215996  -58.545624  0
-10.871411  -60.117062  -58.401409  0
-11.398555  -60.011044  -58.264481  0
-13.239365  -60.059528  -58.670242  0
-13.456370  -60.432163  -58.716045  0
-10.179138  -60.538261  -58.550621  0
-9.913678  -60.841770  -58.654095  0
-10.531340  -60.445530  -58.354927  0
-13.601209  -60.687126  -58.605659  0
-9.678034  -61.054333  -58.825459  0
-9.924053  -61.291515  -58.482426  0
-13.796997  -61.008099  -58.499722  0
-13.992864  -61.346016  -58.850933  0
-9.685402  -61.518585  -58.680286  0
-9.920033  -61.753956  -58.405396  0
-14.271875  -61.671242  -58.652283  0
-14.461454  -61.953621  -58.710777  0
-9.679138  -61.992180  -58.645485  0
-9.908308  -62.243660  -58.396397  0
-14.540921  -62.066029  -58.529667  0
-14.544911  -62.295010  -58.451603  0
-9.667452  -62.493492  -58.657574  0
-9.905410  -62.751953  -58.410160  0
-14.438624  -62.553902  -58.797482  0
-14.459475  -62.935341  -58.761879  0
-9.671339  -62.995113  -58.666267  0
-9.924304  -63.220734  -58.433769  0
-14.511575  -63.065624  -58.570324  0
-14.437418  -63.275127  -58.555004  0
-9.729276  -63.436584  -58.655918  0
-9.946546  -63.767994  -58.577549  0
-9.940253  -63.505402  -58.471317  0
-14.230049  -63.559673  -58.789215  0
-10.129941  -64.110733  -58.637527  0
-10.404926  -64.399971  -58.651211  0
-10.386473  -64.119972  -58.471596  0
-14.158619  -64.055725  -58.545372  0
-14.031173  -64.443962  -58.545841  0
-10.697940  -64.661751  -58.614330  0
-11.060808  -64.750694  -58.426132  0
-11.419952  -64.756142  -58.216702  0
-13.808605  -64.663887  -58.734268  0
-13.549204  -65.046898  -58.673664  0
-13.997864  -64.618164  -58.440712  0
-10.695685  -65.028618  -58.797913  0
-10.869797  -65.397392  -58.865326  0
-11.051893  -65.118683  -58.601273  0
-11.379840  -65.396965  -58.567940  0
-11.309616  -65.006180  -58.402538  0
-13.270563  -65.206085  -58.854248  0
-12.946927  -65.443085  -58.506317  0
-13.376906  -65.248444  -58.460506  0
-11.748819  -65.644890  -58.555099  0
-11.834614  -65.828407  -58.783962  0
-12.134603  -65.677635  -58.493500  0
-12.647235  -65.655373  -58.866879  0
-12.269041  -65.812607  -58.783539  0
-12.516478  -65.658592  -58.529266  0
-12.144635  -59.869041  -58.168560  0
-12.674018  -59.793968  -58.255932  0
-13.030734  -59.898983  -58.330486  0
-11.137385  -60.376572  -58.142284  0
-11.745437  -59.984207  -58.166046  0
-11.503794  -60.222305  -58.095272  0
-11.833389  -60.211418  -58.000248  0
-12.342555  -60.169476  -57.915714  0
-13.165182  -60.055336  -58.281868  0
-12.918802  -60.104385  -58.033581  0
-13.331063  -60.345310  -58.243103  0
-10.773115  -60.517773  -58.203693  0
-10.499750  -60.776272  -58.221428  0
-10.914655  -60.814995  -58.024052  0
-11.412748  -60.538307  -57.965752  0
-11.841317  -60.578346  -57.792194  0
-13.581414  -60.730194  -58.174046  0
-13.356143  -60.587704  -57.906158  0
-10.190311  -61.039852  -58.326359  0
-10.534500  -61.231758  -58.048508  0
-10.865692  -61.172226  -57.910442  0
-11.269344  -61.043182  -57.806881  0
-13.741488  -61.020927  -58.078465  0
-13.502412  -60.875507  -57.827324  0
-14.003408  -61.320835  -58.232937  0
-10.178888  -61.500973  -58.207779  0
-10.409074  -61.690773  -58.007290  0
-10.794114  -61.578453  -57.828110  0
-14.251634  -61.612957  -58.076157  0
-14.445148  -61.857868  -58.333641  0
-10.159353  -61.973156  -58.159817  0
-10.464052  -62.149834  -57.908237  0
-14.527171  -62.082008  -58.165665  0
-14.540259  -62.303387  -58.019032  0
-10.155529  -62.486233  -58.149349  0
-10.436372  -62.749561  -57.913239  0
-14.514680  -62.560188  -58.211212  0
-14.511209  -62.856201  -58.409058  0
-10.177212  -63.016434  -58.174133  0
-10.557863  -63.310341  -57.937527  0
-14.524866  -63.100452  -58.201347  0
-14.486601  -63.373871  -58.053596  0
-10.203385  -63.511250  -58.276466  0
-10.324784  -63.897591  -58.372692  0
-10.613477  -63.763218  -58.106644  0
-10.983198  -63.691589  -57.807209  0
-14.352229  -63.671101  -58.304066  0
-10.612793  -64.093994  -58.313694  0
-10.869154  -64.376816  -58.339558  0
-10.973012  -64.048439  -58.054943  0
-11.372427  -64.380440  -58.011433  0
-11.295380  -64.000153  -57.800716  0
-14.253378  -64.045143  -58.121716  0
-11.694996  -64.673027  -57.991768  0
-12.091796  -64.843460  -57.865536  0
-14.097447  -64.446297  -58.233730  0
-13.933972  -64.737877  -58.307774  0
-13.919977  -64.705589  -57.954865  0
-11.688094  -65.036713  -58.208435  0
-11.911008  -65.417343  -58.334545  0
-12.121247  -65.183891  -58.099693  0
-12.441909  -65.440117  -58.249298  0
-12.555801  -65.123451  -57.914658  0
-12.874615  -65.323334  -58.111923  0
-13.090044  -65.125984  -57.868889  0
-13.666449  -65.006165  -58.284622  0
-13.278766  -65.248070  -58.158218  0
-13.543707  -64.991226  -57.894363  0
-12.660498  -60.385189  -57.713360  0
-13.070217  -60.418514  -57.808174  0
-12.269575  -60.498856  -57.682846  0
-12.041433  -60.774326  -57.617802  0
-12.447968  -60.773956  -57.533169  0
-13.185129  -60.731243  -57.652905  0
-12.862582  -60.623970  -57.586533  0
-11.713600  -60.956066  -57.665474  0
-11.488646  -61.258465  -57.636963  0
-11.934848  -61.204838  -57.494015  0
-12.452369  -61.164322  -57.391277  0
-13.338415  -61.042599  -57.574772  0
-12.913035  -61.006119  -57.450035  0
-13.714713  -61.241772  -57.742493  0
-14.042689  -61.466324  -57.826088  0
-11.175909  -61.466698  -57.687637  0
-11.011475  -61.793346  -57.650360  0
-11.389997  -61.664490  -57.523518  0
-11.781400  -61.711456  -57.330765  0
-12.246907  -61.515697  -57.285934  0
-12.761135  -61.436714  -57.266090  0
-13.339622  -61.416046  -57.366096  0
-14.171553  -61.622257  -57.754204  0
-13.915599  -61.618656  -57.512573  0
-14.316213  -61.871201  -57.775898  0
-10.773896  -62.047657  -57.711250  0
-11.054874  -62.204697  -57.526535  0
-11.451337  -62.089108  -57.334991  0
-14.487377  -62.139629  -57.818516  0
-14.491552  -62.272091  -57.740879  0
-14.331818  -62.199070  -57.504208  0
-10.706528  -62.492920  -57.697723  0
-10.992917  -62.772209  -57.505890  0
-11.312473  -62.582718  -57.317299  0
-14.451632  -62.451370  -57.735401  0
-14.211745  -62.523819  -57.313416  0
-14.437859  -62.851048  -57.785347  0
-10.737844  -62.996723  -57.700718  0
-10.873734  -63.364071  -57.702137  0
-11.039183  -63.214680  -57.532852  0
-11.305632  -63.081661  -57.339828  0
-14.504672  -63.174255  -57.832691  0
-14.470685  -63.361572  -57.755005  0
-14.349261  -63.252567  -57.512352  0
-11.123012  -63.514145  -57.591141  0
-11.418435  -63.747990  -57.530178  0
-11.307653  -63.429966  -57.430019  0
-14.318266  -63.717678  -57.762650  0
-14.118904  -63.605190  -57.304512  0
-11.643551  -64.100716  -57.612259  0
-11.940284  -64.406700  -57.622726  0
-11.899173  -64.136185  -57.434361  0
-14.139058  -64.285759  -57.839203  0
-13.995253  -64.492760  -57.687145  0
-13.963737  -64.183891  -57.450726  0
-12.294982  -64.633255  -57.569771  0
-12.474053  -64.848572  -57.674164  0
-12.650354  -64.658005  -57.434101  0
-12.866840  -64.913116  -57.631287  0
-13.097642  -64.650314  -57.366364  0
-13.761785  -64.668953  -57.633224  0
-13.342291  -64.860687  -57.608284  0
-13.549338  -64.521591  -57.366688  0
-12.104836  -61.906803  -57.150913  0
-12.584514  -61.818291  -57.111549  0
-13.100861  -61.784050  -57.110882  0
-13.602863  -61.831646  -57.167061  0
-14.031985  -61.972054  -57.302670  0
-11.757315  -62.056854  -57.194462  0
-12.026940  -62.315239  -57.040234  0
-12.474390  -62.221073  -56.985931  0
-12.979896  -62.157280  -56.968597  0
-13.391527  -62.082439  -56.994328  0
-14.076500  -62.238361  -57.176571  0
-13.915049  -62.408131  -57.042194  0
-13.768921  -62.161983  -57.040222  0
-11.654561  -62.437229  -57.149155  0
-12.010061  -62.790218  -56.977299  0
-12.440389  -62.677853  -56.897316  0
-12.927202  -62.587719  -56.879501  0
-13.935720  -62.667713  -57.053768  0
-13.509102  -62.499527  -56.931053  0
-14.167317  -62.917103  -57.258495  0
-11.637930  -62.939266  -57.136898  0
-12.051318  -63.303009  -56.984558  0
-12.466393  -63.179806  -56.863781  0
-12.927541  -63.067440  -56.839897  0
-13.331892  -62.927135  -56.870239  0
-14.103765  -63.238216  -57.179153  0
-13.894778  -63.425583  -57.058182  0
-13.795758  -63.017067  -56.992184  0
-11.663743  -63.466888  -57.229527  0
-11.825438  -63.901234  -57.328281  0
-12.113584  -63.766781  -57.078606  0
-12.502221  -63.667580  -56.911095  0
-12.956111  -63.568432  -56.863312  0
-13.788873  -63.812115  -57.109379  0
-13.465361  -63.412636  -56.917351  0
-12.119550  -64.119743  -57.267925  0
-12.385598  -64.389885  -57.320873  0
-12.485995  -64.075867  -57.064255  0
-12.813778  -64.382835  -57.172813  0
-12.920475  -64.021729  -56.968227  0
-13.634662  -64.189102  -57.173820  0
-13.264346  -64.322968  -57.133968  0
-13.374812  -63.923180  -56.984428  0
18 24 0 0
1 20 0 0
0 20 18 0
1 27 20 0
24 26 0 0
0 26 1 0
1 26 28 0
1 28 27 0
31 38 2 0
3 33 2 0
2 33 31 0
3 40 33 0
2 38 4 0
4 38 46 0
2 5 3 0
2 4 5 0
40 3 41 0
3 6 41 0
3 5 6 0
7 43 6 0
6 43 41 0
7 48 43 0
4 46 8 0
8 46 51 0
4 9 5 0
4 8 9 0
5 10 6 0
5 9 10 0
49 7 53 0
7 10 53 0
7 6 10 0
7 49 48 0
8 51 11 0
11 51 56 0
8 12 9 0
8 11 12 0
9 13 10 0
9 12 13 0
53 10 60 0
60 10 13 0
56 58 11 0
11 58 12 0
12 58 59 0
12 59 13 0
13 59 61 0
13 61 60 0
66 73 14 0
15 68 14 0
14 68 66 0
16 70 15 0
15 70 68 0
16 77 70 0
73 75 14 0
14 75 15 0
15 75 76 0
82 17 76 0
17 15 76 0
17 16 15 0
77 16 85 0
85 16 17 0
79 87 19 0
21 80 19 0
19 80 79 0
22 83 21 0
21 83 80 0
83 22 82 0
22 17 82 0
22 23 17 0
85 17 89 0
89 17 23 0
88 92 25 0
88 25 87 0
87 25 19 0
25 24 19 0
24 18 19 0
19 18 20 0
19 20 21 0
21 20 27 0
29 21 27 0
22 21 29 0
22 30 23 0
22 29 30 0
89 23 94 0
94 23 30 0
92 93 25 0
93 98 32 0
93 32 26 0
25 93 26 0
24 25 26 0
34 28 26 0
34 26 32 0
29 27 28 0
34 29 28 0
35 29 34 0
29 36 30 0
29 35 36 0
94 30 95 0
30 37 95 0
30 36 37 0
37 101 95 0
99 104 39 0
99 39 98 0
98 39 32 0
39 38 32 0
38 31 32 0
32 31 33 0
32 33 34 0
34 33 40 0
42 34 40 0
35 34 42 0
35 44 36 0
35 42 44 0
36 45 37 0
36 44 45 0
101 37 106 0
106 37 45 0
39 104 47 0
47 104 109 0
47 46 38 0
47 38 39 0
41 42 40 0
42 41 43 0
42 43 44 0
44 43 48 0
50 44 48 0
45 44 50 0
106 45 110 0
110 45 50 0
47 109 52 0
52 109 113 0
52 51 46 0
52 46 47 0
53 54 49 0
50 48 49 0
54 50 49 0
55 50 54 0
110 50 114 0
114 50 55 0
52 113 57 0
57 113 118 0
57 56 51 0
57 51 52 0
60 62 54 0
60 54 53 0
115 55 120 0
55 62 120 0
55 54 62 0
55 115 114 0
118 119 57 0
119 124 63 0
119 63 58 0
57 119 58 0
56 57 58 0
64 59 58 0
64 58 63 0
65 61 59 0
65 59 64 0
65 127 61 0
61 127 60 0
127 121 60 0
121 62 60 0
62 121 120 0
124 125 63 0
63 125 64 0
64 125 126 0
64 126 65 0
65 126 128 0
65 128 127 0
132 139 67 0
69 133 67 0
67 133 132 0
71 135 69 0
69 135 133 0
72 137 71 0
71 137 135 0
72 141 137 0
140 143 74 0
140 74 139 0
139 74 67 0
74 73 67 0
73 66 67 0
67 66 68 0
67 68 69 0
69 68 70 0
69 70 71 0
71 70 77 0
78 71 77 0
72 71 78 0
141 72 145 0
145 72 78 0
143 144 74 0
144 147 81 0
144 81 75 0
74 144 75 0
73 74 75 0
84 76 75 0
84 75 81 0
84 82 76 0
85 86 78 0
85 78 77 0
145 78 150 0
150 78 86 0
148 153 79 0
79 153 87 0
80 81 147 0
148 80 147 0
79 80 148 0
81 80 83 0
81 83 84 0
84 83 82 0
89 90 86 0
89 86 85 0
150 86 151 0
86 91 151 0
86 90 91 0
91 156 151 0
154 158 88 0
88 158 92 0
88 87 153 0
88 153 154 0
94 96 90 0
94 90 89 0
90 97 91 0
90 96 97 0
156 91 159 0
159 91 97 0
93 92 100 0
92 163 100 0
92 158 163 0
100 98 93 0
95 96 94 0
96 95 101 0
102 96 101 0
97 96 102 0
159 97 160 0
97 103 160 0
97 102 103 0
103 165 160 0
164 168 105 0
164 105 163 0
163 105 100 0
105 104 100 0
104 99 100 0
100 99 98 0
106 107 102 0
106 102 101 0
102 108 103 0
102 107 108 0
165 103 171 0
171 103 108 0
168 169 105 0
104 105 169 0
173 104 169 0
109 104 173 0
110 111 107 0
110 107 106 0
107 112 108 0
107 111 112 0
171 108 174 0
174 108 112 0
173 113 109 0
176 113 173 0
114 116 111 0
114 111 110 0
111 117 112 0
111 116 117 0
174 112 177 0
177 112 117 0
176 118 113 0
180 118 176 0
120 122 115 0
116 114 115 0
122 116 115 0
123 116 122 0
178 117 183 0
117 123 183 0
117 116 123 0
117 178 177 0
180 181 118 0
118 181 119 0
124 119 181 0
124 181 186 0
127 129 121 0
129 189 121 0
121 189 120 0
189 182 120 0
182 122 120 0
122 182 123 0
123 182 184 0
123 184 183 0
186 187 124 0
124 187 125 0
125 188 126 0
187 188 125 0
188 192 130 0
128 188 130 0
126 188 128 0
129 127 128 0
130 129 128 0
131 129 130 0
189 129 194 0
194 129 131 0
192 193 130 0
130 193 131 0
131 193 195 0
131 195 194 0
198 201 134 0
136 199 134 0
134 199 198 0
138 200 136 0
136 200 199 0
138 203 200 0
202 206 132 0
132 206 139 0
133 134 201 0
202 133 201 0
132 133 202 0
134 133 135 0
134 135 136 0
136 135 137 0
136 137 138 0
142 204 141 0
141 204 137 0
204 203 137 0
203 138 137 0
142 208 204 0
207 210 140 0
140 210 143 0
140 139 206 0
140 206 207 0
145 146 142 0
145 142 141 0
208 142 212 0
212 142 146 0
144 143 149 0
143 214 149 0
143 210 214 0
149 147 144 0
150 152 146 0
150 146 145 0
212 146 216 0
216 146 152 0
215 220 155 0
215 155 214 0
214 155 149 0
155 153 149 0
153 148 149 0
149 148 147 0
151 152 150 0
157 217 156 0
156 217 151 0
217 216 151 0
216 152 151 0
157 221 217 0
155 220 154 0
220 158 154 0
220 224 158 0
155 154 153 0
159 161 157 0
159 157 156 0
221 157 222 0
157 162 222 0
157 161 162 0
162 225 222 0
224 163 158 0
228 163 224 0
160 161 159 0
161 160 165 0
166 161 165 0
162 161 166 0
225 162 226 0
162 167 226 0
162 166 167 0
167 229 226 0
170 168 164 0
232 170 164 0
163 232 164 0
228 232 163 0
171 172 166 0
171 166 165 0
230 167 233 0
167 172 233 0
167 166 172 0
167 230 229 0
170 169 168 0
173 169 170 0
232 173 170 0
235 173 232 0
174 175 172 0
174 172 171 0
233 172 237 0
237 172 175 0
235 176 173 0
239 176 235 0
177 179 175 0
177 175 174 0
237 175 241 0
241 175 179 0
239 180 176 0
244 180 239 0
183 185 178 0
185 247 178 0
178 247 177 0
247 242 177 0
242 179 177 0
179 242 241 0
244 245 180 0
180 245 181 0
186 181 245 0
186 245 251 0
189 190 182 0
191 184 182 0
191 182 190 0
191 255 184 0
184 255 183 0
255 248 183 0
248 185 183 0
185 248 247 0
251 252 186 0
186 252 187 0
187 254 188 0
252 254 187 0
192 188 254 0
192 254 259 0
194 196 190 0
194 190 189 0
256 191 261 0
191 196 261 0
191 190 196 0
191 256 255 0
259 260 192 0
192 260 193 0
260 265 197 0
195 260 197 0
193 260 195 0
197 266 195 0
195 266 194 0
266 262 194 0
262 196 194 0
196 262 261 0
265 267 197 0
197 267 266 0
269 273 198 0
198 273 201 0
270 198 199 0
270 269 198 0
271 199 200 0
271 270 199 0
205 272 203 0
272 200 203 0
272 271 200 0
205 277 272 0
274 280 202 0
202 280 206 0
202 201 273 0
202 273 274 0
204 205 203 0
209 278 208 0
208 278 204 0
278 277 204 0
277 205 204 0
209 282 278 0
211 210 207 0
284 211 207 0
206 284 207 0
280 284 206 0
212 213 209 0
212 209 208 0
282 209 287 0
287 209 213 0
285 290 211 0
290 210 211 0
290 214 210 0
285 211 284 0
216 218 213 0
216 213 212 0
287 213 288 0
213 219 288 0
213 218 219 0
219 293 288 0
291 295 215 0
215 295 220 0
215 214 290 0
215 290 291 0
217 218 216 0
218 217 221 0
223 218 221 0
219 218 223 0
293 219 297 0
297 219 223 0
295 224 220 0
300 224 295 0
222 223 221 0
227 298 225 0
225 298 222 0
298 297 222 0
297 223 222 0
227 302 298 0
300 228 224 0
305 228 300 0
226 227 225 0
231 303 229 0
229 303 226 0
303 302 226 0
302 227 226 0
231 307 303 0
305 232 228 0
310 232 305 0
233 234 230 0
234 313 230 0
230 313 229 0
313 308 229 0
308 231 229 0
231 308 307 0
236 235 311 0
235 310 311 0
235 232 310 0
315 236 311 0
237 238 234 0
237 234 233 0
313 234 316 0
316 234 238 0
240 239 236 0
236 239 235 0
236 315 318 0
236 318 240 0
241 243 238 0
241 238 237 0
316 238 319 0
319 238 243 0
246 244 240 0
240 244 239 0
240 318 321 0
240 321 246 0
247 249 242 0
243 241 242 0
249 243 242 0
250 243 249 0
319 243 323 0
323 243 250 0
246 245 244 0
322 253 251 0
322 251 245 0
321 322 245 0
246 321 245 0
326 253 322 0
255 257 248 0
249 247 248 0
257 249 248 0
258 249 257 0
324 250 328 0
250 258 328 0
250 249 258 0
250 324 323 0
253 252 251 0
326 327 253 0
327 252 253 0
327 254 252 0
259 254 327 0
259 327 331 0
261 263 256 0
257 255 256 0
263 257 256 0
264 257 263 0
329 258 334 0
258 264 334 0
258 257 264 0
258 329 328 0
331 332 259 0
259 332 260 0
265 260 332 0
265 332 337 0
266 268 262 0
268 339 262 0
262 339 261 0
339 333 261 0
333 263 261 0
263 333 264 0
264 333 335 0
264 335 334 0
337 338 265 0
265 338 267 0
266 267 268 0
267 340 268 0
267 338 340 0
268 340 339 0
275 273 269 0
270 276 269 0
269 276 275 0
276 270 347 0
270 343 347 0
270 271 343 0
344 271 272 0
344 343 271 0
279 345 277 0
345 272 277 0
345 344 272 0
279 350 345 0
281 280 274 0
353 281 274 0
353 274 273 0
346 353 273 0
275 346 273 0
346 275 276 0
346 276 348 0
348 276 347 0
278 279 277 0
283 351 282 0
282 351 278 0
351 350 278 0
350 279 278 0
283 355 351 0
286 284 281 0
281 284 280 0
281 353 357 0
281 357 286 0
287 289 283 0
287 283 282 0
355 283 359 0
359 283 289 0
292 290 285 0
362 292 285 0
362 285 284 0
358 362 284 0
286 358 284 0
358 286 357 0
288 289 287 0
294 360 293 0
293 360 288 0
360 359 288 0
359 289 288 0
294 365 360 0
296 295 291 0
366 296 291 0
366 291 290 0
363 366 290 0
292 363 290 0
363 292 362 0
297 299 294 0
297 294 293 0
365 294 368 0
368 294 299 0
301 300 296 0
296 300 295 0
296 366 371 0
296 371 301 0
298 299 297 0
304 369 302 0
302 369 298 0
369 368 298 0
368 299 298 0
304 373 369 0
306 305 301 0
301 305 300 0
301 371 376 0
301 376 306 0
303 304 302 0
309 374 307 0
307 374 303 0
374 373 303 0
373 304 303 0
309 378 374 0
312 310 306 0
306 310 305 0
306 376 380 0
306 380 312 0
313 314 308 0
314 382 308 0
308 382 307 0
382 379 307 0
379 309 307 0
309 379 378 0
312 311 310 0
315 311 312 0
380 315 312 0
384 315 380 0
316 317 314 0
316 314 313 0
382 314 386 0
386 314 317 0
384 318 315 0
388 318 384 0
319 320 317 0
319 317 316 0
386 317 390 0
390 317 320 0
388 321 318 0
391 321 388 0
323 325 320 0
323 320 319 0
390 320 394 0
394 320 325 0
391 392 321 0
321 392 322 0
326 322 392 0
326 392 396 0
328 330 324 0
330 400 324 0
324 400 323 0
400 395 323 0
395 325 323 0
325 395 394 0
396 397 326 0
326 397 327 0
331 327 397 0
331 397 403 0
334 336 329 0
336 406 329 0
329 406 328 0
406 401 328 0
401 330 328 0
330 401 400 0
403 404 331 0
331 404 332 0
337 332 404 0
337 404 409 0
339 341 333 0
342 335 333 0
342 333 341 0
342 414 335 0
335 414 334 0
414 407 334 0
407 336 334 0
336 407 406 0
409 410 337 0
337 410 338 0
338 412 340 0
410 412 338 0
339 340 341 0
340 413 341 0
340 412 413 0
341 413 342 0
342 413 415 0
342 415 414 0
349 347 343 0
349 343 421 0
343 417 421 0
343 344 417 0
418 344 345 0
418 417 344 0
352 419 350 0
419 345 350 0
419 418 345 0
352 425 419 0
354 353 346 0
354 346 428 0
346 420 428 0
346 348 420 0
348 347 349 0
422 348 349 0
420 348 422 0
422 349 421 0
351 352 350 0
356 427 355 0
355 427 351 0
427 425 351 0
425 352 351 0
356 432 427 0
429 434 354 0
434 353 354 0
434 357 353 0
429 354 428 0
359 361 356 0
359 356 355 0
432 356 436 0
436 356 361 0
364 362 358 0
437 364 358 0
357 437 358 0
434 437 357 0
360 361 359 0
360 365 361 0
365 436 361 0
365 440 436 0
367 366 363 0
443 367 363 0
443 363 362 0
438 443 362 0
364 438 362 0
438 364 437 0
368 370 441 0
440 368 441 0
365 368 440 0
370 445 441 0
372 371 367 0
367 371 366 0
367 443 447 0
367 447 372 0
369 370 368 0
375 446 373 0
373 446 369 0
446 445 369 0
445 370 369 0
375 449 446 0
377 376 372 0
372 376 371 0
372 447 450 0
372 450 377 0
374 375 373 0
374 378 375 0
378 449 375 0
378 452 449 0
381 380 377 0
377 380 376 0
377 450 454 0
377 454 381 0
382 383 379 0
383 456 379 0
456 378 379 0
456 452 378 0
385 384 381 0
381 384 380 0
381 454 457 0
381 457 385 0
386 387 383 0
386 383 382 0
456 383 459 0
459 383 387 0
389 388 385 0
385 388 384 0
385 457 462 0
385 462 389 0
464 460 387 0
386 464 387 0
390 464 386 0
387 460 459 0
393 391 389 0
389 391 388 0
389 462 466 0
389 466 393 0
394 464 390 0
394 471 464 0
393 392 391 0
467 398 396 0
467 396 392 0
466 467 392 0
393 466 392 0
469 399 398 0
469 398 467 0
473 399 469 0
400 402 395 0
402 475 395 0
475 394 395 0
475 471 394 0
398 397 396 0
397 398 403 0
398 405 403 0
398 399 405 0
399 473 477 0
399 477 405 0
406 408 401 0
408 480 401 0
401 480 400 0
480 476 400 0
476 402 400 0
402 476 475 0
405 404 403 0
478 411 409 0
478 409 404 0
477 478 404 0
405 477 404 0
482 411 478 0
414 416 407 0
416 488 407 0
407 488 406 0
488 481 406 0
481 408 406 0
408 481 480 0
411 410 409 0
482 483 411 0
483 410 411 0
483 412 410 0
412 485 413 0
483 485 412 0
413 487 415 0
485 487 413 0
414 415 416 0
415 489 416 0
415 487 489 0
416 489 488 0
423 421 417 0
418 424 417 0
417 424 423 0
419 426 418 0
418 426 424 0
425 426 419 0
430 428 420 0
422 431 420 0
420 431 430 0
494 431 422 0
494 422 421 0
490 494 421 0
423 490 421 0
490 423 424 0
490 424 491 0
491 424 426 0
491 426 492 0
498 492 433 0
433 492 427 0
492 426 427 0
426 425 427 0
432 433 427 0
435 434 429 0
501 435 429 0
501 429 428 0
493 501 428 0
430 493 428 0
493 430 431 0
493 431 495 0
495 431 494 0
500 498 433 0
433 432 500 0
432 505 500 0
432 436 505 0
439 437 435 0
435 437 434 0
435 501 507 0
435 507 439 0
440 442 506 0
505 440 506 0
436 440 505 0
442 510 506 0
444 443 438 0
511 444 438 0
511 438 437 0
508 511 437 0
439 508 437 0
508 439 507 0
441 442 440 0
441 445 442 0
445 510 442 0
445 513 510 0
448 447 444 0
444 447 443 0
444 511 515 0
444 515 448 0
514 513 445 0
514 445 446 0
446 449 514 0
514 449 517 0
451 450 448 0
448 450 447 0
448 515 519 0
448 519 451 0
452 453 518 0
517 452 518 0
449 452 517 0
453 521 518 0
455 454 451 0
451 454 450 0
451 519 523 0
451 523 455 0
525 522 453 0
452 525 453 0
456 525 452 0
453 522 521 0
458 457 455 0
455 457 454 0
455 523 527 0
455 527 458 0
459 461 526 0
525 459 526 0
456 459 525 0
461 529 526 0
463 462 458 0
458 462 457 0
458 527 531 0
458 531 463 0
464 465 460 0
465 534 460 0
460 534 459 0
534 530 459 0
530 461 459 0
461 530 529 0
468 466 463 0
463 466 462 0
463 531 532 0
470 463 532 0
468 463 470 0
535 470 532 0
471 472 465 0
471 465 464 0
534 465 538 0
538 465 472 0
468 467 466 0
467 468 469 0
469 468 470 0
536 474 473 0
536 473 469 0
535 536 469 0
470 535 469 0
540 474 536 0
543 539 472 0
471 543 472 0
475 543 471 0
472 539 538 0
479 477 474 0
474 477 473 0
474 540 546 0
474 546 479 0
551 544 476 0
551 476 480 0
475 476 543 0
543 476 544 0
479 478 477 0
547 484 482 0
547 482 478 0
546 547 478 0
479 546 478 0
549 486 484 0
549 484 547 0
554 486 549 0
557 552 481 0
557 481 488 0
480 481 551 0
551 481 552 0
484 483 482 0
483 484 485 0
485 484 486 0
554 555 486 0
555 485 486 0
555 487 485 0
487 558 489 0
555 558 487 0
488 489 557 0
557 489 558 0
496 494 490 0
491 497 490 0
490 497 496 0
492 499 491 0
491 499 497 0
498 499 492 0
502 501 493 0
495 503 493 0
493 503 502 0
494 496 495 0
496 503 495 0
496 504 503 0
497 560 564 0
504 497 564 0
496 497 504 0
560 497 499 0
560 499 561 0
561 499 498 0
500 561 498 0
562 561 500 0
500 505 562 0
562 505 568 0
509 507 502 0
502 507 501 0
503 563 571 0
509 503 571 0
502 503 509 0
563 503 504 0
563 504 565 0
565 504 564 0
570 568 505 0
570 505 506 0
506 510 570 0
570 510 576 0
512 511 508 0
578 512 508 0
578 508 507 0
572 578 507 0
509 572 507 0
572 509 571 0
513 576 510 0
513 582 576 0
516 515 512 0
512 515 511 0
512 578 585 0
512 585 516 0
584 582 513 0
584 513 514 0
514 517 584 0
584 517 588 0
520 519 516 0
516 519 515 0
516 585 590 0
516 590 520 0
589 588 517 0
589 517 518 0
518 521 589 0
589 521 592 0
524 523 520 0
520 523 519 0
520 590 594 0
520 594 524 0
596 593 522 0
596 522 525 0
521 522 592 0
592 522 593 0
528 527 524 0
524 527 523 0
524 594 598 0
524 598 528 0
597 596 525 0
597 525 526 0
526 529 597 0
597 529 600 0
533 531 528 0
528 531 527 0
528 598 602 0
528 602 533 0
606 601 530 0
606 530 534 0
529 530 600 0
600 530 601 0
533 532 531 0
603 537 535 0
603 535 532 0
602 603 532 0
533 602 532 0
607 537 603 0
538 606 534 0
538 612 606 0
537 536 535 0
608 541 540 0
608 540 536 0
607 608 536 0
537 607 536 0
610 542 541 0
610 541 608 0
613 542 610 0
543 545 539 0
545 615 539 0
615 538 539 0
615 612 538 0
548 546 541 0
541 546 540 0
550 541 542 0
548 541 550 0
542 613 618 0
542 618 550 0
551 553 544 0
553 625 544 0
544 625 543 0
625 616 543 0
616 545 543 0
545 616 615 0
548 547 546 0
547 548 549 0
549 548 550 0
619 556 554 0
619 554 549 0
618 619 549 0
550 618 549 0
621 559 556 0
621 556 619 0
552 557 559 0
621 552 559 0
623 552 621 0
551 552 553 0
552 626 553 0
552 623 626 0
553 626 625 0
556 555 554 0
555 556 558 0
558 556 559 0
558 559 557 0
566 564 560 0
561 567 560 0
560 567 566 0
562 569 561 0
561 569 567 0
568 569 562 0
573 571 563 0
565 574 563 0
563 574 573 0
564 566 565 0
566 574 565 0
566 575 574 0
567 628 630 0
575 567 630 0
566 567 575 0
628 567 569 0
628 569 629 0
633 629 577 0
577 629 570 0
629 569 570 0
569 568 570 0
576 577 570 0
579 578 572 0
571 573 572 0
573 579 572 0
573 580 579 0
581 573 574 0
580 573 581 0
575 631 635 0
581 575 635 0
574 575 581 0
631 575 630 0
633 577 583 0
633 583 639 0
582 583 576 0
576 583 577 0
586 585 579 0
579 585 578 0
587 579 580 0
586 579 587 0
581 636 643 0
587 581 643 0
580 581 587 0
636 581 635 0
641 639 583 0
641 583 582 0
584 641 582 0
642 641 584 0
584 588 642 0
642 588 650 0
591 590 586 0
586 590 585 0
587 644 653 0
591 587 653 0
586 587 591 0
644 587 643 0
652 650 588 0
652 588 589 0
589 592 652 0
652 592 656 0
595 594 591 0
591 594 590 0
591 653 659 0
591 659 595 0
662 657 593 0
662 593 596 0
592 593 656 0
656 593 657 0
599 598 595 0
595 598 594 0
595 659 665 0
595 665 599 0
664 662 596 0
664 596 597 0
597 600 664 0
664 600 669 0
604 602 599 0
599 602 598 0
599 665 666 0
605 599 666 0
604 599 605 0
672 605 666 0
675 670 601 0
675 601 606 0
600 601 669 0
669 601 670 0
604 603 602 0
603 604 607 0
604 609 607 0
604 605 609 0
605 672 673 0
611 605 673 0
609 605 611 0
677 611 673 0
612 675 606 0
612 680 675 0
609 608 607 0
608 609 610 0
610 609 611 0
678 614 613 0
678 613 610 0
677 678 610 0
611 677 610 0
683 614 678 0
688 681 617 0
681 680 617 0
680 615 617 0
680 612 615 0
620 618 614 0
614 618 613 0
614 683 684 0
622 614 684 0
620 614 622 0
686 624 622 0
686 622 684 0
689 627 624 0
689 624 686 0
627 689 688 0
627 688 617 0
625 627 617 0
616 625 617 0
616 617 615 0
620 619 618 0
619 620 621 0
621 620 622 0
621 622 623 0
623 622 624 0
623 624 626 0
626 624 627 0
626 627 625 0
632 630 628 0
629 634 628 0
628 634 632 0
633 634 629 0
637 635 631 0
630 632 631 0
632 637 631 0
632 638 637 0
640 632 634 0
638 632 640 0
639 640 633 0
633 640 634 0
645 643 636 0
635 637 636 0
637 645 636 0
637 646 645 0
647 637 638 0
646 637 647 0
648 638 640 0
647 638 648 0
641 649 639 0
649 640 639 0
649 648 640 0
642 651 641 0
641 651 649 0
650 651 642 0
654 653 644 0
643 645 644 0
645 654 644 0
645 655 654 0
646 691 696 0
655 646 696 0
645 646 655 0
691 646 647 0
691 647 692 0
692 647 648 0
692 648 693 0
693 648 649 0
693 649 694 0
694 649 651 0
694 651 695 0
701 695 658 0
658 695 652 0
695 651 652 0
651 650 652 0
656 658 652 0
660 659 654 0
654 659 653 0
661 654 655 0
660 654 661 0
655 696 704 0
655 704 661 0
708 702 663 0
663 702 701 0
663 701 658 0
662 663 658 0
657 662 658 0
657 658 656 0
667 665 660 0
660 665 659 0
668 660 661 0
667 660 668 0
661 704 711 0
661 711 668 0
710 708 663 0
716 710 671 0
671 710 664 0
710 663 664 0
663 662 664 0
669 671 664 0
667 666 665 0
666 667 672 0
667 674 672 0
667 668 674 0
668 711 719 0
668 719 674 0
724 717 676 0
676 717 716 0
676 716 671 0
675 676 671 0
670 675 671 0
670 671 669 0
674 673 672 0
720 679 677 0
720 677 673 0
719 720 673 0
674 719 673 0
726 679 720 0
724 676 682 0
724 682 731 0
680 682 675 0
675 682 676 0
679 678 677 0
727 685 683 0
727 683 678 0
726 727 678 0
679 726 678 0
729 687 685 0
729 685 727 0
732 690 687 0
732 687 729 0
690 732 731 0
690 731 682 0
688 690 682 0
681 688 682 0
681 682 680 0
685 684 683 0
684 685 686 0
686 685 687 0
686 687 689 0
689 687 690 0
689 690 688 0
697 696 691 0
692 698 691 0
691 698 697 0
693 699 692 0
692 699 698 0
694 700 693 0
693 700 699 0
695 703 694 0
694 703 700 0
701 703 695 0
705 704 697 0
697 704 696 0
706 697 698 0
705 697 706 0
707 698 699 0
706 698 707 0
709 699 700 0
707 699 709 0
708 709 702 0
709 703 702 0
709 700 703 0
702 703 701 0
712 711 705 0
705 711 704 0
713 705 706 0
712 705 713 0
714 706 707 0
713 706 714 0
715 707 709 0
714 707 715 0
710 718 708 0
718 709 708 0
718 715 709 0
716 718 710 0
721 719 712 0
712 719 711 0
722 712 713 0
721 712 722 0
723 713 714 0
722 713 723 0
725 714 715 0
723 714 725 0
724 725 717 0
725 718 717 0
725 715 718 0
717 718 716 0
721 720 719 0
720 721 726 0
721 728 726 0
721 722 728 0
730 722 723 0
728 722 730 0
733 723 725 0
730 723 733 0
731 733 724 0
724 733 725 0
728 727 726 0
727 728 729 0
729 728 730 0
729 730 732 0
732 730 733 0
732 733 731 0
