#!ascii version in FreeSurfer format (SUMA)
540 1078
-8.943474  -61.609230  -61.949780  0
-9.443474  -61.609230  -61.949780  0
-8.943474  -62.609230  -61.949780  0
-9.443474  -62.609230  -61.949780  0
-8.943474  -63.109230  -61.949780  0
-9.443474  -63.109230  -61.949780  0
-9.943474  -63.109230  -61.949780  0
-10.443474  -63.109230  -61.949780  0
-8.943474  -63.609230  -61.949780  0
-9.443474  -63.609230  -61.949780  0
-9.943474  -63.609230  -61.949780  0
-8.943474  -64.109230  -61.949780  0
-9.443474  -64.109230  -61.949780  0
-9.943474  -64.109230  -61.949780  0
-9.443474  -60.109230  -61.449776  0
-9.943474  -60.109230  -61.449776  0
-10.443474  -60.109230  -61.449776  0
-10.443474  -60.609230  -61.449776  0
-8.943474  -61.359230  -61.699780  0
-9.443474  -61.359230  -61.699780  0
-9.443474  -61.109230  -61.449776  0
-9.943474  -61.109230  -61.449776  0
-10.443474  -61.109230  -61.449776  0
-8.693474  -61.609230  -61.699780  0
-8.943474  -61.859230  -61.699780  0
-9.693474  -61.609230  -61.699780  0
-9.443474  -61.859230  -61.699780  0
-9.943474  -61.609230  -61.449776  0
-10.443474  -61.609230  -61.449776  0
-8.943474  -62.359230  -61.699780  0
-9.443474  -62.359230  -61.699780  0
-9.943474  -62.109230  -61.449776  0
-10.443474  -62.109230  -61.449776  0
-10.943474  -62.109230  -61.449776  0
-8.693474  -62.609230  -61.699780  0
-8.443474  -62.609230  -61.449776  0
-9.693474  -62.609230  -61.699780  0
-9.943474  -62.859230  -61.699780  0
-9.943474  -62.609230  -61.449776  0
-10.443474  -62.859230  -61.699780  0
-10.443474  -62.609230  -61.449776  0
-10.943474  -62.609230  -61.449776  0
-8.693474  -63.109230  -61.699780  0
-10.693474  -63.109230  -61.699780  0
-10.443474  -63.359230  -61.699780  0
-10.943474  -63.109230  -61.449776  0
-8.693474  -63.609230  -61.699780  0
-10.193474  -63.609230  -61.699780  0
-10.443474  -63.609230  -61.449776  0
-10.943474  -63.609230  -61.449776  0
-8.693474  -64.109230  -61.699780  0
-8.943474  -64.359230  -61.699780  0
-9.443474  -64.359230  -61.699780  0
-10.193474  -64.109230  -61.699780  0
-9.943474  -64.359230  -61.699780  0
-10.443474  -64.109230  -61.449776  0
-9.943474  -64.609230  -61.449776  0
-9.443474  -59.859230  -61.199776  0
-9.943474  -59.859230  -61.199776  0
-9.943474  -59.609230  -60.949776  0
-10.443474  -59.859230  -61.199776  0
-10.443474  -59.609230  -60.949776  0
-10.943474  -59.609230  -60.949776  0
-9.193474  -60.109230  -61.199776  0
-9.443474  -60.359230  -61.199776  0
-9.943474  -60.359230  -61.199776  0
-10.693474  -60.109230  -61.199776  0
-10.943474  -60.109230  -60.949776  0
-9.443474  -60.859230  -61.199776  0
-10.193474  -60.609230  -61.199776  0
-9.943474  -60.859230  -61.199776  0
-9.943474  -60.609230  -60.949776  0
-10.693474  -60.609230  -61.199776  0
-9.193474  -61.109230  -61.199776  0
-8.943474  -61.359230  -61.199776  0
-8.943474  -61.109230  -60.949776  0
-10.693474  -61.109230  -61.199776  0
-10.943474  -61.109230  -60.949776  0
-11.443474  -61.109230  -60.949776  0
-8.693474  -61.609230  -61.199776  0
-8.943474  -61.859230  -61.199776  0
-9.443474  -61.859230  -61.199776  0
-10.693474  -61.609230  -61.199776  0
-10.943474  -61.859230  -61.199776  0
-10.943474  -61.609230  -60.949776  0
-11.443474  -61.609230  -60.949776  0
-8.443474  -62.359230  -61.199776  0
-8.943474  -62.359230  -61.199776  0
-8.943474  -62.109230  -60.949776  0
-9.693474  -62.109230  -61.199776  0
-9.443474  -62.359230  -61.199776  0
-9.443474  -62.109230  -60.949776  0
-11.193474  -62.109230  -61.199776  0
-11.443474  -62.109230  -60.949776  0
-11.943474  -62.109230  -60.949776  0
-8.193474  -62.609230  -61.199776  0
-8.443474  -62.859230  -61.199776  0
-8.443474  -62.609230  -60.949776  0
-11.193474  -62.609230  -61.199776  0
-11.443474  -62.609230  -60.949776  0
-11.943474  -62.609230  -60.949776  0
-8.693474  -63.109230  -61.199776  0
-11.193474  -63.109230  -61.199776  0
-11.443474  -63.109230  -60.949776  0
-11.943474  -63.109230  -60.949776  0
-8.693474  -63.609230  -61.199776  0
-11.193474  -63.609230  -61.199776  0
-10.943474  -63.859230  -61.199776  0
-11.443474  -63.609230  -60.949776  0
-11.943474  -63.609230  -60.949776  0
-8.693474  -64.109230  -61.199776  0
-8.943474  -64.359230  -61.199776  0
-9.443474  -64.359230  -61.199776  0
-10.693474  -64.109230  -61.199776  0
-10.443474  -64.359230  -61.199776  0
-10.943474  -64.109230  -60.949776  0
-11.443474  -64.109230  -60.949776  0
-9.693474  -64.609230  -61.199776  0
-10.193474  -64.609230  -61.199776  0
-9.943474  -64.859230  -61.199776  0
-10.443474  -64.609230  -60.949776  0
-10.443474  -65.109230  -60.949776  0
-9.943474  -59.359230  -60.699776  0
-10.443474  -59.359230  -60.699776  0
-10.943474  -59.359230  -60.699776  0
-9.693474  -59.609230  -60.699776  0
-9.443474  -59.859230  -60.699776  0
-11.193474  -59.609230  -60.699776  0
-11.443474  -59.609230  -60.449776  0
-9.193474  -60.109230  -60.699776  0
-9.443474  -60.359230  -60.699776  0
-9.443474  -60.109230  -60.449776  0
-11.193474  -60.109230  -60.699776  0
-10.943474  -60.359230  -60.699776  0
-11.443474  -60.109230  -60.449776  0
-8.943474  -60.859230  -60.699776  0
-9.693474  -60.609230  -60.699776  0
-9.443474  -60.859230  -60.699776  0
-9.443474  -60.609230  -60.449776  0
-10.693474  -60.609230  -60.699776  0
-10.943474  -60.859230  -60.699776  0
-10.943474  -60.609230  -60.449776  0
-11.443474  -60.859230  -60.699776  0
-11.443474  -60.609230  -60.449776  0
-8.693474  -61.109230  -60.699776  0
-11.693474  -61.109230  -60.699776  0
-11.943474  -61.109230  -60.449776  0
-8.693474  -61.609230  -60.699776  0
-11.693474  -61.609230  -60.699776  0
-11.943474  -61.859230  -60.699776  0
-11.943474  -61.609230  -60.449776  0
-12.443474  -61.609230  -60.449776  0
-8.693474  -62.109230  -60.699776  0
-12.193474  -62.109230  -60.699776  0
-12.443474  -62.109230  -60.449776  0
-12.943474  -62.109230  -60.449776  0
-8.693474  -62.609230  -60.699776  0
-12.193474  -62.609230  -60.699776  0
-12.443474  -62.609230  -60.449776  0
-8.693474  -63.109230  -60.699776  0
-8.943474  -63.109230  -60.449776  0
-12.193474  -63.109230  -60.699776  0
-12.443474  -63.109230  -60.449776  0
-8.693474  -63.609230  -60.699776  0
-8.943474  -63.609230  -60.449776  0
-12.193474  -63.609230  -60.699776  0
-11.943474  -63.859230  -60.699776  0
-8.693474  -64.109230  -60.699776  0
-8.943474  -64.359230  -60.699776  0
-8.943474  -64.109230  -60.449776  0
-9.443474  -64.359230  -60.699776  0
-10.943474  -64.359230  -60.699776  0
-11.693474  -64.109230  -60.699776  0
-11.443474  -64.359230  -60.699776  0
-11.943474  -64.109230  -60.449776  0
-9.693474  -64.609230  -60.699776  0
-9.943474  -64.859230  -60.699776  0
-10.693474  -64.609230  -60.699776  0
-10.943474  -64.609230  -60.449776  0
-11.443474  -64.609230  -60.449776  0
-10.193474  -65.109230  -60.699776  0
-10.693474  -65.109230  -60.699776  0
-10.443474  -65.359230  -60.699776  0
-10.943474  -65.109230  -60.449776  0
-9.943474  -59.359230  -60.199776  0
-10.443474  -59.359230  -60.199776  0
-10.943474  -59.359230  -60.199776  0
-11.443474  -59.359230  -60.199776  0
-9.693474  -59.609230  -60.199776  0
-9.943474  -59.609230  -59.949776  0
-10.443474  -59.609230  -59.949776  0
-11.693474  -59.609230  -60.199776  0
-11.943474  -59.609230  -59.949776  0
-9.693474  -60.109230  -60.199776  0
-9.443474  -60.359230  -60.199776  0
-9.943474  -60.109230  -59.949776  0
-11.693474  -60.109230  -60.199776  0
-11.943474  -60.109230  -59.949776  0
-9.193474  -60.609230  -60.199776  0
-8.943474  -60.859230  -60.199776  0
-9.443474  -60.609230  -59.949776  0
-9.943474  -60.609230  -59.949776  0
-11.693474  -60.609230  -60.199776  0
-11.943474  -60.859230  -60.199776  0
-11.943474  -60.609230  -59.949776  0
-12.443474  -60.609230  -59.949776  0
-8.693474  -61.109230  -60.199776  0
-8.943474  -61.109230  -59.949776  0
-12.193474  -61.109230  -60.199776  0
-12.443474  -61.359230  -60.199776  0
-12.443474  -61.109230  -59.949776  0
-8.693474  -61.609230  -60.199776  0
-8.943474  -61.609230  -59.949776  0
-12.693474  -61.609230  -60.199776  0
-12.943474  -61.859230  -60.199776  0
-12.943474  -61.609230  -59.949776  0
-8.693474  -62.109230  -60.199776  0
-8.943474  -62.109230  -59.949776  0
-13.193474  -62.109230  -60.199776  0
-12.943474  -62.359230  -60.199776  0
-13.443474  -62.109230  -59.949776  0
-8.693474  -62.609230  -60.199776  0
-8.943474  -62.859230  -60.199776  0
-8.943474  -62.609230  -59.949776  0
-12.693474  -62.609230  -60.199776  0
-12.943474  -62.609230  -59.949776  0
-9.193474  -63.109230  -60.199776  0
-12.693474  -63.109230  -60.199776  0
-12.443474  -63.359230  -60.199776  0
-12.943474  -63.109230  -59.949776  0
-9.193474  -63.609230  -60.199776  0
-12.193474  -63.609230  -60.199776  0
-12.443474  -63.609230  -59.949776  0
-12.943474  -63.609230  -59.949776  0
-9.193474  -64.109230  -60.199776  0
-9.443474  -64.359230  -60.199776  0
-12.193474  -64.109230  -60.199776  0
-11.943474  -64.359230  -60.199776  0
-12.443474  -64.109230  -59.949776  0
-12.943474  -64.109230  -59.949776  0
-9.693474  -64.609230  -60.199776  0
-9.943474  -64.859230  -60.199776  0
-9.943474  -64.609230  -59.949776  0
-11.693474  -64.609230  -60.199776  0
-11.443474  -64.859230  -60.199776  0
-11.943474  -64.609230  -59.949776  0
-12.443474  -64.609230  -59.949776  0
-10.193474  -65.109230  -60.199776  0
-10.443474  -65.359230  -60.199776  0
-11.193474  -65.109230  -60.199776  0
-10.943474  -65.359230  -60.199776  0
-11.443474  -65.109230  -59.949776  0
-11.943474  -65.109230  -59.949776  0
-10.943474  -59.359230  -59.699776  0
-11.443474  -59.359230  -59.699776  0
-11.943474  -59.359230  -59.699776  0
-10.693474  -59.609230  -59.699776  0
-10.443474  -59.859230  -59.699776  0
-10.943474  -59.609230  -59.449772  0
-12.193474  -59.609230  -59.699776  0
-12.443474  -59.609230  -59.449772  0
-10.193474  -60.109230  -59.699776  0
-12.193474  -60.109230  -59.699776  0
-12.443474  -60.359230  -59.699776  0
-12.443474  -60.109230  -59.449772  0
-9.443474  -60.859230  -59.699776  0
-10.193474  -60.609230  -59.699776  0
-9.943474  -60.859230  -59.699776  0
-12.693474  -60.609230  -59.699776  0
-9.193474  -61.109230  -59.699776  0
-9.443474  -61.109230  -59.449772  0
-12.693474  -61.109230  -59.699776  0
-12.943474  -61.359230  -59.699776  0
-12.943474  -61.109230  -59.449772  0
-9.193474  -61.609230  -59.699776  0
-9.443474  -61.609230  -59.449772  0
-13.193474  -61.609230  -59.699776  0
-13.443474  -61.859230  -59.699776  0
-13.443474  -61.609230  -59.449772  0
-9.193474  -62.109230  -59.699776  0
-9.443474  -62.109230  -59.449772  0
-13.693474  -62.109230  -59.699776  0
-13.443474  -62.359230  -59.699776  0
-9.193474  -62.609230  -59.699776  0
-9.443474  -62.609230  -59.449772  0
-13.193474  -62.609230  -59.699776  0
-13.443474  -62.609230  -59.449772  0
-9.193474  -63.109230  -59.699776  0
-9.443474  -63.109230  -59.449772  0
-13.193474  -63.109230  -59.699776  0
-13.443474  -63.109230  -59.449772  0
-9.193474  -63.609230  -59.699776  0
-9.443474  -63.609230  -59.449772  0
-13.193474  -63.609230  -59.699776  0
-9.193474  -64.109230  -59.699776  0
-9.443474  -64.359230  -59.699776  0
-9.443474  -64.109230  -59.449772  0
-9.943474  -64.359230  -59.699776  0
-9.943474  -64.109230  -59.449772  0
-13.193474  -64.109230  -59.699776  0
-12.943474  -64.359230  -59.699776  0
-10.193474  -64.609230  -59.699776  0
-10.443474  -64.609230  -59.449772  0
-10.943474  -64.609230  -59.449772  0
-12.693474  -64.609230  -59.699776  0
-12.443474  -64.859230  -59.699776  0
-12.943474  -64.609230  -59.449772  0
-10.193474  -65.109230  -59.699776  0
-10.443474  -65.359230  -59.699776  0
-10.443474  -65.109230  -59.449772  0
-10.943474  -65.359230  -59.699776  0
-11.443474  -65.359230  -59.699776  0
-12.193474  -65.109230  -59.699776  0
-11.943474  -65.359230  -59.699776  0
-12.443474  -65.109230  -59.449772  0
-11.443474  -59.359230  -59.199772  0
-11.943474  -59.359230  -59.199772  0
-12.443474  -59.359230  -59.199772  0
-10.443474  -59.859230  -59.199772  0
-11.193474  -59.609230  -59.199772  0
-10.943474  -59.859230  -59.199772  0
-11.443474  -59.609230  -58.949772  0
-11.943474  -59.609230  -58.949772  0
-12.693474  -59.609230  -59.199772  0
-12.443474  -59.609230  -58.949772  0
-10.193474  -60.109230  -59.199772  0
-10.443474  -60.109230  -58.949772  0
-10.943474  -60.109230  -58.949772  0
-11.443474  -60.109230  -58.949772  0
-12.693474  -60.109230  -59.199772  0
-10.193474  -60.609230  -59.199772  0
-9.943474  -60.859230  -59.199772  0
-10.443474  -60.609230  -58.949772  0
-12.693474  -60.609230  -59.199772  0
-12.943474  -60.859230  -59.199772  0
-12.943474  -60.609230  -58.949772  0
-9.693474  -61.109230  -59.199772  0
-9.943474  -61.109230  -58.949772  0
-13.193474  -61.109230  -59.199772  0
-13.443474  -61.359230  -59.199772  0
-9.693474  -61.609230  -59.199772  0
-9.943474  -61.609230  -58.949772  0
-13.693474  -61.609230  -59.199772  0
-9.693474  -62.109230  -59.199772  0
-9.943474  -62.109230  -58.949772  0
-13.693474  -62.109230  -59.199772  0
-13.943474  -62.109230  -58.949772  0
-9.693474  -62.609230  -59.199772  0
-9.943474  -62.609230  -58.949772  0
-13.693474  -62.609230  -59.199772  0
-9.693474  -63.109230  -59.199772  0
-9.943474  -63.109230  -58.949772  0
-13.693474  -63.109230  -59.199772  0
-13.443474  -63.359230  -59.199772  0
-13.943474  -63.109230  -58.949772  0
-9.693474  -63.609230  -59.199772  0
-9.943474  -63.859230  -59.199772  0
-9.943474  -63.609230  -58.949772  0
-13.193474  -63.609230  -59.199772  0
-13.443474  -63.609230  -58.949772  0
-10.193474  -64.109230  -59.199772  0
-10.443474  -64.359230  -59.199772  0
-10.443474  -64.109230  -58.949772  0
-10.943474  -64.359230  -59.199772  0
-13.193474  -64.109230  -59.199772  0
-13.443474  -64.109230  -58.949772  0
-11.193474  -64.609230  -59.199772  0
-10.943474  -64.859230  -59.199772  0
-11.443474  -64.609230  -58.949772  0
-11.943474  -64.609230  -58.949772  0
-13.193474  -64.609230  -59.199772  0
-12.943474  -64.859230  -59.199772  0
-10.693474  -65.109230  -59.199772  0
-10.943474  -65.359230  -59.199772  0
-10.943474  -65.109230  -58.949772  0
-11.443474  -65.359230  -59.199772  0
-11.443474  -65.109230  -58.949772  0
-11.943474  -65.359230  -59.199772  0
-12.693474  -65.109230  -59.199772  0
-12.443474  -65.359230  -59.199772  0
-11.943474  -59.859230  -58.699772  0
-12.443474  -59.859230  -58.699772  0
-10.943474  -60.359230  -58.699772  0
-11.693474  -60.109230  -58.699772  0
-11.443474  -60.359230  -58.699772  0
-11.943474  -60.109230  -58.449768  0
-12.693474  -60.109230  -58.699772  0
-12.443474  -60.109230  -58.449768  0
-12.943474  -60.359230  -58.699772  0
-10.693474  -60.609230  -58.699772  0
-10.443474  -60.859230  -58.699772  0
-10.943474  -60.609230  -58.449768  0
-11.443474  -60.609230  -58.449768  0
-11.943474  -60.609230  -58.449768  0
-13.193474  -60.609230  -58.699772  0
-10.193474  -61.109230  -58.699772  0
-10.443474  -61.109230  -58.449768  0
-10.943474  -61.109230  -58.449768  0
-11.443474  -61.109230  -58.449768  0
-13.193474  -61.109230  -58.699772  0
-13.443474  -61.359230  -58.699772  0
-10.193474  -61.609230  -58.699772  0
-10.443474  -61.609230  -58.449768  0
-10.943474  -61.609230  -58.449768  0
-13.693474  -61.609230  -58.699772  0
-13.443474  -61.609230  -58.449768  0
-13.943474  -61.859230  -58.699772  0
-10.193474  -62.109230  -58.699772  0
-10.443474  -62.109230  -58.449768  0
-14.193474  -62.109230  -58.699772  0
-13.943474  -62.359230  -58.699772  0
-10.193474  -62.609230  -58.699772  0
-10.443474  -62.609230  -58.449768  0
-13.693474  -62.609230  -58.699772  0
-13.943474  -62.859230  -58.699772  0
-10.193474  -63.109230  -58.699772  0
-10.443474  -63.109230  -58.449768  0
-14.193474  -63.109230  -58.699772  0
-13.943474  -63.359230  -58.699772  0
-10.193474  -63.609230  -58.699772  0
-10.443474  -63.859230  -58.699772  0
-10.443474  -63.609230  -58.449768  0
-10.943474  -63.609230  -58.449768  0
-13.693474  -63.609230  -58.699772  0
-10.693474  -64.109230  -58.699772  0
-10.943474  -64.359230  -58.699772  0
-10.943474  -64.109230  -58.449768  0
-11.443474  -64.359230  -58.699772  0
-11.443474  -64.109230  -58.449768  0
-11.943474  -64.359230  -58.699772  0
-13.693474  -64.109230  -58.699772  0
-13.443474  -64.359230  -58.699772  0
-12.193474  -64.609230  -58.699772  0
-11.943474  -64.859230  -58.699772  0
-12.443474  -64.609230  -58.449768  0
-13.193474  -64.609230  -58.699772  0
-12.943474  -64.859230  -58.699772  0
-13.443474  -64.609230  -58.449768  0
-11.693474  -65.109230  -58.699772  0
-11.943474  -65.359230  -58.699772  0
-11.943474  -65.109230  -58.449768  0
-12.693474  -65.109230  -58.699772  0
-12.443474  -65.359230  -58.699772  0
-12.443474  -65.109230  -58.449768  0
-12.443474  -60.359230  -58.199768  0
-12.943474  -60.359230  -58.199768  0
-12.193474  -60.609230  -58.199768  0
-11.943474  -60.859230  -58.199768  0
-12.443474  -60.609230  -57.949768  0
-13.193474  -60.609230  -58.199768  0
-12.943474  -60.609230  -57.949768  0
-11.693474  -61.109230  -58.199768  0
-11.443474  -61.359230  -58.199768  0
-11.943474  -61.109230  -57.949768  0
-12.443474  -61.109230  -57.949768  0
-13.193474  -61.109230  -58.199768  0
-12.943474  -61.109230  -57.949768  0
-11.193474  -61.609230  -58.199768  0
-10.943474  -61.859230  -58.199768  0
-11.443474  -61.609230  -57.949768  0
-11.943474  -61.609230  -57.949768  0
-12.443474  -61.609230  -57.949768  0
-13.193474  -61.609230  -58.199768  0
-12.943474  -61.609230  -57.949768  0
-13.443474  -61.859230  -58.199768  0
-13.943474  -61.859230  -58.199768  0
-10.693474  -62.109230  -58.199768  0
-10.943474  -62.109230  -57.949768  0
-11.443474  -62.109230  -57.949768  0
-14.193474  -62.109230  -58.199768  0
-13.943474  -62.359230  -58.199768  0
-10.693474  -62.609230  -58.199768  0
-10.943474  -62.609230  -57.949768  0
-11.443474  -62.609230  -57.949768  0
-13.693474  -62.609230  -58.199768  0
-13.943474  -62.859230  -58.199768  0
-10.693474  -63.109230  -58.199768  0
-10.943474  -63.359230  -58.199768  0
-10.943474  -63.109230  -57.949768  0
-11.443474  -63.109230  -57.949768  0
-14.193474  -63.109230  -58.199768  0
-13.943474  -63.359230  -58.199768  0
-11.193474  -63.609230  -58.199768  0
-11.443474  -63.859230  -58.199768  0
-11.443474  -63.609230  -57.949768  0
-13.693474  -63.609230  -58.199768  0
-11.693474  -64.109230  -58.199768  0
-11.943474  -64.359230  -58.199768  0
-11.943474  -64.109230  -57.949768  0
-12.443474  -64.359230  -58.199768  0
-13.693474  -64.109230  -58.199768  0
-12.693474  -64.609230  -58.199768  0
-12.943474  -64.859230  -58.199768  0
-12.943474  -64.609230  -57.949768  0
-13.693474  -64.609230  -58.199768  0
-13.443474  -64.859230  -58.199768  0
-13.443474  -64.609230  -57.949768  0
-11.943474  -61.859230  -57.699768  0
-12.443474  -61.859230  -57.699768  0
-12.943474  -61.859230  -57.699768  0
-13.443474  -61.859230  -57.699768  0
-13.943474  -61.859230  -57.699768  0
-11.693474  -62.109230  -57.699768  0
-11.943474  -62.109230  -57.449768  0
-12.443474  -62.109230  -57.449768  0
-12.943474  -62.109230  -57.449768  0
-13.443474  -62.109230  -57.449768  0
-14.193474  -62.109230  -57.699768  0
-13.943474  -62.359230  -57.699768  0
-13.943474  -62.109230  -57.449768  0
-11.693474  -62.609230  -57.699768  0
-11.943474  -62.609230  -57.449768  0
-12.443474  -62.609230  -57.449768  0
-12.943474  -62.609230  -57.449768  0
-13.693474  -62.609230  -57.699768  0
-13.443474  -62.609230  -57.449768  0
-13.943474  -62.859230  -57.699768  0
-11.693474  -63.109230  -57.699768  0
-11.943474  -63.109230  -57.449768  0
-12.443474  -63.109230  -57.449768  0
-12.943474  -63.109230  -57.449768  0
-13.443474  -63.109230  -57.449768  0
-14.193474  -63.109230  -57.699768  0
-13.943474  -63.359230  -57.699768  0
-13.943474  -63.109230  -57.449768  0
-11.693474  -63.609230  -57.699768  0
-11.943474  -63.859230  -57.699768  0
-11.943474  -63.609230  -57.449768  0
-12.443474  -63.609230  -57.449768  0
-12.943474  -63.609230  -57.449768  0
-13.693474  -63.609230  -57.699768  0
-13.443474  -63.609230  -57.449768  0
-12.193474  -64.109230  -57.699768  0
-12.443474  -64.359230  -57.699768  0
-12.443474  -64.109230  -57.449768  0
-12.943474  -64.359230  -57.699768  0
-12.943474  -64.109230  -57.449768  0
-13.693474  -64.109230  -57.699768  0
-13.443474  -64.359230  -57.699768  0
-13.443474  -64.109230  -57.449768  0
18 23 0 0
1 19 0 0
0 19 18 0
1 25 19 0
23 24 0 0
0 24 1 0
1 24 26 0
1 26 25 0
29 34 2 0
3 30 2 0
2 30 29 0
3 36 30 0
2 34 4 0
4 34 42 0
2 5 3 0
2 4 5 0
36 3 37 0
3 6 37 0
3 5 6 0
7 39 6 0
6 39 37 0
7 43 39 0
4 42 8 0
8 42 46 0
4 9 5 0
4 8 9 0
5 10 6 0
5 9 10 0
44 7 47 0
7 10 47 0
7 6 10 0
7 44 43 0
8 46 11 0
11 46 50 0
8 12 9 0
8 11 12 0
9 13 10 0
9 12 13 0
47 10 53 0
53 10 13 0
50 51 11 0
11 51 12 0
12 51 52 0
12 52 13 0
13 52 54 0
13 54 53 0
57 63 14 0
15 58 14 0
14 58 57 0
16 60 15 0
15 60 58 0
16 66 60 0
63 64 14 0
14 64 15 0
15 64 65 0
69 17 65 0
17 15 65 0
17 16 15 0
66 16 72 0
72 16 17 0
68 73 20 0
21 70 20 0
20 70 68 0
70 21 69 0
21 17 69 0
21 22 17 0
72 17 76 0
76 17 22 0
74 79 18 0
18 79 23 0
19 20 73 0
74 19 73 0
18 19 74 0
20 19 25 0
27 20 25 0
21 20 27 0
21 28 22 0
21 27 28 0
76 22 82 0
82 22 28 0
79 80 23 0
23 80 24 0
24 81 26 0
80 81 24 0
26 81 25 0
81 31 25 0
31 27 25 0
31 81 89 0
27 32 28 0
27 31 32 0
82 28 83 0
28 33 83 0
28 32 33 0
33 92 83 0
86 95 35 0
34 29 35 0
29 86 35 0
29 87 86 0
90 29 30 0
90 87 29 0
38 31 36 0
31 90 36 0
90 30 36 0
31 89 90 0
31 40 32 0
31 38 40 0
32 41 33 0
32 40 41 0
92 33 98 0
98 33 41 0
95 96 35 0
34 35 96 0
101 34 96 0
42 34 101 0
37 38 36 0
38 37 39 0
38 39 40 0
40 39 43 0
45 40 43 0
41 40 45 0
98 41 102 0
102 41 45 0
101 46 42 0
105 46 101 0
47 48 44 0
45 43 44 0
48 45 44 0
49 45 48 0
102 45 106 0
106 45 49 0
105 50 46 0
110 50 105 0
53 55 48 0
53 48 47 0
107 49 113 0
49 55 113 0
49 48 55 0
49 107 106 0
110 111 50 0
50 111 51 0
51 112 52 0
111 112 51 0
112 117 56 0
54 112 56 0
52 112 54 0
56 118 54 0
54 118 53 0
118 114 53 0
114 55 53 0
55 114 113 0
117 119 56 0
56 119 118 0
122 125 59 0
61 123 59 0
59 123 122 0
62 124 61 0
61 124 123 0
62 127 124 0
126 129 57 0
57 129 63 0
58 59 125 0
126 58 125 0
57 58 126 0
59 58 60 0
59 60 61 0
61 60 66 0
67 61 66 0
62 61 67 0
127 62 132 0
132 62 67 0
129 130 63 0
63 130 64 0
130 136 71 0
65 130 71 0
64 130 65 0
71 69 65 0
139 133 67 0
66 139 67 0
72 139 66 0
67 133 132 0
135 144 75 0
73 68 75 0
68 135 75 0
68 137 135 0
70 71 136 0
137 70 136 0
68 70 137 0
71 70 69 0
76 77 140 0
139 76 140 0
72 76 139 0
78 142 77 0
77 142 140 0
78 145 142 0
75 144 74 0
144 79 74 0
144 147 79 0
75 74 73 0
82 84 77 0
82 77 76 0
77 85 78 0
77 84 85 0
145 78 148 0
148 78 85 0
80 79 88 0
79 152 88 0
79 147 152 0
91 81 80 0
91 80 88 0
91 89 81 0
83 84 82 0
84 83 92 0
93 84 92 0
85 84 93 0
148 85 149 0
85 94 149 0
85 93 94 0
94 153 149 0
97 95 86 0
152 156 88 0
156 86 88 0
86 87 88 0
86 156 97 0
88 87 90 0
88 90 91 0
91 90 89 0
98 99 93 0
98 93 92 0
93 100 94 0
93 99 100 0
153 94 157 0
157 94 100 0
97 96 95 0
101 96 97 0
156 101 97 0
159 101 156 0
102 103 99 0
102 99 98 0
99 104 100 0
99 103 104 0
157 100 161 0
161 100 104 0
159 105 101 0
163 105 159 0
106 108 103 0
106 103 102 0
103 109 104 0
103 108 109 0
161 104 165 0
165 104 109 0
163 110 105 0
167 110 163 0
113 115 107 0
108 106 107 0
115 108 107 0
116 108 115 0
166 109 172 0
109 116 172 0
109 108 116 0
109 166 165 0
167 168 110 0
110 168 111 0
111 170 112 0
168 170 111 0
117 112 170 0
117 170 175 0
118 120 114 0
120 177 114 0
114 177 113 0
177 171 113 0
171 115 113 0
115 171 116 0
116 171 173 0
116 173 172 0
175 176 117 0
117 176 119 0
119 176 118 0
176 121 118 0
121 120 118 0
121 176 180 0
177 120 181 0
181 120 121 0
180 182 121 0
121 182 181 0
184 188 122 0
122 188 125 0
185 122 123 0
185 184 122 0
186 123 124 0
186 185 123 0
128 187 127 0
187 124 127 0
187 186 124 0
128 191 187 0
131 129 126 0
193 131 126 0
125 193 126 0
188 193 125 0
132 134 128 0
132 128 127 0
191 128 196 0
196 128 134 0
198 130 138 0
198 129 130 0
198 129 131 0
194 198 131 0
136 194 138 0
136 193 194 0
136 130 131 0
193 136 131 0
139 141 133 0
134 132 133 0
141 134 133 0
143 134 141 0
196 134 202 0
202 134 143 0
199 206 135 0
135 206 144 0
137 138 198 0
199 137 198 0
135 137 199 0
138 137 136 0
140 141 139 0
141 140 142 0
141 142 143 0
146 203 145 0
145 203 142 0
203 202 142 0
202 143 142 0
146 208 203 0
206 147 144 0
211 147 206 0
148 150 146 0
148 146 145 0
208 146 209 0
146 151 209 0
146 150 151 0
151 213 209 0
211 152 147 0
216 152 211 0
149 150 148 0
150 149 153 0
154 150 153 0
151 150 154 0
213 151 214 0
151 155 214 0
151 154 155 0
155 218 214 0
216 156 152 0
221 156 216 0
157 158 154 0
157 154 153 0
219 155 224 0
155 158 224 0
155 154 158 0
155 219 218 0
160 159 222 0
159 221 222 0
159 156 221 0
226 160 222 0
161 162 158 0
161 158 157 0
224 158 227 0
227 158 162 0
164 163 160 0
160 163 159 0
160 226 230 0
160 230 164 0
231 228 162 0
161 231 162 0
165 231 161 0
162 228 227 0
169 167 164 0
164 167 163 0
164 230 234 0
164 234 169 0
172 174 166 0
174 236 166 0
236 165 166 0
236 231 165 0
169 168 167 0
234 235 169 0
235 168 169 0
235 170 168 0
175 170 235 0
175 235 240 0
177 178 171 0
179 173 171 0
179 171 178 0
179 243 173 0
173 243 172 0
243 237 172 0
237 174 172 0
174 237 236 0
240 241 175 0
175 241 176 0
180 176 241 0
180 241 247 0
181 183 178 0
181 178 177 0
244 179 249 0
179 183 249 0
179 178 183 0
179 244 243 0
247 248 180 0
180 248 182 0
181 182 183 0
182 250 183 0
182 248 250 0
183 250 249 0
189 188 184 0
185 190 184 0
184 190 189 0
190 185 256 0
185 253 256 0
185 186 253 0
254 186 187 0
254 253 186 0
192 255 191 0
255 187 191 0
255 254 187 0
192 259 255 0
195 193 189 0
189 193 188 0
190 257 261 0
195 190 261 0
189 190 195 0
257 190 256 0
196 197 192 0
196 192 191 0
259 192 262 0
262 192 197 0
200 198 194 0
193 195 194 0
195 200 194 0
195 201 200 0
195 261 266 0
195 266 201 0
202 204 197 0
202 197 196 0
262 197 263 0
197 205 263 0
197 204 205 0
205 268 263 0
207 206 199 0
269 207 199 0
269 199 198 0
265 269 198 0
200 265 198 0
265 200 201 0
265 201 267 0
267 201 266 0
203 204 202 0
204 203 208 0
210 204 208 0
205 204 210 0
268 205 271 0
271 205 210 0
212 211 207 0
207 211 206 0
207 269 274 0
207 274 212 0
209 210 208 0
215 272 213 0
213 272 209 0
272 271 209 0
271 210 209 0
215 276 272 0
217 216 212 0
212 216 211 0
212 274 279 0
212 279 217 0
214 215 213 0
220 277 218 0
218 277 214 0
277 276 214 0
276 215 214 0
220 281 277 0
223 221 217 0
217 221 216 0
217 279 283 0
217 283 223 0
224 225 219 0
225 285 219 0
219 285 218 0
285 282 218 0
282 220 218 0
220 282 281 0
223 222 221 0
226 222 223 0
283 226 223 0
287 226 283 0
227 229 225 0
227 225 224 0
285 225 289 0
289 225 229 0
287 230 226 0
291 230 287 0
231 232 228 0
229 227 228 0
232 229 228 0
233 229 232 0
289 229 293 0
293 229 233 0
291 234 230 0
294 234 291 0
236 238 232 0
236 232 231 0
232 239 233 0
232 238 239 0
293 233 299 0
299 233 239 0
294 295 234 0
234 295 235 0
297 242 240 0
235 297 240 0
295 297 235 0
301 242 297 0
243 245 237 0
238 236 237 0
245 238 237 0
246 238 245 0
300 239 304 0
239 246 304 0
239 238 246 0
239 300 299 0
242 241 240 0
247 241 242 0
301 247 242 0
307 247 301 0
249 251 244 0
245 243 244 0
251 245 244 0
252 245 251 0
305 246 312 0
246 252 312 0
246 245 252 0
246 305 304 0
307 308 247 0
247 308 248 0
248 310 250 0
308 310 248 0
249 250 251 0
250 311 251 0
250 310 311 0
251 311 252 0
252 311 313 0
252 313 312 0
258 256 253 0
258 253 319 0
253 315 319 0
253 254 315 0
316 254 255 0
316 315 254 0
260 317 259 0
317 255 259 0
317 316 255 0
260 323 317 0
318 325 257 0
257 325 261 0
257 256 258 0
320 257 258 0
318 257 320 0
320 258 319 0
262 264 260 0
262 260 259 0
323 260 329 0
329 260 264 0
325 266 261 0
330 266 325 0
263 264 262 0
263 268 264 0
268 329 264 0
268 333 329 0
270 269 265 0
270 265 336 0
265 331 336 0
265 267 331 0
267 266 330 0
267 330 331 0
271 273 334 0
333 271 334 0
268 271 333 0
273 338 334 0
275 274 270 0
270 274 269 0
270 336 340 0
270 340 275 0
272 273 271 0
278 339 276 0
276 339 272 0
339 338 272 0
338 273 272 0
278 342 339 0
280 279 275 0
275 279 274 0
275 340 343 0
275 343 280 0
277 278 276 0
277 281 278 0
281 342 278 0
281 345 342 0
284 283 280 0
280 283 279 0
280 343 347 0
280 347 284 0
285 286 282 0
286 349 282 0
349 281 282 0
349 345 281 0
288 287 284 0
284 287 283 0
284 347 350 0
284 350 288 0
289 290 286 0
289 286 285 0
349 286 352 0
352 286 290 0
292 291 288 0
288 291 287 0
288 350 355 0
288 355 292 0
358 353 290 0
289 358 290 0
293 358 289 0
290 353 352 0
296 294 292 0
292 294 291 0
292 355 356 0
298 292 356 0
296 292 298 0
360 298 356 0
299 358 293 0
299 364 358 0
296 295 294 0
295 296 297 0
297 296 298 0
361 302 301 0
361 301 297 0
360 361 297 0
298 360 297 0
363 303 302 0
363 302 361 0
366 303 363 0
304 306 300 0
306 370 300 0
370 299 300 0
370 364 299 0
309 307 302 0
302 307 301 0
303 367 372 0
309 303 372 0
302 303 309 0
367 303 366 0
312 314 305 0
314 378 305 0
305 378 304 0
378 371 304 0
371 306 304 0
306 371 370 0
309 308 307 0
372 373 309 0
373 308 309 0
373 310 308 0
310 375 311 0
373 375 310 0
311 377 313 0
375 377 311 0
312 313 314 0
313 379 314 0
313 377 379 0
314 379 378 0
321 319 315 0
316 322 315 0
315 322 321 0
317 324 316 0
316 324 322 0
323 324 317 0
326 325 318 0
320 327 318 0
318 327 326 0
319 321 320 0
321 327 320 0
321 328 327 0
322 380 383 0
328 322 383 0
321 322 328 0
380 322 324 0
380 324 381 0
324 323 381 0
323 386 381 0
323 329 386 0
332 330 326 0
326 330 325 0
327 382 389 0
332 327 389 0
326 327 332 0
382 327 328 0
382 328 384 0
384 328 383 0
333 335 388 0
386 333 388 0
329 333 386 0
335 394 388 0
337 336 331 0
395 337 331 0
395 331 330 0
390 395 330 0
332 390 330 0
390 332 389 0
334 335 333 0
334 338 335 0
338 394 335 0
338 399 394 0
341 340 337 0
337 340 336 0
337 395 401 0
337 401 341 0
400 399 338 0
400 338 339 0
339 342 400 0
400 342 404 0
344 343 341 0
341 343 340 0
341 401 407 0
341 407 344 0
345 346 406 0
404 345 406 0
342 345 404 0
346 409 406 0
348 347 344 0
344 347 343 0
344 407 411 0
344 411 348 0
413 410 346 0
345 413 346 0
349 413 345 0
346 410 409 0
351 350 348 0
348 350 347 0
348 411 415 0
348 415 351 0
352 354 414 0
413 352 414 0
349 352 413 0
354 417 414 0
357 355 351 0
351 355 350 0
351 415 419 0
351 419 357 0
358 359 353 0
359 423 353 0
353 423 352 0
423 418 352 0
418 354 352 0
354 418 417 0
357 356 355 0
420 362 360 0
420 360 356 0
419 420 356 0
357 419 356 0
424 362 420 0
364 365 359 0
364 359 358 0
423 359 430 0
430 359 365 0
362 361 360 0
424 425 362 0
425 361 362 0
425 363 361 0
427 368 366 0
363 427 366 0
425 427 363 0
429 369 368 0
429 368 427 0
432 369 429 0
435 431 365 0
364 435 365 0
370 435 364 0
365 431 430 0
374 372 367 0
366 368 367 0
368 374 367 0
368 376 374 0
369 433 438 0
376 369 438 0
368 369 376 0
433 369 432 0
441 436 371 0
441 371 378 0
370 371 435 0
435 371 436 0
374 373 372 0
373 374 375 0
375 374 376 0
438 439 376 0
439 375 376 0
439 377 375 0
377 442 379 0
439 442 377 0
378 379 441 0
441 379 442 0
385 383 380 0
381 387 380 0
380 387 385 0
386 387 381 0
391 389 382 0
384 392 382 0
382 392 391 0
383 385 384 0
385 392 384 0
385 393 392 0
387 444 446 0
393 387 446 0
385 387 393 0
444 387 386 0
388 444 386 0
445 444 388 0
388 394 445 0
445 394 449 0
396 395 390 0
389 391 390 0
391 396 390 0
391 397 396 0
398 391 392 0
397 391 398 0
393 447 451 0
398 393 451 0
392 393 398 0
447 393 446 0
399 449 394 0
399 455 449 0
402 401 396 0
396 401 395 0
403 396 397 0
402 396 403 0
398 452 457 0
403 398 457 0
397 398 403 0
452 398 451 0
399 400 405 0
462 399 405 0
455 399 462 0
404 405 400 0
408 407 402 0
402 407 401 0
403 458 466 0
408 403 466 0
402 403 408 0
458 403 457 0
464 462 405 0
464 405 404 0
406 464 404 0
465 464 406 0
406 409 465 0
465 409 469 0
412 411 408 0
408 411 407 0
408 466 471 0
408 471 412 0
474 470 410 0
474 410 413 0
409 410 469 0
469 410 470 0
416 415 412 0
412 415 411 0
412 471 476 0
412 476 416 0
475 474 413 0
475 413 414 0
414 417 475 0
475 417 480 0
421 419 416 0
416 419 415 0
416 476 477 0
422 416 477 0
421 416 422 0
482 422 477 0
485 481 418 0
485 418 423 0
417 418 480 0
480 418 481 0
421 420 419 0
420 421 424 0
421 426 424 0
421 422 426 0
422 482 483 0
428 422 483 0
426 422 428 0
486 428 483 0
430 485 423 0
430 490 485 0
426 425 424 0
425 426 427 0
427 426 428 0
486 487 428 0
487 427 428 0
487 429 427 0
489 434 432 0
429 489 432 0
487 489 429 0
491 434 489 0
435 437 431 0
437 494 431 0
494 430 431 0
494 490 430 0
440 438 433 0
432 434 433 0
434 440 433 0
434 443 440 0
492 436 441 0
434 492 441 0
443 434 441 0
492 434 491 0
435 436 437 0
436 495 437 0
436 492 495 0
437 495 494 0
440 439 438 0
439 440 442 0
442 440 443 0
442 443 441 0
448 446 444 0
445 450 444 0
444 450 448 0
449 450 445 0
453 451 447 0
446 448 447 0
448 453 447 0
448 454 453 0
456 448 450 0
454 448 456 0
455 456 449 0
449 456 450 0
459 457 452 0
451 453 452 0
453 459 452 0
453 460 459 0
461 453 454 0
460 453 461 0
463 454 456 0
461 454 463 0
462 463 455 0
455 463 456 0
467 466 458 0
457 459 458 0
459 467 458 0
459 468 467 0
460 497 502 0
468 460 502 0
459 460 468 0
497 460 461 0
497 461 498 0
498 461 463 0
498 463 499 0
499 463 462 0
464 499 462 0
500 499 464 0
501 464 465 0
501 500 464 0
465 469 501 0
501 469 507 0
472 471 467 0
467 471 466 0
473 467 468 0
472 467 473 0
468 502 510 0
468 510 473 0
514 508 470 0
514 470 474 0
469 470 507 0
507 470 508 0
478 476 472 0
472 476 471 0
479 472 473 0
478 472 479 0
473 510 517 0
473 517 479 0
516 514 474 0
516 474 475 0
475 480 516 0
516 480 522 0
478 477 476 0
477 478 482 0
478 484 482 0
478 479 484 0
479 517 525 0
479 525 484 0
530 523 481 0
530 481 485 0
480 481 522 0
522 481 523 0
484 483 482 0
526 488 486 0
526 486 483 0
525 526 483 0
484 525 483 0
532 488 526 0
490 530 485 0
490 537 530 0
488 487 486 0
532 533 488 0
533 487 488 0
533 489 487 0
535 493 491 0
489 535 491 0
533 535 489 0
538 496 493 0
538 493 535 0
538 537 496 0
537 494 496 0
537 490 494 0
493 492 491 0
492 493 495 0
495 493 496 0
495 496 494 0
503 502 497 0
498 504 497 0
497 504 503 0
499 505 498 0
498 505 504 0
500 506 499 0
499 506 505 0
501 509 500 0
500 509 506 0
507 509 501 0
511 510 503 0
503 510 502 0
512 503 504 0
511 503 512 0
513 504 505 0
512 504 513 0
515 505 506 0
513 505 515 0
514 515 508 0
515 509 508 0
515 506 509 0
508 509 507 0
518 517 511 0
511 517 510 0
519 511 512 0
518 511 519 0
520 512 513 0
519 512 520 0
521 513 515 0
520 513 521 0
516 524 514 0
524 515 514 0
524 521 515 0
522 524 516 0
527 525 518 0
518 525 517 0
528 518 519 0
527 518 528 0
529 519 520 0
528 519 529 0
531 520 521 0
529 520 531 0
530 531 523 0
531 524 523 0
531 521 524 0
523 524 522 0
527 526 525 0
526 527 532 0
527 534 532 0
527 528 534 0
536 528 529 0
534 528 536 0
539 529 531 0
536 529 539 0
537 539 530 0
530 539 531 0
534 533 532 0
533 534 535 0
535 534 536 0
535 536 538 0
538 536 539 0
538 539 537 0
