#!ascii version in FreeSurfer format (SUMA)
524 1046
10.216566  -48.472065  -29.292137  0
9.745120  -48.519188  -29.328262  0
9.320251  -48.600407  -29.268307  0
10.001885  -48.788040  -29.301161  0
9.541955  -48.876835  -29.292139  0
10.730867  -47.500572  -28.809299  0
10.200382  -47.458920  -28.845791  0
9.709214  -47.475033  -28.802906  0
10.908822  -47.846203  -28.856476  0
10.438000  -48.241867  -29.185408  0
10.458268  -47.884338  -29.026133  0
10.042458  -48.171825  -29.222672  0
9.884730  -47.797966  -29.033119  0
9.426776  -48.169575  -29.094795  0
9.489189  -47.743057  -28.894093  0
10.502677  -48.419991  -29.190977  0
10.759783  -48.288147  -28.978411  0
10.423499  -48.669514  -29.155546  0
9.055709  -48.511051  -29.099997  0
8.820580  -48.626183  -28.910816  0
10.184862  -48.920853  -29.194870  0
10.394357  -48.975998  -29.002186  0
9.924000  -49.144665  -29.109076  0
9.061081  -48.878250  -29.103212  0
9.418663  -49.159153  -29.120438  0
8.794277  -48.828705  -28.928656  0
9.987232  -49.440594  -28.826706  0
9.615080  -49.413296  -28.896091  0
11.735804  -46.512058  -28.235960  0
11.830984  -46.893360  -28.336182  0
11.396706  -46.739399  -28.344894  0
10.960581  -47.237816  -28.641581  0
10.857821  -46.898659  -28.436468  0
10.488223  -47.147648  -28.642363  0
10.263366  -46.879257  -28.408445  0
9.902593  -47.121277  -28.535467  0
9.960549  -46.875328  -28.354563  0
11.876523  -47.392380  -28.366676  0
11.166272  -47.579151  -28.689426  0
11.412322  -47.194260  -28.504251  0
9.533200  -47.332165  -28.570520  0
9.404703  -47.546001  -28.702671  0
9.331555  -47.462524  -28.480785  0
11.871885  -47.928131  -28.340487  0
11.191384  -48.042980  -28.711206  0
11.533365  -47.742485  -28.528658  0
9.186421  -47.816738  -28.611229  0
8.967252  -48.278957  -28.796177  0
11.867468  -48.381481  -28.256838  0
11.066913  -48.469250  -28.714735  0
11.467652  -48.331963  -28.488810  0
10.741567  -48.729458  -28.869173  0
8.772749  -48.478336  -28.592014  0
11.584295  -48.750015  -28.279930  0
10.652799  -48.986572  -28.792526  0
11.034934  -48.895344  -28.544964  0
10.432808  -49.255371  -28.726324  0
8.742391  -48.761013  -28.680075  0
8.864652  -48.968414  -28.834684  0
8.886337  -48.984756  -28.425320  0
10.197753  -49.532162  -28.568825  0
10.486029  -49.491589  -28.404768  0
9.870223  -49.598148  -28.565264  0
9.174822  -49.234165  -28.813057  0
9.490341  -49.531940  -28.551258  0
9.186037  -49.340858  -28.372387  0
12.237653  -45.848972  -27.793703  0
11.876137  -46.203339  -28.002075  0
12.052700  -45.941521  -27.856640  0
12.103330  -46.577747  -28.150078  0
12.295197  -46.205738  -27.917883  0
11.563654  -46.321819  -28.088869  0
11.399829  -46.481823  -28.196815  0
11.222304  -46.359829  -27.976484  0
10.949491  -46.584137  -28.126213  0
10.868251  -46.435307  -27.820271  0
10.487601  -46.717087  -28.190760  0
10.084892  -46.773121  -28.154638  0
12.192975  -47.064373  -28.181681  0
12.443582  -46.748524  -27.958132  0
9.815624  -46.922691  -28.246447  0
9.883556  -46.881386  -27.921326  0
9.551181  -47.188789  -28.207628  0
12.197898  -47.592022  -28.165762  0
12.485106  -47.291458  -27.943941  0
9.251985  -47.538883  -28.231094  0
9.418072  -47.378830  -27.915535  0
12.155454  -48.083694  -28.134785  0
12.455588  -47.818535  -27.921799  0
9.100773  -47.788971  -28.250614  0
9.226324  -47.726330  -27.902311  0
8.942862  -48.154037  -28.248898  0
12.098691  -48.385353  -28.110889  0
12.355260  -48.311050  -27.900396  0
11.991654  -48.658279  -28.056923  0
8.772756  -48.624424  -28.229425  0
8.835224  -48.766937  -27.946499  0
8.856641  -48.530293  -27.879459  0
11.726438  -48.910873  -28.112082  0
11.934901  -48.958549  -27.900631  0
11.449544  -49.136028  -28.096323  0
10.861186  -49.320080  -28.332859  0
8.989837  -49.043987  -27.958332  0
9.248178  -49.400761  -28.068344  0
8.864314  -48.814812  -27.782074  0
11.488627  -49.380192  -27.780533  0
10.683471  -49.541374  -28.125996  0
11.080132  -49.456036  -27.952301  0
10.243767  -49.655254  -28.124569  0
9.426925  -49.556507  -28.245605  0
9.726971  -49.654854  -28.135481  0
9.444818  -49.547405  -27.966171  0
12.238488  -45.674110  -27.596262  0
12.424992  -45.513988  -27.316994  0
12.051304  -45.749180  -27.684139  0
12.508398  -45.903969  -27.628950  0
12.753573  -45.711830  -27.346308  0
11.761331  -45.915009  -27.609789  0
11.465266  -46.178150  -27.803926  0
11.075424  -46.290649  -27.644701  0
12.660601  -46.453602  -27.700241  0
12.873772  -46.183662  -27.423244  0
10.771795  -46.419922  -27.555437  0
10.948615  -46.327965  -27.340429  0
10.429064  -46.629189  -27.742147  0
12.741506  -47.024693  -27.691925  0
12.972726  -46.763138  -27.431469  0
10.054996  -46.873283  -27.475111  0
9.700900  -47.123844  -27.702967  0
12.742280  -47.565269  -27.679365  0
13.039474  -47.374630  -27.404675  0
9.561657  -47.432404  -27.551714  0
13.215567  -47.847202  -27.251310  0
12.689096  -48.043812  -27.668993  0
12.940377  -47.835876  -27.472902  0
9.432984  -47.782375  -27.443880  0
9.114748  -48.146328  -27.695427  0
12.607443  -48.355949  -27.661083  0
12.902315  -48.302151  -27.412849  0
12.396926  -48.685955  -27.675728  0
8.996420  -48.656357  -27.574009  0
8.861633  -48.729485  -27.708591  0
12.161670  -48.980095  -27.680180  0
12.394927  -48.981915  -27.451527  0
11.940996  -49.200733  -27.640621  0
8.824529  -48.759548  -27.824203  0
8.938806  -48.975945  -27.760426  0
8.998345  -48.949509  -27.566479  0
11.693551  -49.438457  -27.510130  0
12.003449  -49.381546  -27.324106  0
11.258246  -49.582031  -27.499636  0
10.679646  -49.658279  -27.672611  0
10.234924  -49.720989  -27.574503  0
9.949988  -49.701298  -27.728495  0
9.196664  -49.282795  -27.739742  0
9.572346  -49.561131  -27.589970  0
9.271183  -49.263748  -27.320665  0
12.615101  -45.300739  -26.957565  0
12.724377  -45.452644  -27.184752  0
12.886937  -45.578587  -27.184576  0
12.978532  -45.458202  -26.959578  0
12.250034  -45.348808  -26.939875  0
12.021386  -45.608288  -27.301014  0
13.070534  -45.879322  -27.133059  0
13.313276  -45.705929  -26.832893  0
11.668949  -45.838089  -27.052876  0
11.315716  -46.131397  -27.308365  0
13.187629  -46.483967  -27.167181  0
13.409902  -46.202293  -26.889656  0
11.044741  -46.347584  -26.979528  0
10.708005  -46.501675  -27.241343  0
10.401793  -46.719963  -27.193226  0
13.259788  -47.066406  -27.172575  0
13.478812  -46.798145  -26.919149  0
10.174891  -46.890232  -27.173428  0
10.383509  -46.894108  -26.906002  0
9.981894  -47.150497  -27.179632  0
13.304738  -47.491310  -27.174967  0
13.401580  -47.688072  -27.108009  0
13.533212  -47.438129  -26.952610  0
9.729077  -47.545727  -27.185957  0
10.009685  -47.426182  -26.880373  0
13.464329  -47.931992  -27.047255  0
13.742298  -47.906918  -26.802773  0
13.266892  -48.221375  -27.167679  0
9.596437  -47.796776  -27.169313  0
9.791509  -47.768574  -26.871996  0
9.402164  -48.141945  -27.146942  0
13.846426  -48.351795  -26.724089  0
13.117491  -48.532837  -27.165400  0
13.466016  -48.391697  -26.964155  0
12.768006  -48.747017  -27.311321  0
9.239384  -48.596455  -27.004232  0
9.426782  -48.385288  -26.769361  0
13.611906  -48.740376  -26.762226  0
12.666085  -48.970798  -27.225052  0
13.057784  -48.890858  -26.996468  0
12.445316  -49.201530  -27.173775  0
9.150314  -48.933468  -27.166435  0
9.329393  -49.193848  -26.897612  0
12.193925  -49.438652  -27.052391  0
12.492494  -49.403633  -26.871782  0
11.747950  -49.601383  -27.099281  0
11.225749  -49.728542  -27.076836  0
10.798194  -49.745872  -27.139465  0
10.322000  -49.737915  -27.133997  0
9.511260  -49.456303  -27.101404  0
9.876116  -49.648529  -27.186653  0
12.969003  -45.258816  -26.601751  0
12.494417  -45.210716  -26.637413  0
13.248809  -45.432404  -26.705545  0
13.435834  -45.575222  -26.653286  0
13.449966  -45.450848  -26.456882  0
12.226277  -45.290646  -26.659384  0
12.374716  -45.299023  -26.404236  0
12.012592  -45.544159  -26.685795  0
13.608837  -45.880566  -26.596605  0
13.798672  -45.712822  -26.270182  0
11.708971  -45.828152  -26.687473  0
11.888608  -45.838345  -26.370996  0
11.469627  -46.115971  -26.680807  0
13.704340  -46.481133  -26.649765  0
13.924091  -46.182312  -26.365009  0
11.161222  -46.380291  -26.671597  0
11.375866  -46.395206  -26.381784  0
10.858859  -46.628601  -26.710760  0
13.744599  -47.045090  -26.684710  0
13.974516  -46.732700  -26.415586  0
10.611989  -46.887722  -26.644390  0
10.864648  -46.895546  -26.388042  0
10.408797  -47.162807  -26.620947  0
13.792025  -47.474453  -26.700191  0
13.956119  -47.652637  -26.576813  0
13.981891  -47.256649  -26.479954  0
10.161798  -47.564068  -26.538723  0
10.476518  -47.392414  -26.335978  0
14.040777  -47.986332  -26.563765  0
9.947934  -47.866154  -26.502201  0
9.673604  -48.121483  -26.643158  0
14.118719  -48.305161  -26.527473  0
14.315078  -48.423237  -26.317303  0
13.999210  -48.647957  -26.555407  0
9.560791  -48.512722  -26.417074  0
9.345357  -48.629539  -26.673809  0
13.768686  -48.886395  -26.611809  0
13.955404  -48.941860  -26.438910  0
13.488563  -49.113834  -26.582140  0
12.874896  -49.269257  -26.783718  0
9.269077  -48.880138  -26.774052  0
9.391267  -49.073921  -26.574390  0
9.390144  -48.820339  -26.503180  0
13.559578  -49.381905  -26.301878  0
12.709404  -49.495174  -26.623257  0
13.139569  -49.450459  -26.448795  0
12.299052  -49.615715  -26.708736  0
11.876385  -49.811855  -26.612038  0
11.400670  -49.836880  -26.748186  0
10.908555  -49.866032  -26.737001  0
10.377645  -49.809872  -26.619118  0
9.595251  -49.387810  -26.664883  0
9.956010  -49.652126  -26.660778  0
11.952511  -49.979862  -26.280619  0
11.579923  -49.992874  -26.377256  0
11.117657  -50.002457  -26.405367  0
10.644109  -49.966702  -26.326378  0
13.233925  -45.277382  -26.220938  0
12.765528  -45.214142  -26.305887  0
13.611241  -45.426769  -26.154158  0
13.848351  -45.629154  -25.899424  0
13.472335  -45.392563  -25.949257  0
12.608227  -45.306770  -26.164303  0
12.978092  -45.372879  -25.976324  0
12.376163  -45.566105  -26.123476  0
14.046612  -45.948540  -26.086121  0
12.108267  -45.851871  -26.079222  0
12.373458  -45.866306  -25.840479  0
11.877267  -46.134289  -26.091923  0
14.208716  -46.394176  -26.080545  0
14.416636  -46.321270  -25.758392  0
11.620325  -46.403950  -26.098242  0
11.889251  -46.397800  -25.840805  0
11.371097  -46.647942  -26.124353  0
14.227754  -46.986404  -26.196066  0
14.461080  -46.707153  -25.877876  0
11.120809  -46.901230  -26.131693  0
11.391384  -46.902222  -25.876938  0
10.890792  -47.172462  -26.124218  0
14.217771  -47.571224  -26.311003  0
14.492960  -47.237469  -25.958673  0
10.612686  -47.489391  -26.116669  0
10.903852  -47.492805  -25.847486  0
10.370063  -47.601864  -26.254091  0
14.300402  -48.047249  -26.325382  0
14.512187  -48.182991  -26.090807  0
14.519163  -47.773952  -26.030079  0
10.843539  -47.732525  -25.685913  0
10.174744  -47.787189  -26.286341  0
10.477309  -47.793682  -25.960047  0
9.965045  -48.144253  -26.162022  0
14.551154  -48.560791  -25.961859  0
14.253926  -48.753029  -26.285513  0
9.747975  -48.570862  -26.069025  0
9.972013  -48.444305  -25.833740  0
14.160559  -48.962738  -26.259556  0
14.341412  -48.938305  -26.038174  0
13.955620  -49.191685  -26.198687  0
9.604697  -49.011845  -26.245625  0
9.866873  -48.838673  -25.839354  0
13.739892  -49.433071  -26.136715  0
13.917168  -49.462528  -25.897932  0
13.447669  -49.642834  -26.059898  0
12.800466  -49.725239  -26.295614  0
12.290808  -49.868496  -26.326273  0
9.765173  -49.451176  -26.308292  0
10.001533  -49.660950  -26.292643  0
9.951160  -49.406937  -25.950148  0
13.441975  -49.885262  -25.751139  0
13.086534  -49.930355  -25.887569  0
12.196446  -50.050755  -26.046700  0
12.595893  -50.001160  -25.971172  0
11.824665  -50.121944  -25.973787  0
11.374979  -50.101124  -26.100050  0
10.941859  -50.060745  -26.000425  0
10.637246  -49.930252  -25.785345  0
10.242510  -49.810097  -26.151161  0
10.513000  -49.971012  -26.019831  0
10.296191  -49.761353  -25.844824  0
13.947183  -45.730419  -25.516621  0
13.470675  -45.597378  -25.589996  0
12.829302  -45.663532  -25.720949  0
14.201660  -45.982628  -25.718727  0
14.452836  -46.196964  -25.413027  0
13.526933  -45.773617  -25.227467  0
12.672838  -45.873543  -25.606501  0
13.049405  -45.870792  -25.388767  0
12.414984  -46.137135  -25.592972  0
14.577738  -46.493484  -25.569593  0
12.160103  -46.391998  -25.588690  0
12.418550  -46.391525  -25.353315  0
11.907681  -46.640251  -25.607330  0
14.721001  -46.909977  -25.567801  0
14.916068  -46.867508  -25.237579  0
11.661957  -46.895500  -25.621656  0
11.927687  -46.883991  -25.359936  0
11.431007  -47.174744  -25.601168  0
14.765383  -47.491917  -25.694691  0
14.969477  -47.233414  -25.376537  0
11.200333  -47.572994  -25.468891  0
11.565130  -47.362877  -25.277460  0
14.766676  -48.086086  -25.729574  0
14.996574  -47.725384  -25.404366  0
10.951737  -47.835911  -25.444321  0
10.686791  -47.933086  -25.594730  0
10.341867  -48.192928  -25.653536  0
14.819158  -48.567062  -25.495930  0
15.007284  -48.209644  -25.309006  0
10.154027  -48.619896  -25.573244  0
10.465014  -48.454895  -25.345695  0
14.586786  -48.918278  -25.629913  0
14.279700  -49.215332  -25.776785  0
10.113627  -49.084011  -25.606337  0
10.437860  -48.909531  -25.342020  0
14.131237  -49.488724  -25.462601  0
13.732786  -49.731441  -25.591667  0
10.712789  -49.799984  -25.594271  0
10.758598  -49.467960  -25.351315  0
10.200667  -49.471748  -25.669085  0
10.480083  -49.667179  -25.610361  0
10.370201  -49.324890  -25.490282  0
13.497806  -49.939568  -25.505978  0
13.241035  -50.036694  -25.574726  0
13.330222  -50.022808  -25.327559  0
12.823511  -50.106636  -25.603603  0
12.283368  -50.154453  -25.673126  0
11.903180  -50.184418  -25.638628  0
10.961297  -49.919052  -25.622021  0
11.473722  -50.089069  -25.640739  0
11.202362  -49.798996  -25.316078  0
13.811653  -45.749878  -25.241770  0
14.148368  -45.968216  -25.180017  0
14.448930  -46.190861  -25.071356  0
13.689643  -45.822159  -25.085890  0
13.830496  -45.903702  -25.022038  0
13.442729  -46.023083  -25.000406  0
12.854615  -46.187416  -25.196495  0
14.673841  -46.515739  -25.112503  0
14.927800  -46.808449  -24.965412  0
14.499253  -46.303360  -24.898964  0
13.478597  -46.299229  -24.711040  0
12.694856  -46.389614  -25.114433  0
13.017204  -46.388321  -24.885323  0
12.430950  -46.636719  -25.110432  0
15.064009  -47.088276  -25.069517  0
15.014027  -47.012791  -24.790903  0
12.180617  -46.876163  -25.102587  0
12.384544  -46.909096  -24.873487  0
11.927855  -47.134392  -25.106520  0
15.107652  -47.446445  -25.157042  0
11.731265  -47.362473  -25.080082  0
11.882386  -47.397171  -24.865995  0
11.521626  -47.578098  -25.070503  0
15.127043  -47.846977  -25.056990  0
11.173486  -47.798626  -25.214487  0
11.334380  -47.885063  -24.895506  0
10.853509  -48.133053  -25.187550  0
15.099566  -48.285160  -24.937218  0
14.981382  -48.560120  -25.137245  0
10.707751  -48.615345  -25.095440  0
10.961432  -48.472065  -24.866777  0
14.772503  -48.892273  -25.087654  0
14.465605  -49.232841  -25.292013  0
10.731571  -49.002781  -25.127142  0
10.879482  -49.205532  -25.088221  0
10.997648  -48.960579  -24.884558  0
14.224838  -49.494431  -24.948868  0
13.891248  -49.687798  -25.103960  0
13.512763  -49.868546  -25.150564  0
11.085747  -49.447338  -25.074389  0
11.310114  -49.693798  -25.079634  0
11.378034  -49.480091  -24.832047  0
13.178580  -49.988884  -25.058559  0
13.016496  -50.096161  -25.285456  0
12.787446  -50.000324  -24.926895  0
12.548823  -50.133503  -25.256863  0
12.279901  -49.974293  -24.888845  0
11.536479  -49.891308  -25.155560  0
11.987842  -50.106064  -25.285263  0
11.806479  -49.832314  -24.868582  0
13.872616  -46.162289  -24.780930  0
14.278984  -46.223450  -24.817596  0
14.457520  -46.471302  -24.684477  0
13.662752  -46.452835  -24.526260  0
14.046982  -46.495144  -24.490227  0
13.264921  -46.586536  -24.561100  0
12.800610  -46.723583  -24.717724  0
14.715853  -46.833694  -24.588684  0
14.965543  -47.183662  -24.550360  0
14.334478  -46.702908  -24.389582  0
14.015637  -46.815212  -24.238335  0
13.523636  -46.839737  -24.297594  0
12.596948  -47.004292  -24.609438  0
12.957667  -46.947266  -24.444273  0
12.242471  -47.196983  -24.724203  0
15.114858  -47.415752  -24.813332  0
14.996436  -47.595547  -24.435080  0
12.958065  -47.308506  -24.221745  0
12.067837  -47.484589  -24.606266  0
12.469159  -47.359142  -24.441156  0
11.722566  -47.685802  -24.717543  0
15.121479  -47.933590  -24.691847  0
14.988433  -48.091866  -24.378527  0
12.414878  -47.846821  -24.235756  0
11.540415  -47.972183  -24.611345  0
11.946918  -47.847439  -24.450586  0
11.213612  -48.206615  -24.734871  0
15.078526  -48.315811  -24.633801  0
14.984117  -48.611492  -24.784315  0
14.951727  -48.481510  -24.455679  0
12.251677  -48.388306  -24.167128  0
11.916245  -48.346252  -24.315592  0
11.211552  -48.609444  -24.627703  0
11.532201  -48.291336  -24.484430  0
14.741565  -48.830669  -24.457062  0
14.503924  -49.224468  -24.718130  0
11.995392  -48.860764  -24.265696  0
11.278814  -49.021450  -24.629930  0
11.486725  -49.247681  -24.559523  0
11.551627  -48.815075  -24.439142  0
14.195457  -49.471458  -24.420565  0
13.917401  -49.638313  -24.610744  0
13.611706  -49.744175  -24.747368  0
13.111174  -49.766647  -24.621555  0
12.677824  -49.485252  -24.272690  0
12.508570  -49.749599  -24.578106  0
12.224721  -49.346851  -24.321604  0
11.665934  -49.540207  -24.627047  0
12.024055  -49.667419  -24.591421  0
11.782602  -49.277260  -24.439751  0
14.295447  -47.073933  -24.157228  0
13.774467  -47.107170  -24.072042  0
13.369381  -47.200638  -24.098854  0
14.728453  -47.299854  -24.259813  0
14.407681  -47.568321  -23.960201  0
13.926379  -47.467911  -23.894300  0
13.124205  -47.450806  -24.053802  0
13.453176  -47.444778  -23.947142  0
12.823504  -47.669384  -24.097830  0
14.764485  -47.802814  -24.129190  0
14.506110  -48.018547  -23.896261  0
14.083134  -47.973564  -23.719088  0
13.493332  -47.887238  -23.741985  0
12.634764  -48.067238  -24.048830  0
13.058558  -47.778942  -23.943607  0
14.741037  -48.367897  -24.126280  0
14.388846  -48.463280  -23.787123  0
12.487835  -48.457561  -24.032389  0
12.934574  -48.336403  -23.822412  0
12.267555  -48.711662  -24.122957  0
14.569642  -48.765038  -24.028408  0
14.361360  -49.125519  -24.078770  0
14.405210  -48.832245  -23.845787  0
12.767678  -49.286556  -24.052427  0
12.928556  -48.992039  -23.844189  0
12.271829  -48.995384  -24.152056  0
12.534145  -49.167187  -24.089054  0
12.532975  -48.783875  -24.001045  0
14.060270  -49.422241  -24.025076  0
13.906493  -49.570168  -24.210958  0
13.741967  -49.420666  -23.884493  0
13.041399  -49.428268  -24.112467  0
13.527567  -49.593929  -24.257742  0
13.341476  -49.287170  -23.823526  0
13.711336  -48.228867  -23.525122  0
13.354276  -48.268719  -23.571074  0
14.042802  -48.402096  -23.567108  0
13.795530  -48.593178  -23.448086  0
13.229903  -48.617619  -23.561394  0
13.508190  -48.467987  -23.442616  0
14.139262  -48.815754  -23.648508  0
13.972806  -49.190426  -23.724949  0
13.815593  -48.923409  -23.492937  0
13.301278  -48.970551  -23.584408  0
13.609504  -49.127682  -23.584824  0
13.528320  -48.781311  -23.441910  0
9 15 0 0
1 11 0 0
0 11 9 0
2 13 1 0
1 13 11 0
2 18 13 0
15 17 0 0
20 3 17 0
3 0 17 0
3 1 0 0
1 4 2 0
1 3 4 0
18 2 23 0
23 2 4 0
20 22 3 0
3 22 4 0
4 22 24 0
4 24 23 0
31 38 5 0
6 33 5 0
5 33 31 0
7 35 6 0
6 35 33 0
7 40 35 0
5 38 8 0
8 38 44 0
5 10 6 0
5 8 10 0
6 12 7 0
6 10 12 0
40 7 41 0
7 14 41 0
7 12 14 0
14 46 41 0
8 44 16 0
16 44 49 0
16 15 9 0
10 16 9 0
8 16 10 0
10 9 11 0
10 11 12 0
12 11 13 0
12 13 14 0
19 47 18 0
18 47 13 0
47 46 13 0
46 14 13 0
19 52 47 0
49 51 16 0
51 54 21 0
51 21 17 0
16 51 17 0
15 16 17 0
21 20 17 0
23 25 19 0
23 19 18 0
52 19 57 0
57 19 25 0
54 56 21 0
56 60 26 0
56 26 22 0
21 56 22 0
20 21 22 0
27 24 22 0
27 22 26 0
27 63 24 0
24 63 23 0
63 58 23 0
58 25 23 0
25 58 57 0
60 62 26 0
26 62 27 0
27 62 64 0
27 64 63 0
67 69 28 0
28 71 67 0
28 69 29 0
29 69 78 0
71 28 72 0
28 30 72 0
28 29 30 0
32 74 30 0
30 74 72 0
34 76 32 0
32 76 74 0
36 77 34 0
34 77 76 0
36 80 77 0
29 78 37 0
37 78 83 0
29 39 30 0
29 37 39 0
39 38 31 0
32 39 31 0
30 39 32 0
32 31 33 0
32 33 34 0
34 33 35 0
34 35 36 0
42 82 40 0
40 82 35 0
82 80 35 0
80 36 35 0
42 85 82 0
37 83 43 0
43 83 87 0
37 45 39 0
37 43 45 0
45 44 38 0
45 38 39 0
41 42 40 0
41 46 42 0
46 85 42 0
46 89 85 0
43 87 48 0
48 87 92 0
43 50 45 0
43 48 50 0
50 49 44 0
50 44 45 0
91 89 46 0
91 46 47 0
47 52 91 0
91 52 95 0
92 94 48 0
98 53 94 0
53 48 94 0
53 50 48 0
55 51 49 0
50 55 49 0
53 55 50 0
55 54 51 0
102 96 59 0
96 95 59 0
95 57 59 0
95 52 57 0
98 100 53 0
53 100 55 0
55 100 101 0
101 106 61 0
101 61 56 0
55 101 56 0
54 55 56 0
61 60 56 0
109 103 65 0
65 103 102 0
65 102 59 0
63 65 59 0
58 63 59 0
58 59 57 0
106 108 61 0
61 108 60 0
108 62 60 0
108 110 62 0
65 64 109 0
64 110 109 0
64 62 110 0
64 65 63 0
112 115 66 0
68 114 66 0
66 114 112 0
68 117 114 0
66 115 70 0
70 115 120 0
70 69 67 0
68 70 67 0
66 70 68 0
73 118 71 0
71 118 67 0
118 117 67 0
117 68 67 0
75 119 73 0
73 119 118 0
75 122 119 0
70 120 79 0
79 120 125 0
79 78 69 0
79 69 70 0
72 73 71 0
73 72 74 0
73 74 75 0
124 122 75 0
74 124 75 0
76 124 74 0
127 124 81 0
124 77 81 0
124 76 77 0
80 81 77 0
79 125 84 0
84 125 129 0
84 83 78 0
84 78 79 0
128 127 81 0
131 128 86 0
86 128 82 0
128 81 82 0
81 80 82 0
85 86 82 0
84 129 88 0
88 129 133 0
88 87 83 0
88 83 84 0
131 86 90 0
131 90 135 0
89 90 85 0
85 90 86 0
88 133 93 0
93 133 137 0
93 92 87 0
93 87 88 0
136 135 90 0
140 136 97 0
97 136 91 0
136 90 91 0
90 89 91 0
95 97 91 0
137 139 93 0
139 142 99 0
139 99 94 0
93 139 94 0
92 93 94 0
99 98 94 0
140 104 141 0
140 102 104 0
140 97 96 0
102 140 96 0
145 97 141 0
145 95 97 0
145 104 96 0
95 145 96 0
142 144 99 0
144 148 105 0
144 105 100 0
99 144 100 0
98 99 100 0
107 101 100 0
107 100 105 0
107 106 101 0
109 111 103 0
111 154 103 0
103 154 102 0
154 146 102 0
146 104 102 0
104 146 145 0
148 150 105 0
105 150 107 0
107 150 151 0
107 151 106 0
151 108 106 0
151 152 108 0
108 153 110 0
152 153 108 0
109 110 111 0
110 155 111 0
110 153 155 0
111 155 154 0
157 158 113 0
113 161 157 0
159 163 116 0
159 116 158 0
158 116 113 0
116 115 113 0
115 112 113 0
162 161 113 0
112 162 113 0
114 162 112 0
114 117 162 0
162 117 165 0
116 163 121 0
121 163 167 0
121 120 115 0
121 115 116 0
166 165 117 0
166 117 118 0
169 166 123 0
166 119 123 0
166 118 119 0
122 123 119 0
121 167 126 0
126 167 172 0
126 125 120 0
126 120 121 0
170 169 123 0
170 123 122 0
124 170 122 0
171 170 124 0
124 127 171 0
171 127 174 0
126 172 130 0
130 172 177 0
130 129 125 0
130 125 126 0
176 174 127 0
176 127 128 0
128 131 176 0
176 131 180 0
178 182 132 0
178 132 177 0
132 130 177 0
132 134 130 0
134 133 129 0
134 129 130 0
135 180 131 0
135 185 180 0
182 184 132 0
189 138 184 0
138 132 184 0
138 134 132 0
138 137 133 0
138 133 134 0
187 185 135 0
187 135 136 0
136 140 187 0
187 140 192 0
189 191 138 0
191 195 143 0
191 143 139 0
138 191 139 0
137 138 139 0
143 142 139 0
140 141 147 0
198 140 147 0
192 140 198 0
145 147 141 0
195 197 143 0
197 200 149 0
197 149 144 0
143 197 144 0
142 143 144 0
149 148 144 0
206 199 156 0
156 199 198 0
156 198 147 0
154 156 147 0
146 154 147 0
146 147 145 0
200 202 149 0
149 202 148 0
202 150 148 0
202 203 150 0
150 204 151 0
203 204 150 0
151 205 152 0
204 205 151 0
152 207 153 0
205 207 152 0
156 155 206 0
155 207 206 0
155 153 207 0
155 156 154 0
208 210 160 0
158 157 160 0
157 208 160 0
157 209 208 0
157 161 209 0
209 161 213 0
211 216 164 0
211 164 210 0
210 164 160 0
164 163 160 0
163 159 160 0
160 159 158 0
215 213 161 0
215 161 162 0
162 165 215 0
215 165 218 0
164 216 168 0
168 216 221 0
168 167 163 0
168 163 164 0
220 218 165 0
220 165 166 0
166 169 220 0
220 169 223 0
168 221 173 0
173 221 226 0
173 172 167 0
173 167 168 0
225 223 169 0
225 169 170 0
228 225 175 0
225 171 175 0
225 170 171 0
174 175 171 0
173 226 179 0
179 226 231 0
179 177 172 0
179 172 173 0
230 228 175 0
234 230 181 0
181 230 176 0
230 175 176 0
175 174 176 0
180 181 176 0
232 236 183 0
232 183 231 0
231 183 179 0
183 182 179 0
182 178 179 0
179 178 177 0
234 181 186 0
234 186 237 0
185 186 180 0
180 186 181 0
183 236 188 0
188 236 239 0
190 184 182 0
183 190 182 0
188 190 183 0
190 189 184 0
238 237 186 0
242 238 193 0
193 238 187 0
238 186 187 0
186 185 187 0
192 193 187 0
239 241 188 0
244 194 241 0
194 188 241 0
194 190 188 0
196 191 189 0
190 196 189 0
194 196 190 0
196 195 191 0
243 242 193 0
193 192 243 0
192 248 243 0
192 198 248 0
244 246 194 0
194 246 196 0
196 246 247 0
247 252 201 0
247 201 197 0
196 247 197 0
195 196 197 0
201 200 197 0
259 249 199 0
259 199 206 0
198 199 248 0
248 199 249 0
252 254 201 0
201 254 200 0
254 202 200 0
254 255 202 0
202 256 203 0
255 256 202 0
203 257 204 0
256 257 203 0
204 258 205 0
257 258 204 0
205 260 207 0
258 260 205 0
206 207 259 0
259 207 260 0
265 267 212 0
210 208 212 0
208 265 212 0
208 266 265 0
270 266 214 0
266 209 214 0
266 208 209 0
213 214 209 0
268 273 217 0
268 217 267 0
267 217 212 0
217 216 212 0
216 211 212 0
212 211 210 0
272 270 214 0
274 272 219 0
219 272 215 0
272 214 215 0
214 213 215 0
218 219 215 0
217 273 222 0
222 273 277 0
222 221 216 0
222 216 217 0
276 274 219 0
279 276 224 0
224 276 220 0
276 219 220 0
219 218 220 0
223 224 220 0
222 277 227 0
227 277 282 0
227 226 221 0
227 221 222 0
281 279 224 0
284 281 229 0
229 281 225 0
281 224 225 0
224 223 225 0
228 229 225 0
227 282 233 0
233 282 287 0
233 231 226 0
233 226 227 0
286 284 229 0
289 286 235 0
235 286 230 0
286 229 230 0
229 228 230 0
234 235 230 0
233 287 232 0
287 236 232 0
287 292 236 0
233 232 231 0
291 289 235 0
235 234 291 0
234 296 291 0
234 237 296 0
293 299 240 0
292 293 240 0
239 292 240 0
236 292 239 0
298 296 237 0
298 237 238 0
238 242 298 0
298 242 301 0
299 300 240 0
300 303 245 0
300 245 241 0
240 300 241 0
239 240 241 0
245 244 241 0
242 243 250 0
306 242 250 0
301 242 306 0
248 250 243 0
303 305 245 0
305 308 251 0
305 251 246 0
245 305 246 0
244 245 246 0
253 247 246 0
253 246 251 0
253 252 247 0
306 250 249 0
259 306 249 0
313 306 259 0
249 250 248 0
308 310 251 0
251 310 253 0
253 310 311 0
253 311 252 0
311 254 252 0
311 312 254 0
312 318 261 0
255 312 261 0
254 312 255 0
262 256 255 0
262 255 261 0
263 257 256 0
263 256 262 0
264 258 257 0
264 257 263 0
258 264 324 0
314 258 324 0
260 258 314 0
259 260 313 0
313 260 314 0
318 320 261 0
261 320 262 0
262 320 321 0
262 321 263 0
263 321 322 0
263 322 264 0
264 322 325 0
264 325 324 0
269 267 265 0
266 271 265 0
265 271 269 0
270 271 266 0
327 330 268 0
268 330 273 0
268 267 269 0
328 268 269 0
327 268 328 0
328 269 271 0
328 271 329 0
333 329 275 0
275 329 272 0
329 271 272 0
271 270 272 0
274 275 272 0
331 336 278 0
330 331 278 0
277 330 278 0
273 330 277 0
335 333 275 0
337 335 280 0
280 335 276 0
335 275 276 0
275 274 276 0
279 280 276 0
278 336 283 0
283 336 340 0
283 282 277 0
283 277 278 0
339 337 280 0
342 339 285 0
285 339 281 0
339 280 281 0
280 279 281 0
284 285 281 0
283 340 288 0
288 340 345 0
288 287 282 0
288 282 283 0
344 342 285 0
347 344 290 0
290 344 286 0
344 285 286 0
285 284 286 0
289 290 286 0
288 345 294 0
294 345 349 0
294 292 287 0
294 287 288 0
347 290 295 0
347 295 351 0
291 297 289 0
297 290 289 0
297 295 290 0
296 297 291 0
294 349 293 0
349 299 293 0
349 354 299 0
294 293 292 0
352 351 295 0
352 295 297 0
352 297 353 0
356 353 302 0
302 353 298 0
353 297 298 0
297 296 298 0
301 302 298 0
300 299 304 0
299 358 304 0
299 354 358 0
304 303 300 0
356 302 307 0
356 307 360 0
306 307 301 0
301 307 302 0
358 359 304 0
359 362 309 0
359 309 305 0
304 359 305 0
303 304 305 0
309 308 305 0
360 307 315 0
360 315 366 0
313 315 306 0
306 315 307 0
362 363 309 0
363 369 316 0
363 316 310 0
309 363 310 0
308 309 310 0
317 311 310 0
317 310 316 0
319 312 311 0
319 311 317 0
319 318 312 0
375 364 323 0
367 326 323 0
367 323 364 0
326 367 366 0
326 366 315 0
324 326 315 0
314 324 315 0
314 315 313 0
369 370 316 0
316 370 317 0
317 370 372 0
317 372 319 0
319 372 373 0
319 373 318 0
373 320 318 0
373 374 320 0
320 376 321 0
374 376 320 0
323 322 375 0
322 376 375 0
322 321 376 0
322 323 325 0
325 323 326 0
325 326 324 0
378 379 327 0
327 379 330 0
381 378 332 0
378 328 332 0
378 327 328 0
329 334 328 0
328 334 332 0
333 334 329 0
380 385 331 0
331 385 336 0
331 330 379 0
331 379 380 0
383 381 332 0
383 332 334 0
383 334 384 0
389 384 338 0
338 384 335 0
384 334 335 0
334 333 335 0
337 338 335 0
386 392 341 0
385 386 341 0
340 385 341 0
336 385 340 0
391 389 338 0
394 391 343 0
343 391 339 0
391 338 339 0
338 337 339 0
342 343 339 0
341 392 346 0
346 392 397 0
346 345 340 0
346 340 341 0
396 394 343 0
398 396 348 0
348 396 344 0
396 343 344 0
343 342 344 0
347 348 344 0
346 397 350 0
350 397 401 0
350 349 345 0
350 345 346 0
400 398 348 0
348 347 400 0
347 402 400 0
347 351 402 0
350 401 355 0
355 401 405 0
355 354 349 0
355 349 350 0
404 402 351 0
404 351 352 0
407 404 357 0
404 353 357 0
404 352 353 0
356 357 353 0
405 406 355 0
354 355 406 0
409 354 406 0
358 354 409 0
407 357 361 0
407 361 411 0
360 361 356 0
356 361 357 0
409 410 358 0
358 410 359 0
362 359 410 0
362 410 414 0
417 412 365 0
365 412 411 0
361 365 411 0
368 365 361 0
366 368 360 0
360 368 361 0
414 415 362 0
362 415 363 0
416 371 369 0
363 416 369 0
415 416 363 0
420 371 416 0
425 418 377 0
377 418 417 0
377 417 365 0
375 377 365 0
364 375 365 0
364 365 367 0
367 365 368 0
367 368 366 0
371 370 369 0
420 421 371 0
421 370 371 0
421 372 370 0
372 423 373 0
421 423 372 0
373 426 374 0
423 426 373 0
377 376 425 0
376 426 425 0
376 374 426 0
376 377 375 0
382 379 378 0
381 382 378 0
387 385 380 0
429 387 380 0
429 380 379 0
428 429 379 0
382 428 379 0
431 428 388 0
388 428 383 0
428 382 383 0
382 381 383 0
384 390 383 0
383 390 388 0
389 390 384 0
393 392 386 0
435 393 386 0
435 386 385 0
430 435 385 0
387 430 385 0
430 387 429 0
433 431 388 0
433 388 390 0
433 390 434 0
440 434 395 0
395 434 391 0
434 390 391 0
390 389 391 0
394 395 391 0
436 443 393 0
443 392 393 0
443 397 392 0
436 393 435 0
442 440 395 0
446 442 399 0
399 442 396 0
442 395 396 0
395 394 396 0
398 399 396 0
443 401 397 0
449 401 443 0
448 446 399 0
452 448 403 0
403 448 400 0
448 399 400 0
399 398 400 0
402 403 400 0
449 405 401 0
455 405 449 0
454 452 403 0
460 454 408 0
408 454 404 0
454 403 404 0
403 402 404 0
407 408 404 0
455 456 405 0
405 456 406 0
409 406 456 0
409 456 462 0
460 408 413 0
460 413 465 0
411 413 407 0
407 413 408 0
462 463 409 0
409 463 410 0
414 410 463 0
414 463 468 0
475 466 419 0
419 466 465 0
419 465 413 0
417 419 413 0
412 417 413 0
412 413 411 0
468 469 414 0
414 469 415 0
415 470 416 0
469 470 415 0
471 422 420 0
416 471 420 0
470 471 416 0
473 424 422 0
473 422 471 0
476 427 424 0
476 424 473 0
427 476 475 0
427 475 419 0
425 427 419 0
418 425 419 0
418 419 417 0
422 421 420 0
421 422 423 0
423 422 424 0
423 424 426 0
426 424 427 0
426 427 425 0
432 429 428 0
431 432 428 0
437 435 430 0
429 432 430 0
432 437 430 0
432 438 437 0
433 439 431 0
439 432 431 0
439 438 432 0
434 441 433 0
433 441 439 0
440 441 434 0
444 443 436 0
481 444 436 0
481 436 435 0
478 481 435 0
437 478 435 0
478 437 438 0
478 438 479 0
479 438 439 0
479 439 480 0
445 484 480 0
439 445 480 0
441 445 439 0
442 447 440 0
447 441 440 0
447 445 441 0
446 447 442 0
450 449 444 0
444 449 443 0
444 481 487 0
444 487 450 0
486 484 445 0
451 491 486 0
445 451 486 0
447 451 445 0
448 453 446 0
453 447 446 0
453 451 447 0
452 453 448 0
457 455 450 0
450 455 449 0
450 487 493 0
450 493 457 0
491 451 458 0
491 458 495 0
459 451 453 0
458 451 459 0
454 461 452 0
461 453 452 0
461 459 453 0
460 461 454 0
457 456 455 0
462 456 457 0
493 462 457 0
498 462 493 0
497 495 458 0
464 503 497 0
458 464 497 0
459 464 458 0
467 459 461 0
464 459 467 0
465 467 460 0
460 467 461 0
498 499 462 0
462 499 463 0
468 463 499 0
468 499 506 0
509 501 472 0
504 474 472 0
504 472 501 0
474 504 503 0
464 474 503 0
477 474 464 0
475 477 466 0
477 467 466 0
477 464 467 0
466 467 465 0
506 507 468 0
468 507 469 0
469 510 470 0
507 510 469 0
472 471 509 0
471 510 509 0
471 470 510 0
471 472 473 0
473 472 474 0
473 474 476 0
476 474 477 0
476 477 475 0
482 481 478 0
479 483 478 0
478 483 482 0
480 485 479 0
479 485 483 0
484 485 480 0
488 487 482 0
482 487 481 0
489 482 483 0
488 482 489 0
490 483 485 0
489 483 490 0
486 492 484 0
492 485 484 0
492 490 485 0
491 492 486 0
494 493 488 0
488 493 487 0
489 512 514 0
494 489 514 0
488 489 494 0
512 489 490 0
512 490 513 0
496 516 513 0
490 496 513 0
492 496 490 0
495 496 491 0
491 496 492 0
500 498 494 0
494 498 493 0
494 514 518 0
494 518 500 0
516 496 502 0
516 502 521 0
497 505 495 0
505 496 495 0
505 502 496 0
503 505 497 0
500 499 498 0
519 508 506 0
519 506 499 0
518 519 499 0
500 518 499 0
522 511 508 0
522 508 519 0
511 522 521 0
511 521 502 0
509 511 502 0
501 509 502 0
501 502 504 0
504 502 505 0
504 505 503 0
508 507 506 0
507 508 510 0
510 508 511 0
510 511 509 0
515 514 512 0
513 517 512 0
512 517 515 0
516 517 513 0
520 518 515 0
515 518 514 0
523 515 517 0
520 515 523 0
521 523 516 0
516 523 517 0
520 519 518 0
519 520 522 0
522 520 523 0
522 523 521 0
