#!ascii version in FreeSurfer format (SUMA)
566 1128
-5.593613  -49.411575  -29.383749  0
-6.093613  -49.411575  -29.383749  0
-6.593613  -49.411575  -29.383749  0
-5.593613  -49.911575  -29.383749  0
-6.093613  -49.911575  -29.383749  0
-6.593613  -49.911575  -29.383749  0
-5.093613  -50.411575  -29.383749  0
-5.593613  -50.411575  -29.383749  0
-6.093613  -50.411575  -29.383749  0
-6.593613  -50.411575  -29.383749  0
-4.593613  -50.911575  -29.383749  0
-5.093613  -50.911575  -29.383749  0
-5.593613  -50.911575  -29.383749  0
-6.093613  -50.911575  -29.383749  0
-6.593613  -50.911575  -29.383749  0
-4.593613  -51.411575  -29.383749  0
-5.093613  -51.411575  -29.383749  0
-5.593613  -51.411575  -29.383749  0
-6.093613  -51.411575  -29.383749  0
-6.593613  -51.411575  -29.383749  0
-4.593613  -51.911575  -29.383749  0
-5.093613  -51.911575  -29.383749  0
-5.593613  -51.911575  -29.383749  0
-6.093613  -51.911575  -29.383749  0
-6.593613  -51.911575  -29.383749  0
-4.593613  -52.411575  -29.383749  0
-5.093613  -52.411575  -29.383749  0
-5.593613  -52.411575  -29.383749  0
-6.093613  -52.411575  -29.383749  0
-6.593613  -52.411575  -29.383749  0
-4.593613  -52.911575  -29.383749  0
-5.093613  -52.911575  -29.383749  0
-5.593613  -52.911575  -29.383749  0
-6.093613  -52.911575  -29.383749  0
-6.593613  -52.911575  -29.383749  0
-5.093613  -53.411575  -29.383749  0
-5.593613  -53.411575  -29.383749  0
-6.093613  -53.411575  -29.383749  0
-5.593613  -49.161575  -29.133747  0
-6.093613  -49.161575  -29.133747  0
-6.593613  -49.161575  -29.133747  0
-7.093613  -48.911575  -28.883747  0
-7.593613  -48.911575  -28.883747  0
-5.343613  -49.411575  -29.133747  0
-6.843613  -49.411575  -29.133747  0
-7.093613  -49.411575  -28.883747  0
-7.593613  -49.411575  -28.883747  0
-8.093613  -49.411575  -28.883747  0
-5.343613  -49.911575  -29.133747  0
-5.093613  -50.161575  -29.133747  0
-6.843613  -49.911575  -29.133747  0
-7.093613  -49.911575  -28.883747  0
-7.593613  -49.911575  -28.883747  0
-8.093613  -49.911575  -28.883747  0
-4.843613  -50.411575  -29.133747  0
-4.593613  -50.661575  -29.133747  0
-6.843613  -50.411575  -29.133747  0
-7.093613  -50.411575  -28.883747  0
-7.593613  -50.411575  -28.883747  0
-8.093613  -50.411575  -28.883747  0
-4.343613  -50.911575  -29.133747  0
-6.843613  -50.911575  -29.133747  0
-7.093613  -50.911575  -28.883747  0
-7.593613  -50.911575  -28.883747  0
-8.093613  -50.911575  -28.883747  0
-4.343613  -51.411575  -29.133747  0
-6.843613  -51.411575  -29.133747  0
-7.093613  -51.411575  -28.883747  0
-7.593613  -51.411575  -28.883747  0
-4.343613  -51.911575  -29.133747  0
-6.843613  -51.911575  -29.133747  0
-7.093613  -51.911575  -28.883747  0
-7.593613  -51.911575  -28.883747  0
-4.343613  -52.411575  -29.133747  0
-6.843613  -52.411575  -29.133747  0
-7.093613  -52.411575  -28.883747  0
-7.593613  -52.411575  -28.883747  0
-4.343613  -52.911575  -29.133747  0
-4.593613  -53.161575  -29.133747  0
-6.843613  -52.911575  -29.133747  0
-6.593613  -53.161575  -29.133747  0
-7.093613  -52.911575  -28.883747  0
-4.843613  -53.411575  -29.133747  0
-5.093613  -53.661575  -29.133747  0
-5.593613  -53.661575  -29.133747  0
-6.343613  -53.411575  -29.133747  0
-6.093613  -53.661575  -29.133747  0
-6.593613  -53.411575  -28.883747  0
-7.093613  -48.661575  -28.633745  0
-7.593613  -48.661575  -28.633745  0
-5.593613  -49.161575  -28.633745  0
-6.093613  -49.161575  -28.633745  0
-6.843613  -48.911575  -28.633745  0
-6.593613  -49.161575  -28.633745  0
-6.593613  -48.911575  -28.383743  0
-7.843613  -48.911575  -28.633745  0
-8.093613  -49.161575  -28.633745  0
-8.593613  -48.911575  -28.383743  0
-5.343613  -49.411575  -28.633745  0
-5.593613  -49.411575  -28.383743  0
-8.343613  -49.411575  -28.633745  0
-8.593613  -49.411575  -28.383743  0
-5.343613  -49.911575  -28.633745  0
-5.093613  -50.161575  -28.633745  0
-8.343613  -49.911575  -28.633745  0
-8.593613  -49.911575  -28.383743  0
-4.843613  -50.411575  -28.633745  0
-4.593613  -50.661575  -28.633745  0
-8.343613  -50.411575  -28.633745  0
-4.343613  -50.911575  -28.633745  0
-8.343613  -50.911575  -28.633745  0
-8.093613  -51.161575  -28.633745  0
-4.343613  -51.411575  -28.633745  0
-7.843613  -51.411575  -28.633745  0
-8.093613  -51.411575  -28.383743  0
-4.343613  -51.911575  -28.633745  0
-7.843613  -51.911575  -28.633745  0
-8.093613  -51.911575  -28.383743  0
-4.343613  -52.411575  -28.633745  0
-4.593613  -52.411575  -28.383743  0
-7.843613  -52.411575  -28.633745  0
-7.593613  -52.661575  -28.633745  0
-4.343613  -52.911575  -28.633745  0
-4.593613  -53.161575  -28.633745  0
-4.593613  -52.911575  -28.383743  0
-7.343613  -52.911575  -28.633745  0
-7.093613  -53.161575  -28.633745  0
-7.593613  -52.911575  -28.383743  0
-4.843613  -53.411575  -28.633745  0
-5.093613  -53.661575  -28.633745  0
-5.593613  -53.661575  -28.633745  0
-6.093613  -53.661575  -28.633745  0
-6.843613  -53.411575  -28.633745  0
-6.593613  -53.661575  -28.633745  0
-7.093613  -53.411575  -28.383743  0
-7.593613  -53.411575  -28.383743  0
-5.593613  -53.911575  -28.383743  0
-6.093613  -53.911575  -28.383743  0
-6.593613  -53.911575  -28.383743  0
-6.593613  -48.661575  -28.133741  0
-7.093613  -48.661575  -28.133741  0
-7.093613  -48.411575  -27.883739  0
-7.593613  -48.661575  -28.133741  0
-7.593613  -48.411575  -27.883739  0
-8.593613  -48.661575  -28.133741  0
-6.343613  -48.911575  -28.133741  0
-6.093613  -49.161575  -28.133741  0
-7.843613  -48.911575  -28.133741  0
-8.343613  -48.911575  -28.133741  0
-8.093613  -49.161575  -28.133741  0
-8.093613  -48.911575  -27.883739  0
-8.843613  -48.911575  -28.133741  0
-9.093613  -48.911575  -27.883739  0
-5.843613  -49.411575  -28.133741  0
-5.593613  -49.661575  -28.133741  0
-6.093613  -49.411575  -27.883739  0
-8.843613  -49.411575  -28.133741  0
-9.093613  -49.411575  -27.883739  0
-5.343613  -49.911575  -28.133741  0
-5.093613  -50.161575  -28.133741  0
-8.843613  -49.911575  -28.133741  0
-8.593613  -50.161575  -28.133741  0
-4.843613  -50.411575  -28.133741  0
-4.593613  -50.661575  -28.133741  0
-5.093613  -50.411575  -27.883739  0
-8.343613  -50.411575  -28.133741  0
-8.593613  -50.411575  -27.883739  0
-9.093613  -50.411575  -27.883739  0
-4.343613  -50.911575  -28.133741  0
-4.593613  -50.911575  -27.883739  0
-8.343613  -50.911575  -28.133741  0
-8.593613  -50.911575  -27.883739  0
-4.343613  -51.411575  -28.133741  0
-4.593613  -51.411575  -27.883739  0
-8.343613  -51.411575  -28.133741  0
-8.593613  -51.411575  -27.883739  0
-4.343613  -51.911575  -28.133741  0
-4.593613  -52.161575  -28.133741  0
-4.593613  -51.911575  -27.883739  0
-8.343613  -51.911575  -28.133741  0
-8.093613  -52.161575  -28.133741  0
-4.843613  -52.411575  -28.133741  0
-7.843613  -52.411575  -28.133741  0
-4.843613  -52.911575  -28.133741  0
-5.093613  -52.911575  -27.883739  0
-7.843613  -52.911575  -28.133741  0
-7.593613  -52.911575  -27.883739  0
-4.843613  -53.411575  -28.133741  0
-5.093613  -53.661575  -28.133741  0
-5.093613  -53.411575  -27.883739  0
-7.093613  -53.661575  -28.133741  0
-7.093613  -53.411575  -27.883739  0
-7.843613  -53.411575  -28.133741  0
-7.593613  -53.661575  -28.133741  0
-7.593613  -53.411575  -27.883739  0
-5.343613  -53.911575  -28.133741  0
-5.593613  -54.161575  -28.133741  0
-5.593613  -53.911575  -27.883739  0
-6.093613  -54.161575  -28.133741  0
-6.843613  -53.911575  -28.133741  0
-6.593613  -54.161575  -28.133741  0
-6.593613  -53.911575  -27.883739  0
-7.093613  -48.161575  -27.633738  0
-7.593613  -48.161575  -27.633738  0
-6.843613  -48.411575  -27.633738  0
-6.593613  -48.661575  -27.633738  0
-7.093613  -48.411575  -27.383736  0
-7.843613  -48.411575  -27.633738  0
-8.093613  -48.661575  -27.633738  0
-8.593613  -48.661575  -27.633738  0
-8.593613  -48.411575  -27.383736  0
-9.093613  -48.661575  -27.633738  0
-9.093613  -48.411575  -27.383736  0
-6.343613  -48.911575  -27.633738  0
-6.593613  -48.911575  -27.383736  0
-9.343613  -48.911575  -27.633738  0
-9.593613  -48.911575  -27.383736  0
-5.593613  -49.661575  -27.633738  0
-6.343613  -49.411575  -27.633738  0
-6.093613  -49.661575  -27.633738  0
-6.593613  -49.411575  -27.383736  0
-9.343613  -49.411575  -27.633738  0
-9.093613  -49.661575  -27.633738  0
-9.593613  -49.411575  -27.383736  0
-5.343613  -49.911575  -27.633738  0
-5.593613  -49.911575  -27.383736  0
-8.843613  -49.911575  -27.633738  0
-9.093613  -50.161575  -27.633738  0
-9.093613  -49.911575  -27.383736  0
-5.343613  -50.411575  -27.633738  0
-5.093613  -50.661575  -27.633738  0
-5.593613  -50.411575  -27.383736  0
-9.343613  -50.411575  -27.633738  0
-9.093613  -50.661575  -27.633738  0
-9.593613  -50.411575  -27.383736  0
-4.843613  -50.911575  -27.633738  0
-5.093613  -50.911575  -27.383736  0
-8.843613  -50.911575  -27.633738  0
-9.093613  -50.911575  -27.383736  0
-9.593613  -50.911575  -27.383736  0
-4.843613  -51.411575  -27.633738  0
-5.093613  -51.411575  -27.383736  0
-8.843613  -51.411575  -27.633738  0
-8.593613  -51.661575  -27.633738  0
-9.093613  -51.411575  -27.383736  0
-4.843613  -51.911575  -27.633738  0
-5.093613  -51.911575  -27.383736  0
-8.343613  -51.911575  -27.633738  0
-8.093613  -52.161575  -27.633738  0
-8.593613  -51.911575  -27.383736  0
-4.843613  -52.411575  -27.633738  0
-5.093613  -52.661575  -27.633738  0
-5.093613  -52.411575  -27.383736  0
-5.593613  -52.411575  -27.383736  0
-7.843613  -52.411575  -27.633738  0
-7.593613  -52.661575  -27.633738  0
-8.093613  -52.411575  -27.383736  0
-5.343613  -52.911575  -27.633738  0
-5.593613  -52.911575  -27.383736  0
-7.343613  -52.911575  -27.633738  0
-7.093613  -53.161575  -27.633738  0
-7.593613  -52.911575  -27.383736  0
-5.343613  -53.411575  -27.633738  0
-5.593613  -53.661575  -27.633738  0
-5.593613  -53.411575  -27.383736  0
-6.093613  -53.411575  -27.383736  0
-6.843613  -53.411575  -27.633738  0
-6.593613  -53.661575  -27.633738  0
-7.093613  -53.411575  -27.383736  0
-7.593613  -53.411575  -27.383736  0
-5.843613  -53.911575  -27.633738  0
-6.343613  -53.911575  -27.633738  0
-6.093613  -54.161575  -27.633738  0
-6.093613  -53.911575  -27.383736  0
-7.093613  -53.911575  -27.383736  0
-7.593613  -48.161575  -27.133734  0
-8.593613  -48.161575  -27.133734  0
-9.093613  -48.161575  -27.133734  0
-7.343613  -48.411575  -27.133734  0
-7.093613  -48.661575  -27.133734  0
-7.843613  -48.411575  -27.133734  0
-8.343613  -48.411575  -27.133734  0
-8.093613  -48.661575  -27.133734  0
-8.593613  -48.411575  -26.883732  0
-9.343613  -48.411575  -27.133734  0
-9.593613  -48.661575  -27.133734  0
-9.593613  -48.411575  -26.883732  0
-6.843613  -48.911575  -27.133734  0
-9.843613  -48.911575  -27.133734  0
-6.093613  -49.661575  -27.133734  0
-6.843613  -49.411575  -27.133734  0
-6.593613  -49.661575  -27.133734  0
-9.843613  -49.411575  -27.133734  0
-9.593613  -49.661575  -27.133734  0
-10.093613  -49.411575  -26.883732  0
-5.843613  -49.911575  -27.133734  0
-6.093613  -49.911575  -26.883732  0
-9.343613  -49.911575  -27.133734  0
-9.593613  -50.161575  -27.133734  0
-9.593613  -49.911575  -26.883732  0
-5.843613  -50.411575  -27.133734  0
-5.593613  -50.661575  -27.133734  0
-9.843613  -50.411575  -27.133734  0
-5.343613  -50.911575  -27.133734  0
-5.593613  -50.911575  -26.883732  0
-9.843613  -50.911575  -27.133734  0
-9.593613  -51.161575  -27.133734  0
-10.093613  -50.911575  -26.883732  0
-5.343613  -51.411575  -27.133734  0
-5.593613  -51.411575  -26.883732  0
-9.343613  -51.411575  -27.133734  0
-9.093613  -51.661575  -27.133734  0
-9.593613  -51.411575  -26.883732  0
-5.343613  -51.911575  -27.133734  0
-5.593613  -52.161575  -27.133734  0
-5.593613  -51.911575  -26.883732  0
-8.843613  -51.911575  -27.133734  0
-8.593613  -52.161575  -27.133734  0
-9.093613  -51.911575  -26.883732  0
-9.593613  -51.911575  -26.883732  0
-5.843613  -52.411575  -27.133734  0
-6.093613  -52.411575  -26.883732  0
-8.343613  -52.411575  -27.133734  0
-8.093613  -52.661575  -27.133734  0
-8.593613  -52.411575  -26.883732  0
-5.843613  -52.911575  -27.133734  0
-6.093613  -53.161575  -27.133734  0
-6.093613  -52.911575  -26.883732  0
-7.843613  -52.911575  -27.133734  0
-8.093613  -52.911575  -26.883732  0
-8.593613  -52.911575  -26.883732  0
-6.343613  -53.411575  -27.133734  0
-6.593613  -53.661575  -27.133734  0
-6.593613  -53.411575  -26.883732  0
-7.843613  -53.411575  -27.133734  0
-7.593613  -53.661575  -27.133734  0
-8.093613  -53.411575  -26.883732  0
-6.843613  -53.911575  -27.133734  0
-7.343613  -53.911575  -27.133734  0
-7.093613  -54.161575  -27.133734  0
-7.093613  -53.911575  -26.883732  0
-7.593613  -48.161575  -26.633732  0
-9.093613  -48.161575  -26.633732  0
-9.593613  -48.161575  -26.633732  0
-7.343613  -48.411575  -26.633732  0
-7.093613  -48.661575  -26.633732  0
-7.843613  -48.411575  -26.633732  0
-7.593613  -48.411575  -26.383730  0
-8.093613  -48.661575  -26.633732  0
-8.843613  -48.411575  -26.633732  0
-8.593613  -48.661575  -26.633732  0
-9.093613  -48.411575  -26.383730  0
-9.843613  -48.411575  -26.633732  0
-9.593613  -48.411575  -26.383730  0
-6.843613  -48.911575  -26.633732  0
-7.093613  -48.911575  -26.383730  0
-7.593613  -48.911575  -26.383730  0
-8.093613  -48.911575  -26.383730  0
-9.843613  -48.911575  -26.633732  0
-10.093613  -49.161575  -26.633732  0
-6.843613  -49.411575  -26.633732  0
-6.593613  -49.661575  -26.633732  0
-7.093613  -49.411575  -26.383730  0
-10.343613  -49.411575  -26.633732  0
-10.093613  -49.661575  -26.633732  0
-6.343613  -49.911575  -26.633732  0
-6.093613  -50.161575  -26.633732  0
-6.593613  -49.911575  -26.383730  0
-9.843613  -49.911575  -26.633732  0
-5.843613  -50.411575  -26.633732  0
-6.093613  -50.411575  -26.383730  0
-6.593613  -50.411575  -26.383730  0
-9.843613  -50.411575  -26.633732  0
-10.093613  -50.661575  -26.633732  0
-10.093613  -50.411575  -26.383730  0
-5.843613  -50.911575  -26.633732  0
-6.093613  -50.911575  -26.383730  0
-6.593613  -50.911575  -26.383730  0
-10.343613  -50.911575  -26.633732  0
-10.093613  -51.161575  -26.633732  0
-5.843613  -51.411575  -26.633732  0
-6.093613  -51.411575  -26.383730  0
-6.593613  -51.411575  -26.383730  0
-9.843613  -51.411575  -26.633732  0
-10.093613  -51.411575  -26.383730  0
-5.843613  -51.911575  -26.633732  0
-6.093613  -52.161575  -26.633732  0
-6.093613  -51.911575  -26.383730  0
-6.593613  -51.911575  -26.383730  0
-9.093613  -52.161575  -26.633732  0
-9.843613  -51.911575  -26.633732  0
-9.593613  -52.161575  -26.633732  0
-6.343613  -52.411575  -26.633732  0
-6.593613  -52.411575  -26.383730  0
-8.843613  -52.411575  -26.633732  0
-9.093613  -52.411575  -26.383730  0
-6.343613  -52.911575  -26.633732  0
-6.593613  -53.161575  -26.633732  0
-6.593613  -52.911575  -26.383730  0
-8.843613  -52.911575  -26.633732  0
-8.593613  -53.161575  -26.633732  0
-6.843613  -53.411575  -26.633732  0
-7.093613  -53.661575  -26.633732  0
-7.093613  -53.411575  -26.383730  0
-7.593613  -53.661575  -26.633732  0
-7.593613  -53.411575  -26.383730  0
-8.343613  -53.411575  -26.633732  0
-8.093613  -53.661575  -26.633732  0
-8.593613  -48.661575  -26.133728  0
-9.093613  -48.661575  -26.133728  0
-9.593613  -48.661575  -26.133728  0
-7.593613  -49.161575  -26.133728  0
-8.343613  -48.911575  -26.133728  0
-8.093613  -49.161575  -26.133728  0
-8.593613  -48.911575  -25.883726  0
-9.843613  -48.911575  -26.133728  0
-10.093613  -49.161575  -26.133728  0
-7.343613  -49.411575  -26.133728  0
-7.093613  -49.661575  -26.133728  0
-7.593613  -49.411575  -25.883726  0
-9.593613  -49.411575  -25.883726  0
-10.343613  -49.411575  -26.133728  0
-10.093613  -49.661575  -26.133728  0
-10.093613  -49.411575  -25.883726  0
-6.843613  -49.911575  -26.133728  0
-7.093613  -49.911575  -25.883726  0
-9.843613  -49.911575  -26.133728  0
-9.593613  -49.911575  -25.883726  0
-10.093613  -50.161575  -26.133728  0
-6.843613  -50.411575  -26.133728  0
-7.093613  -50.411575  -25.883726  0
-7.593613  -50.411575  -25.883726  0
-10.343613  -50.411575  -26.133728  0
-6.843613  -50.911575  -26.133728  0
-7.093613  -50.911575  -25.883726  0
-10.343613  -50.911575  -26.133728  0
-10.593613  -50.911575  -25.883726  0
-6.843613  -51.411575  -26.133728  0
-7.093613  -51.411575  -25.883726  0
-10.343613  -51.411575  -26.133728  0
-10.093613  -51.661575  -26.133728  0
-10.593613  -51.411575  -25.883726  0
-6.843613  -51.911575  -26.133728  0
-7.093613  -51.911575  -25.883726  0
-9.843613  -51.911575  -26.133728  0
-9.593613  -52.161575  -26.133728  0
-10.093613  -51.911575  -25.883726  0
-6.843613  -52.411575  -26.133728  0
-7.093613  -52.411575  -25.883726  0
-9.343613  -52.411575  -26.133728  0
-9.093613  -52.661575  -26.133728  0
-6.843613  -52.911575  -26.133728  0
-7.093613  -53.161575  -26.133728  0
-7.093613  -52.911575  -25.883726  0
-7.593613  -53.161575  -26.133728  0
-7.593613  -52.911575  -25.883726  0
-8.843613  -52.911575  -26.133728  0
-8.593613  -53.161575  -26.133728  0
-7.843613  -53.411575  -26.133728  0
-8.343613  -53.411575  -26.133728  0
-8.093613  -53.661575  -26.133728  0
-8.093613  -53.411575  -25.883726  0
-9.093613  -48.661575  -25.633724  0
-9.593613  -48.661575  -25.633724  0
-8.093613  -49.161575  -25.633724  0
-8.843613  -48.911575  -25.633724  0
-8.593613  -49.161575  -25.633724  0
-9.093613  -48.911575  -25.383724  0
-9.843613  -48.911575  -25.633724  0
-9.593613  -49.161575  -25.633724  0
-9.593613  -48.911575  -25.383724  0
-7.843613  -49.411575  -25.633724  0
-7.593613  -49.661575  -25.633724  0
-8.093613  -49.411575  -25.383724  0
-8.593613  -49.411575  -25.383724  0
-9.343613  -49.411575  -25.633724  0
-9.093613  -49.411575  -25.383724  0
-7.343613  -49.911575  -25.633724  0
-7.593613  -50.161575  -25.633724  0
-7.593613  -49.911575  -25.383724  0
-8.093613  -49.911575  -25.383724  0
-8.593613  -49.911575  -25.383724  0
-9.343613  -49.911575  -25.633724  0
-9.093613  -49.911575  -25.383724  0
-9.593613  -50.161575  -25.633724  0
-10.093613  -50.161575  -25.633724  0
-7.843613  -50.411575  -25.633724  0
-7.593613  -50.661575  -25.633724  0
-8.093613  -50.411575  -25.383724  0
-9.093613  -50.411575  -25.383724  0
-9.593613  -50.411575  -25.383724  0
-10.343613  -50.411575  -25.633724  0
-10.093613  -50.411575  -25.383724  0
-10.593613  -50.661575  -25.633724  0
-7.343613  -50.911575  -25.633724  0
-7.593613  -50.911575  -25.383724  0
-10.843613  -50.911575  -25.633724  0
-7.343613  -51.411575  -25.633724  0
-7.593613  -51.411575  -25.383724  0
-10.843613  -51.411575  -25.633724  0
-10.593613  -51.661575  -25.633724  0
-10.593613  -51.411575  -25.383724  0
-7.343613  -51.911575  -25.633724  0
-7.593613  -51.911575  -25.383724  0
-8.093613  -51.911575  -25.383724  0
-9.593613  -52.161575  -25.633724  0
-10.343613  -51.911575  -25.633724  0
-10.093613  -52.161575  -25.633724  0
-7.343613  -52.411575  -25.633724  0
-7.593613  -52.661575  -25.633724  0
-7.593613  -52.411575  -25.383724  0
-8.093613  -52.411575  -25.383724  0
-8.593613  -52.411575  -25.383724  0
-9.343613  -52.411575  -25.633724  0
-9.093613  -52.661575  -25.633724  0
-7.843613  -52.911575  -25.633724  0
-8.093613  -53.161575  -25.633724  0
-8.093613  -52.911575  -25.383724  0
-8.843613  -52.911575  -25.633724  0
-8.593613  -53.161575  -25.633724  0
-8.593613  -52.911575  -25.383724  0
-8.593613  -50.161575  -25.133720  0
-8.343613  -50.411575  -25.133720  0
-8.093613  -50.661575  -25.133720  0
-8.843613  -50.411575  -25.133720  0
-8.593613  -50.411575  -24.883720  0
-9.093613  -50.661575  -25.133720  0
-9.593613  -50.661575  -25.133720  0
-10.093613  -50.661575  -25.133720  0
-10.593613  -50.661575  -25.133720  0
-7.843613  -50.911575  -25.133720  0
-8.093613  -50.911575  -24.883720  0
-8.593613  -50.911575  -24.883720  0
-10.093613  -50.911575  -24.883720  0
-10.843613  -50.911575  -25.133720  0
-10.593613  -51.161575  -25.133720  0
-10.593613  -50.911575  -24.883720  0
-7.843613  -51.411575  -25.133720  0
-8.093613  -51.661575  -25.133720  0
-8.093613  -51.411575  -24.883720  0
-8.593613  -51.411575  -24.883720  0
-9.093613  -51.411575  -24.883720  0
-9.593613  -51.411575  -24.883720  0
-10.343613  -51.411575  -25.133720  0
-10.093613  -51.411575  -24.883720  0
-8.343613  -51.911575  -25.133720  0
-8.593613  -52.161575  -25.133720  0
-8.593613  -51.911575  -24.883720  0
-9.093613  -51.911575  -24.883720  0
-9.593613  -52.161575  -25.133720  0
-9.593613  -51.911575  -24.883720  0
-10.343613  -51.911575  -25.133720  0
-10.093613  -52.161575  -25.133720  0
-10.093613  -51.911575  -24.883720  0
-8.843613  -52.411575  -25.133720  0
-9.343613  -52.411575  -25.133720  0
-9.093613  -52.661575  -25.133720  0
-9.093613  -52.411575  -24.883720  0
-9.093613  -50.661575  -24.633717  0
-9.593613  -50.661575  -24.633717  0
-8.843613  -50.911575  -24.633717  0
-9.093613  -51.161575  -24.633717  0
-9.093613  -50.911575  -24.383717  0
-9.843613  -50.911575  -24.633717  0
-9.593613  -51.161575  -24.633717  0
-9.593613  -50.911575  -24.383717  0
38 43 0 0
1 39 0 0
0 39 38 0
2 40 1 0
1 40 39 0
2 44 40 0
0 43 3 0
3 43 48 0
0 4 1 0
0 3 4 0
1 5 2 0
1 4 5 0
44 2 50 0
50 2 5 0
49 54 6 0
49 6 48 0
6 3 48 0
6 7 3 0
3 8 4 0
3 7 8 0
4 9 5 0
4 8 9 0
50 5 56 0
56 5 9 0
55 60 10 0
55 10 54 0
10 6 54 0
10 11 6 0
6 12 7 0
6 11 12 0
7 13 8 0
7 12 13 0
8 14 9 0
8 13 14 0
56 9 61 0
61 9 14 0
10 60 15 0
15 60 65 0
10 16 11 0
10 15 16 0
11 17 12 0
11 16 17 0
12 18 13 0
12 17 18 0
13 19 14 0
13 18 19 0
61 14 66 0
66 14 19 0
15 65 20 0
20 65 69 0
15 21 16 0
15 20 21 0
16 22 17 0
16 21 22 0
17 23 18 0
17 22 23 0
18 24 19 0
18 23 24 0
66 19 70 0
70 19 24 0
20 69 25 0
25 69 73 0
20 26 21 0
20 25 26 0
21 27 22 0
21 26 27 0
22 28 23 0
22 27 28 0
23 29 24 0
23 28 29 0
70 24 74 0
74 24 29 0
25 73 30 0
30 73 77 0
25 31 26 0
25 30 31 0
26 32 27 0
26 31 32 0
27 33 28 0
27 32 33 0
28 34 29 0
28 33 34 0
74 29 79 0
79 29 34 0
77 78 30 0
82 35 78 0
35 30 78 0
35 31 30 0
31 36 32 0
31 35 36 0
32 37 33 0
32 36 37 0
80 34 85 0
34 37 85 0
34 33 37 0
34 80 79 0
82 83 35 0
35 83 36 0
36 83 84 0
36 84 37 0
37 84 86 0
37 86 85 0
88 92 41 0
42 89 41 0
41 89 88 0
42 95 89 0
90 98 38 0
38 98 43 0
91 38 39 0
91 90 38 0
93 39 40 0
93 91 39 0
45 41 44 0
41 93 44 0
93 40 44 0
41 92 93 0
41 46 42 0
41 45 46 0
95 42 96 0
42 47 96 0
42 46 47 0
47 100 96 0
98 48 43 0
102 48 98 0
50 51 45 0
50 45 44 0
45 52 46 0
45 51 52 0
46 53 47 0
46 52 53 0
100 47 104 0
104 47 53 0
103 106 49 0
49 106 54 0
49 48 102 0
49 102 103 0
56 57 51 0
56 51 50 0
51 58 52 0
51 57 58 0
52 59 53 0
52 58 59 0
104 53 108 0
108 53 59 0
107 109 55 0
55 109 60 0
55 54 106 0
55 106 107 0
61 62 57 0
61 57 56 0
57 63 58 0
57 62 63 0
58 64 59 0
58 63 64 0
108 59 110 0
110 59 64 0
109 65 60 0
112 65 109 0
66 67 62 0
66 62 61 0
62 68 63 0
62 67 68 0
111 64 113 0
64 68 113 0
64 63 68 0
64 111 110 0
112 69 65 0
115 69 112 0
70 71 67 0
70 67 66 0
67 72 68 0
67 71 72 0
113 68 116 0
116 68 72 0
115 73 69 0
118 73 115 0
74 75 71 0
74 71 70 0
71 76 72 0
71 75 76 0
116 72 120 0
120 72 76 0
118 77 73 0
122 77 118 0
79 81 75 0
79 75 74 0
121 76 125 0
76 81 125 0
76 75 81 0
76 121 120 0
122 123 77 0
77 123 78 0
82 78 123 0
82 123 128 0
85 87 80 0
87 132 80 0
80 132 79 0
132 126 79 0
126 81 79 0
81 126 125 0
128 129 82 0
82 129 83 0
83 130 84 0
129 130 83 0
84 131 86 0
130 131 84 0
85 86 87 0
86 133 87 0
86 131 133 0
87 133 132 0
139 145 94 0
92 88 94 0
88 139 94 0
88 140 139 0
142 88 89 0
142 140 88 0
89 95 142 0
142 95 147 0
144 148 97 0
97 151 144 0
99 98 90 0
99 90 153 0
90 146 153 0
90 91 146 0
93 94 145 0
146 93 145 0
91 93 146 0
94 93 92 0
149 147 95 0
149 95 96 0
101 97 100 0
97 149 100 0
149 96 100 0
97 148 149 0
151 97 156 0
156 97 101 0
154 158 99 0
158 98 99 0
158 102 98 0
154 99 153 0
104 105 101 0
104 101 100 0
156 101 160 0
160 101 105 0
159 162 103 0
103 162 106 0
103 102 158 0
103 158 159 0
165 161 105 0
104 165 105 0
108 165 104 0
105 161 160 0
163 168 107 0
107 168 109 0
107 106 162 0
107 162 163 0
110 165 108 0
110 170 165 0
168 112 109 0
172 112 168 0
113 114 111 0
114 174 111 0
174 110 111 0
174 170 110 0
172 115 112 0
176 115 172 0
116 117 114 0
116 114 113 0
174 114 179 0
179 114 117 0
119 118 177 0
118 176 177 0
118 115 176 0
181 119 177 0
182 180 117 0
116 182 117 0
120 182 116 0
117 180 179 0
124 122 119 0
119 122 118 0
119 181 183 0
119 183 124 0
125 127 121 0
127 185 121 0
185 120 121 0
185 182 120 0
124 123 122 0
128 123 124 0
183 128 124 0
187 128 183 0
132 134 126 0
127 125 126 0
134 127 126 0
135 127 134 0
185 127 192 0
192 127 135 0
187 188 128 0
128 188 129 0
188 195 136 0
130 188 136 0
129 188 130 0
137 131 130 0
137 130 136 0
138 133 131 0
138 131 137 0
138 199 133 0
133 199 132 0
199 190 132 0
190 134 132 0
134 190 135 0
135 190 193 0
135 193 192 0
195 196 136 0
136 196 137 0
137 196 198 0
137 198 138 0
138 198 200 0
138 200 199 0
202 204 141 0
143 203 141 0
141 203 202 0
143 207 203 0
205 213 139 0
139 213 145 0
140 141 204 0
205 140 204 0
139 140 205 0
141 140 142 0
141 142 143 0
150 208 147 0
147 208 142 0
208 207 142 0
207 143 142 0
148 144 150 0
144 208 150 0
144 209 208 0
152 211 151 0
211 144 151 0
211 209 144 0
152 215 211 0
155 153 146 0
218 155 146 0
145 218 146 0
213 218 145 0
149 150 147 0
150 149 148 0
156 157 152 0
156 152 151 0
215 152 221 0
221 152 157 0
217 224 154 0
154 224 158 0
154 153 155 0
219 154 155 0
217 154 219 0
219 155 218 0
226 222 157 0
156 226 157 0
160 226 156 0
157 222 221 0
164 162 159 0
229 164 159 0
158 229 159 0
224 229 158 0
165 166 161 0
226 160 227 0
160 166 227 0
166 167 227 0
160 161 166 0
167 232 227 0
169 168 163 0
235 169 163 0
235 163 162 0
230 235 162 0
164 230 162 0
230 164 229 0
170 171 166 0
170 166 165 0
233 167 237 0
167 171 237 0
167 166 171 0
167 233 232 0
173 172 169 0
169 172 168 0
169 235 240 0
169 240 173 0
174 175 171 0
174 171 170 0
237 171 242 0
242 171 175 0
178 176 173 0
173 176 172 0
173 240 245 0
173 245 178 0
247 243 175 0
174 247 175 0
179 247 174 0
175 243 242 0
178 177 176 0
181 177 178 0
245 181 178 0
250 181 245 0
254 248 180 0
254 180 182 0
179 180 247 0
247 180 248 0
184 183 251 0
183 250 251 0
183 181 250 0
257 184 251 0
259 255 186 0
255 254 186 0
254 185 186 0
254 182 185 0
189 187 184 0
184 187 183 0
184 257 262 0
184 262 189 0
266 260 191 0
191 260 259 0
186 191 259 0
194 191 186 0
192 194 185 0
185 194 186 0
189 188 187 0
263 197 195 0
263 195 188 0
262 263 188 0
189 262 188 0
270 197 263 0
271 267 201 0
201 267 266 0
201 266 191 0
199 201 191 0
190 199 191 0
190 191 193 0
193 191 194 0
193 194 192 0
197 196 195 0
270 272 197 0
272 196 197 0
272 198 196 0
201 200 271 0
200 272 271 0
200 198 272 0
200 201 199 0
206 204 202 0
206 202 278 0
202 275 278 0
202 203 275 0
203 207 275 0
275 207 280 0
276 281 210 0
212 277 210 0
210 277 276 0
212 284 277 0
214 213 205 0
287 214 205 0
287 205 204 0
279 287 204 0
206 279 204 0
279 206 278 0
282 280 207 0
282 207 208 0
209 210 281 0
282 209 281 0
208 209 282 0
210 209 211 0
210 211 212 0
216 285 215 0
215 285 211 0
285 284 211 0
284 212 211 0
216 288 285 0
220 218 214 0
214 218 213 0
214 287 290 0
214 290 220 0
221 223 216 0
221 216 215 0
288 216 292 0
292 216 223 0
225 224 217 0
225 217 295 0
217 289 295 0
217 219 289 0
219 218 220 0
291 219 220 0
289 219 291 0
291 220 290 0
226 228 222 0
228 297 222 0
222 297 221 0
297 293 221 0
293 223 221 0
223 293 292 0
231 229 225 0
225 229 224 0
225 295 300 0
225 300 231 0
227 228 226 0
234 298 232 0
232 298 227 0
298 297 227 0
297 228 227 0
234 302 298 0
236 235 230 0
303 236 230 0
303 230 229 0
301 303 229 0
231 301 229 0
301 231 300 0
237 238 233 0
234 232 233 0
238 234 233 0
239 234 238 0
302 234 305 0
305 234 239 0
241 240 236 0
236 240 235 0
236 303 308 0
236 308 241 0
242 244 238 0
242 238 237 0
306 239 310 0
239 244 310 0
239 238 244 0
239 306 305 0
246 245 241 0
241 245 240 0
241 308 313 0
241 313 246 0
247 249 243 0
249 316 243 0
243 316 242 0
316 311 242 0
311 244 242 0
244 311 310 0
252 250 246 0
246 250 245 0
246 313 314 0
253 246 314 0
252 246 253 0
320 253 314 0
254 256 248 0
256 322 248 0
248 322 247 0
322 317 247 0
317 249 247 0
249 317 316 0
252 251 250 0
251 252 257 0
252 258 257 0
252 253 258 0
253 320 325 0
253 325 258 0
259 261 255 0
261 328 255 0
255 328 254 0
328 323 254 0
323 256 254 0
256 323 322 0
264 262 258 0
258 262 257 0
258 325 326 0
265 258 326 0
264 258 265 0
331 265 326 0
266 268 260 0
261 259 260 0
268 261 260 0
269 261 268 0
328 261 334 0
334 261 269 0
264 263 262 0
263 264 270 0
264 273 270 0
264 265 273 0
332 267 271 0
265 332 271 0
273 265 271 0
332 265 331 0
267 332 266 0
332 274 266 0
274 268 266 0
274 332 337 0
335 269 338 0
269 274 338 0
269 268 274 0
269 335 334 0
273 272 270 0
272 273 271 0
337 339 274 0
274 339 338 0
341 344 275 0
275 344 278 0
275 280 341 0
341 280 346 0
283 281 276 0
283 276 349 0
276 342 349 0
276 277 342 0
286 343 284 0
343 277 284 0
343 342 277 0
286 352 343 0
345 354 279 0
279 354 287 0
279 278 344 0
279 344 345 0
348 346 280 0
348 280 282 0
282 281 283 0
350 282 283 0
348 282 350 0
350 283 349 0
285 286 284 0
285 288 286 0
288 352 286 0
288 358 352 0
354 290 287 0
360 290 354 0
292 294 359 0
358 292 359 0
288 292 358 0
294 363 359 0
296 295 289 0
296 289 365 0
289 361 365 0
289 291 361 0
291 290 360 0
291 360 361 0
297 299 293 0
299 368 293 0
293 368 292 0
368 364 292 0
364 294 292 0
294 364 363 0
366 369 296 0
369 295 296 0
369 300 295 0
366 296 365 0
298 299 297 0
298 302 299 0
302 368 299 0
302 372 368 0
304 303 301 0
375 304 301 0
300 375 301 0
369 375 300 0
305 307 373 0
372 305 373 0
302 305 372 0
307 378 373 0
309 308 304 0
304 308 303 0
304 375 380 0
304 380 309 0
310 312 306 0
312 383 306 0
306 383 305 0
383 379 305 0
379 307 305 0
307 379 378 0
315 313 309 0
309 313 308 0
309 380 385 0
309 385 315 0
316 318 311 0
312 310 311 0
318 312 311 0
319 312 318 0
383 312 390 0
390 312 319 0
315 314 313 0
386 321 320 0
386 320 314 0
385 386 314 0
315 385 314 0
392 321 386 0
322 324 317 0
324 394 317 0
317 394 316 0
394 389 316 0
389 318 316 0
318 389 319 0
319 389 391 0
319 391 390 0
327 325 321 0
321 325 320 0
321 392 396 0
321 396 327 0
328 329 323 0
324 322 323 0
329 324 323 0
330 324 329 0
394 324 399 0
399 324 330 0
327 326 325 0
397 333 331 0
397 331 326 0
396 397 326 0
327 396 326 0
401 333 397 0
334 336 329 0
334 329 328 0
400 330 406 0
330 336 406 0
330 329 336 0
330 400 399 0
333 332 331 0
402 340 337 0
402 337 332 0
401 402 332 0
333 401 332 0
335 338 340 0
402 335 340 0
404 335 402 0
334 335 336 0
335 407 336 0
335 404 407 0
336 407 406 0
340 339 337 0
339 340 338 0
347 344 341 0
346 347 341 0
351 349 342 0
343 353 342 0
342 353 351 0
352 353 343 0
355 354 345 0
344 347 345 0
347 355 345 0
347 356 355 0
348 357 346 0
357 347 346 0
357 356 347 0
357 348 412 0
348 408 412 0
348 350 408 0
350 349 351 0
409 350 351 0
408 350 409 0
409 351 353 0
409 353 410 0
353 352 410 0
352 415 410 0
352 358 415 0
362 360 355 0
355 360 354 0
356 411 417 0
362 356 417 0
355 356 362 0
411 356 357 0
411 357 413 0
413 357 412 0
416 415 358 0
416 358 359 0
359 363 416 0
416 363 421 0
367 365 361 0
424 367 361 0
424 361 360 0
418 424 360 0
362 418 360 0
418 362 417 0
426 422 364 0
426 364 368 0
363 364 421 0
421 364 422 0
370 369 366 0
365 367 366 0
367 370 366 0
367 371 370 0
367 424 429 0
367 429 371 0
372 374 428 0
426 372 428 0
368 372 426 0
374 432 428 0
376 375 370 0
370 375 369 0
377 370 371 0
376 370 377 0
371 429 433 0
371 433 377 0
373 374 372 0
373 378 374 0
378 432 374 0
378 435 432 0
381 380 376 0
376 380 375 0
382 376 377 0
381 376 382 0
377 433 437 0
377 437 382 0
383 384 379 0
384 439 379 0
439 378 379 0
439 435 378 0
387 385 381 0
381 385 380 0
388 381 382 0
387 381 388 0
382 437 442 0
382 442 388 0
444 440 384 0
383 444 384 0
390 444 383 0
384 440 439 0
387 386 385 0
386 387 392 0
387 393 392 0
387 388 393 0
388 442 447 0
388 447 393 0
394 395 389 0
389 395 449 0
445 389 449 0
391 389 445 0
390 391 444 0
444 391 445 0
398 396 393 0
393 396 392 0
393 447 451 0
393 451 398 0
456 450 395 0
394 456 395 0
399 456 394 0
395 450 449 0
398 397 396 0
452 403 401 0
452 401 397 0
451 452 397 0
398 451 397 0
454 405 403 0
454 403 452 0
458 405 454 0
459 457 400 0
459 400 406 0
399 400 456 0
456 400 457 0
403 402 401 0
402 403 404 0
404 403 405 0
458 460 405 0
460 404 405 0
460 407 404 0
406 407 459 0
459 407 460 0
414 412 408 0
414 408 465 0
408 462 465 0
408 409 462 0
463 409 410 0
463 462 409 0
410 415 463 0
463 415 468 0
419 417 411 0
419 411 471 0
411 464 471 0
411 413 464 0
413 412 414 0
466 413 414 0
464 413 466 0
466 414 465 0
475 469 420 0
423 420 416 0
420 468 416 0
468 415 416 0
468 420 469 0
421 423 416 0
425 424 418 0
477 425 418 0
477 418 417 0
472 477 417 0
419 472 417 0
472 419 471 0
475 420 427 0
475 427 482 0
426 427 422 0
427 423 422 0
427 420 423 0
422 423 421 0
430 429 425 0
425 429 424 0
425 477 478 0
431 425 478 0
430 425 431 0
486 431 478 0
484 482 427 0
484 427 426 0
428 484 426 0
485 484 428 0
428 432 485 0
485 432 491 0
434 433 430 0
430 433 429 0
431 487 494 0
434 431 494 0
430 431 434 0
487 431 486 0
435 436 493 0
491 435 493 0
432 435 491 0
436 496 493 0
438 437 434 0
434 437 433 0
434 494 497 0
434 497 438 0
439 441 436 0
439 436 435 0
496 436 499 0
499 436 441 0
443 442 438 0
438 442 437 0
438 497 502 0
438 502 443 0
444 446 440 0
446 506 440 0
440 506 439 0
506 500 439 0
500 441 439 0
441 500 499 0
448 447 443 0
443 447 442 0
443 502 508 0
443 508 448 0
513 505 445 0
513 445 449 0
444 445 446 0
445 507 446 0
445 505 507 0
446 507 506 0
453 451 448 0
448 451 447 0
448 508 509 0
455 448 509 0
453 448 455 0
515 455 509 0
518 514 450 0
518 450 456 0
449 450 513 0
513 450 514 0
453 452 451 0
452 453 454 0
454 453 455 0
516 461 458 0
516 458 454 0
515 516 454 0
455 515 454 0
457 459 461 0
516 457 461 0
519 457 516 0
456 457 518 0
518 457 519 0
461 460 458 0
460 461 459 0
467 465 462 0
463 470 462 0
462 470 467 0
468 470 463 0
473 471 464 0
466 474 464 0
464 474 473 0
465 467 466 0
467 474 466 0
467 476 474 0
475 476 469 0
476 470 469 0
476 467 470 0
469 470 468 0
479 477 472 0
471 473 472 0
473 479 472 0
473 480 479 0
481 473 474 0
480 473 481 0
483 474 476 0
481 474 483 0
482 483 475 0
475 483 476 0
479 478 477 0
478 479 486 0
479 488 486 0
479 480 488 0
481 521 522 0
488 481 522 0
480 481 488 0
489 524 521 0
481 489 521 0
483 489 481 0
484 490 482 0
490 483 482 0
490 489 483 0
485 492 484 0
484 492 490 0
491 492 485 0
495 494 487 0
530 495 487 0
530 487 486 0
523 530 486 0
488 523 486 0
523 488 522 0
526 524 489 0
526 489 490 0
526 490 527 0
527 490 492 0
527 492 528 0
528 492 491 0
493 528 491 0
529 528 493 0
493 496 529 0
529 496 534 0
498 497 495 0
495 497 494 0
495 530 537 0
495 537 498 0
543 535 501 0
535 534 501 0
534 499 501 0
534 496 499 0
503 502 498 0
498 502 497 0
498 537 538 0
504 498 538 0
503 498 504 0
545 504 538 0
543 501 500 0
506 543 500 0
551 543 506 0
500 501 499 0
510 508 503 0
503 508 502 0
511 503 504 0
510 503 511 0
504 545 546 0
512 504 546 0
511 504 512 0
554 512 546 0
555 549 505 0
555 505 513 0
505 552 507 0
549 552 505 0
506 507 551 0
551 507 552 0
510 509 508 0
509 510 515 0
510 517 515 0
510 511 517 0
520 511 512 0
517 511 520 0
556 514 518 0
512 556 518 0
520 512 518 0
556 512 554 0
513 514 555 0
555 514 556 0
517 516 515 0
516 517 519 0
519 517 520 0
519 520 518 0
525 522 521 0
524 525 521 0
531 530 523 0
522 525 523 0
525 531 523 0
525 532 531 0
532 525 524 0
558 532 524 0
526 558 524 0
560 532 558 0
559 526 527 0
559 558 526 0
563 559 533 0
559 528 533 0
559 527 528 0
529 536 528 0
528 536 533 0
534 536 529 0
539 537 531 0
531 537 530 0
540 531 532 0
539 531 540 0
532 560 561 0
541 532 561 0
540 532 541 0
564 542 541 0
564 541 561 0
542 564 563 0
533 542 563 0
544 542 533 0
543 544 535 0
544 536 535 0
544 533 536 0
535 536 534 0
539 538 537 0
538 539 545 0
539 547 545 0
539 540 547 0
548 540 541 0
547 540 548 0
550 541 542 0
548 541 550 0
553 542 544 0
550 542 553 0
551 553 543 0
543 553 544 0
547 546 545 0
546 547 554 0
547 557 554 0
547 548 557 0
555 557 549 0
557 550 549 0
557 548 550 0
549 550 552 0
552 550 553 0
552 553 551 0
557 556 554 0
556 557 555 0
562 560 558 0
559 565 558 0
558 565 562 0
563 565 559 0
562 561 560 0
561 562 564 0
564 562 565 0
564 565 563 0
