#!ascii version in FreeSurfer format (SUMA)
774 1544
-5.652457  -49.177200  -29.703423  0
-5.640877  -48.954967  -29.430849  0
-5.947784  -49.113113  -29.701094  0
-6.182669  -48.856190  -29.472511  0
-6.377675  -49.146362  -29.686398  0
-6.730916  -48.959312  -29.462851  0
-7.296563  -48.987221  -29.346586  0
-7.750054  -49.045666  -29.292675  0
-5.380993  -49.443539  -29.678513  0
-5.185973  -49.234871  -29.358208  0
-6.726538  -49.315250  -29.660353  0
-7.155864  -49.457008  -29.540770  0
-7.644981  -49.423828  -29.420851  0
-8.012455  -49.399002  -29.324738  0
-5.166774  -49.902374  -29.765676  0
-4.966075  -50.079216  -29.740414  0
-4.915505  -49.788086  -29.529390  0
-6.833674  -49.705612  -29.697214  0
-7.217520  -50.045856  -29.572519  0
-7.611676  -49.922764  -29.457685  0
-8.003472  -49.843323  -29.346264  0
-4.768897  -50.325691  -29.705097  0
-4.550080  -50.604229  -29.680531  0
-4.486922  -50.333836  -29.422400  0
-6.854775  -50.203793  -29.702570  0
-7.217631  -50.567486  -29.556723  0
-7.587301  -50.448505  -29.437801  0
-7.985491  -50.373631  -29.306162  0
-4.360865  -50.956078  -29.636948  0
-4.134445  -50.753571  -29.320213  0
-6.859710  -50.726517  -29.691423  0
-7.226457  -51.072193  -29.534966  0
-7.518424  -50.874393  -29.428738  0
-7.899269  -50.926720  -29.273371  0
-4.265203  -51.568249  -29.686850  0
-4.021649  -51.217999  -29.419647  0
-6.870555  -51.250244  -29.686697  0
-7.230984  -51.595779  -29.523031  0
-7.619574  -51.363392  -29.351097  0
-4.260937  -52.116917  -29.701883  0
-3.970943  -51.729515  -29.426363  0
-6.874799  -51.769180  -29.691751  0
-7.189884  -52.109142  -29.522146  0
-7.547380  -51.950264  -29.323389  0
-4.299571  -52.611404  -29.701639  0
-3.997191  -52.261505  -29.420410  0
-6.863616  -52.279324  -29.677986  0
-7.124100  -52.511574  -29.511803  0
-7.432814  -52.479492  -29.309895  0
-4.351017  -52.918663  -29.698366  0
-4.113038  -52.804398  -29.430260  0
-4.478913  -53.201694  -29.651754  0
-6.882302  -52.862057  -29.545958  0
-6.690382  -53.275455  -29.533791  0
-7.213828  -52.766697  -29.384926  0
-4.748546  -53.461868  -29.698624  0
-4.558833  -53.512135  -29.476782  0
-5.068047  -53.665180  -29.630348  0
-5.699361  -53.696209  -29.686113  0
-6.442794  -53.501186  -29.570360  0
-6.123268  -53.697422  -29.612770  0
-6.700556  -53.504349  -29.407310  0
-5.045156  -53.940773  -29.340408  0
-5.467630  -53.964600  -29.431610  0
-5.962417  -53.952877  -29.413450  0
-5.647982  -48.735809  -28.972528  0
-6.031452  -48.654282  -29.129452  0
-6.453021  -48.657837  -29.214252  0
-6.935173  -48.596497  -29.099934  0
-7.225538  -48.377655  -28.853758  0
-7.555198  -48.634071  -29.042917  0
-7.493258  -48.389172  -28.835306  0
-5.355637  -48.941521  -29.118864  0
-5.108218  -49.158592  -28.990854  0
-7.936135  -48.864697  -29.120710  0
-8.050501  -49.108471  -29.230589  0
-8.289943  -48.996899  -28.990923  0
-8.625743  -49.042782  -28.783972  0
-4.935368  -49.456184  -29.190147  0
-8.254376  -49.324986  -29.188848  0
-8.554709  -49.450413  -28.971498  0
-4.712631  -49.814445  -29.137421  0
-4.474044  -50.130737  -28.968607  0
-8.314969  -49.717186  -29.199196  0
-8.607478  -50.034981  -28.959229  0
-4.252046  -50.434357  -29.112894  0
-4.040130  -50.672951  -28.954369  0
-8.336811  -50.241871  -29.155416  0
-8.606214  -50.564060  -28.893280  0
-3.922735  -50.981079  -29.143969  0
-8.345345  -50.857300  -29.028053  0
-8.169901  -51.230030  -29.078598  0
-8.597607  -50.885078  -28.824125  0
-3.832191  -51.349876  -29.101341  0
-7.962647  -51.373486  -29.182446  0
-8.167940  -51.617020  -28.970922  0
-3.807347  -51.836624  -29.056509  0
-7.894629  -51.782421  -29.137182  0
-8.130935  -52.063717  -28.864687  0
-3.855085  -52.359425  -29.030207  0
-7.864532  -52.378937  -29.007820  0
-7.643278  -52.764366  -29.069616  0
-8.116900  -52.372131  -28.785162  0
-3.938670  -52.832443  -28.992359  0
-4.197601  -53.211994  -29.278717  0
-7.413944  -52.854298  -29.208494  0
-7.223174  -53.090012  -29.230312  0
-7.566127  -53.150501  -28.950974  0
-4.336483  -53.499374  -29.064548  0
-4.696416  -53.765095  -29.264303  0
-6.964250  -53.459557  -29.188396  0
-6.670003  -53.734268  -29.222353  0
-7.320343  -53.399296  -28.982603  0
-7.546538  -53.501610  -28.752626  0
-4.860820  -53.984100  -29.001328  0
-5.263931  -54.124218  -29.094578  0
-5.757101  -54.171913  -29.102602  0
-6.358042  -53.859650  -29.341375  0
-6.227767  -54.124638  -29.064146  0
-6.559505  -54.009636  -29.011566  0
-7.053650  -48.207695  -28.476751  0
-7.413800  -48.261772  -28.634638  0
-5.697206  -48.697334  -28.554844  0
-5.952428  -48.585541  -28.747616  0
-6.861068  -48.356804  -28.774235  0
-6.415446  -48.476135  -28.765388  0
-6.678690  -48.299961  -28.508804  0
-7.736269  -48.375278  -28.636438  0
-8.037400  -48.647003  -28.828917  0
-8.544191  -48.648232  -28.521322  0
-8.571493  -48.429977  -28.247656  0
-5.372328  -48.926167  -28.656754  0
-5.094191  -49.203239  -28.642925  0
-5.556290  -48.816090  -28.398726  0
-8.855151  -48.918007  -28.545845  0
-9.107634  -49.091663  -28.372467  0
-4.889992  -49.497215  -28.786947  0
-5.002419  -49.428726  -28.398115  0
-8.852304  -49.290489  -28.678993  0
-9.081169  -49.551247  -28.438461  0
-4.677918  -49.849270  -28.747204  0
-4.527970  -50.108932  -28.488117  0
-8.847887  -49.791283  -28.710775  0
-9.072553  -50.032223  -28.404375  0
-4.263158  -50.378967  -28.711100  0
-4.051050  -50.662918  -28.497374  0
-8.860784  -50.375206  -28.623781  0
-9.083572  -50.419956  -28.316036  0
-3.866692  -50.981915  -28.789145  0
-8.761545  -50.868526  -28.611649  0
-8.601870  -51.166576  -28.676554  0
-3.782659  -51.394726  -28.679226  0
-8.388866  -51.396797  -28.821436  0
-8.582283  -51.586617  -28.455200  0
-3.783411  -51.883408  -28.621130  0
-8.366964  -51.891850  -28.604319  0
-8.533494  -51.928093  -28.262056  0
-3.850205  -52.397900  -28.576242  0
-3.989114  -52.626217  -28.324871  0
-8.250411  -52.355026  -28.561382  0
-8.108161  -52.677395  -28.639505  0
-3.919990  -52.837784  -28.662405  0
-4.059985  -53.163353  -28.858240  0
-4.053175  -53.000298  -28.497957  0
-7.887521  -52.935478  -28.784958  0
-8.099459  -53.118214  -28.453657  0
-4.281617  -53.345001  -28.523659  0
-4.548638  -53.733654  -28.787857  0
-7.294082  -53.731846  -28.719055  0
-7.861688  -53.409462  -28.537388  0
-7.605309  -53.692837  -28.520782  0
-8.088483  -53.371784  -28.358727  0
-4.820914  -53.961735  -28.510893  0
-5.090344  -54.149120  -28.723991  0
-5.529188  -54.312607  -28.663383  0
-6.058628  -54.342590  -28.722658  0
-6.889403  -53.988743  -28.709127  0
-6.495771  -54.245228  -28.688005  0
-7.186682  -53.993385  -28.467930  0
-7.415145  -53.933048  -28.333368  0
-5.563568  -54.440746  -28.255024  0
-5.897625  -54.500664  -28.369949  0
-6.311736  -54.473114  -28.354973  0
-6.688783  -48.236401  -28.131712  0
-7.016097  -48.052341  -28.008934  0
-7.263836  -47.869923  -27.823719  0
-7.519482  -48.073540  -28.159327  0
-7.475752  -47.858864  -27.839161  0
-8.517957  -48.253685  -27.985121  0
-6.427537  -48.385418  -28.273352  0
-6.055645  -48.603207  -28.200840  0
-7.941236  -48.263355  -28.272377  0
-8.399406  -48.424568  -28.293102  0
-8.148108  -48.446789  -28.468782  0
-8.215903  -48.309040  -28.179985  0
-8.821504  -48.388176  -28.098543  0
-9.117153  -48.633057  -28.151804  0
-9.107171  -48.336040  -27.913017  0
-5.721157  -48.783909  -28.198153  0
-5.514524  -49.020603  -28.075655  0
-9.372588  -48.933151  -28.066204  0
-9.618518  -49.087116  -27.819126  0
-5.218070  -49.227844  -28.253630  0
-5.077040  -49.568352  -27.986727  0
-9.351232  -49.368042  -28.100384  0
-9.589120  -49.443398  -27.794888  0
-4.818363  -49.826084  -28.235439  0
-4.618956  -50.182350  -28.053354  0
-9.252891  -49.789371  -28.183050  0
-4.360286  -50.447376  -28.121634  0
-4.100344  -50.751904  -28.096579  0
-4.587395  -50.357929  -27.836046  0
-9.311906  -50.210018  -28.053772  0
-9.203290  -50.610950  -28.118065  0
-9.487372  -50.623379  -27.821167  0
-3.904004  -51.005238  -28.343599  0
-4.049273  -51.087788  -27.938299  0
-8.988270  -50.776665  -28.330984  0
-9.181079  -50.959637  -28.028801  0
-9.437901  -51.059242  -27.763567  0
-3.861443  -51.433853  -28.242580  0
-4.039034  -51.543583  -27.886236  0
-8.859801  -51.304161  -28.225815  0
-9.160918  -51.349720  -27.847170  0
-3.881593  -51.893040  -28.216345  0
-3.946202  -52.235886  -28.190149  0
-4.034486  -51.947060  -27.947851  0
-8.697402  -51.762543  -28.111454  0
-8.591410  -52.099632  -27.945759  0
-4.133118  -52.306950  -27.954487  0
-8.401650  -52.270790  -28.226011  0
-4.277431  -52.854404  -28.054190  0
-4.558944  -53.097130  -27.804209  0
-8.223127  -52.818939  -28.208981  0
-8.186131  -52.898037  -27.850290  0
-4.429526  -53.284798  -28.106583  0
-4.631973  -53.602604  -28.165987  0
-4.575342  -53.355598  -27.940798  0
-8.140516  -53.268002  -28.235243  0
-8.023494  -53.469761  -28.254377  0
-8.032640  -53.336269  -27.968359  0
-4.909835  -53.900219  -28.069216  0
-5.217329  -54.181591  -28.148682  0
-5.069025  -53.949867  -27.859503  0
-7.022281  -54.213615  -28.086342  0
-7.761234  -53.709538  -28.202578  0
-7.433918  -54.048805  -27.926275  0
-7.738961  -53.792519  -27.797709  0
-5.535606  -54.421154  -27.961237  0
-5.797816  -54.552113  -28.042881  0
-5.740880  -54.484406  -27.772451  0
-6.110466  -54.580975  -28.104748  0
-6.676857  -54.354237  -28.276615  0
-6.404433  -54.538696  -28.003853  0
-6.656174  -54.442787  -27.907818  0
-7.227845  -47.783924  -27.483511  0
-7.423321  -47.783489  -27.624842  0
-6.984092  -47.950359  -27.540977  0
-6.696507  -48.181519  -27.688129  0
-7.093295  -47.837864  -27.326517  0
-7.705837  -47.880917  -27.568787  0
-8.082263  -48.102108  -27.849556  0
-8.521315  -48.014374  -27.523144  0
-8.835870  -47.875671  -27.273941  0
-9.038575  -48.084217  -27.577503  0
-9.089135  -47.859238  -27.257940  0
-6.388574  -48.465034  -27.693851  0
-6.109413  -48.737011  -27.617863  0
-6.553250  -48.336185  -27.414103  0
-9.396349  -48.312817  -27.682060  0
-9.647602  -48.620918  -27.689411  0
-9.682067  -48.301464  -27.450279  0
-5.860613  -48.954094  -27.662933  0
-5.621265  -49.225082  -27.575836  0
-6.061176  -48.904926  -27.382412  0
-9.875559  -48.930840  -27.563297  0
-10.132249  -49.048225  -27.292099  0
-5.369777  -49.450279  -27.644041  0
-5.155578  -49.761623  -27.585823  0
-5.587333  -49.415329  -27.356413  0
-9.879295  -49.359062  -27.516504  0
-9.678865  -49.659718  -27.634537  0
-10.155418  -49.325657  -27.257345  0
-4.984361  -49.886108  -27.755308  0
-5.082273  -50.076897  -27.386448  0
-9.484585  -49.784889  -27.858082  0
-9.649668  -50.149303  -27.658985  0
-9.655134  -49.864025  -27.624264  0
-4.834163  -50.285961  -27.596327  0
-4.565440  -50.603386  -27.631367  0
-5.036590  -50.323219  -27.257339  0
-9.810279  -50.488659  -27.541679  0
-10.076543  -50.589485  -27.315638  0
-4.299416  -50.823231  -27.756018  0
-4.545519  -51.031982  -27.402140  0
-9.828637  -50.907169  -27.509575  0
-9.608855  -51.238197  -27.570835  0
-10.124515  -50.856037  -27.292322  0
-4.278866  -51.271503  -27.608059  0
-4.546782  -51.521221  -27.327330  0
-9.385921  -51.350616  -27.669737  0
-9.243138  -51.586266  -27.631338  0
-9.524795  -51.586662  -27.438177  0
-4.275272  -51.830715  -27.642338  0
-4.574930  -52.008343  -27.363985  0
-8.937759  -51.859486  -27.709869  0
-8.635830  -52.288250  -27.638794  0
-9.276107  -51.822548  -27.458149  0
-9.485738  -51.924805  -27.251598  0
-4.399805  -52.332500  -27.650087  0
-4.617705  -52.665443  -27.548759  0
-4.599311  -52.324070  -27.425756  0
-8.384488  -52.529274  -27.831171  0
-8.247047  -52.806644  -27.643297  0
-8.496048  -52.680744  -27.448334  0
-4.778603  -52.986099  -27.511881  0
-5.009507  -53.101238  -27.340857  0
-8.107386  -53.090103  -27.687372  0
-8.220313  -53.043152  -27.473549  0
-8.459254  -53.081329  -27.217056  0
-4.788888  -53.319561  -27.677732  0
-5.027986  -53.656673  -27.644005  0
-5.027193  -53.349911  -27.437111  0
-7.979425  -53.501015  -27.533789  0
-7.718594  -53.888840  -27.520452  0
-8.221794  -53.333809  -27.288504  0
-5.264461  -53.969162  -27.624022  0
-5.578813  -54.230717  -27.594196  0
-5.464387  -53.975586  -27.385780  0
-6.595219  -54.379845  -27.575996  0
-7.477848  -54.124111  -27.509449  0
-7.064178  -54.293827  -27.523495  0
-7.631724  -54.048817  -27.358917  0
-5.906256  -54.434078  -27.571499  0
-6.401208  -54.522430  -27.731800  0
-6.072668  -54.561470  -27.798027  0
-6.202062  -54.466675  -27.559052  0
-6.994152  -54.403564  -27.210268  0
-7.471937  -47.792980  -27.205791  0
-8.807543  -47.800728  -26.972727  0
-9.110412  -47.779881  -27.020344  0
-7.222292  -47.822159  -27.162630  0
-7.030260  -48.015385  -27.018829  0
-7.800004  -47.856895  -26.986982  0
-8.554016  -47.880550  -27.182421  0
-8.218587  -47.932957  -27.142792  0
-8.569699  -47.857796  -26.913292  0
-9.345065  -47.855892  -27.117306  0
-9.617798  -48.060596  -27.168566  0
-9.575192  -47.847836  -26.935463  0
-6.741934  -48.218487  -27.222275  0
-6.526353  -48.557903  -27.043783  0
-9.893128  -48.343098  -27.216042  0
-10.035423  -48.670837  -27.312338  0
-10.144408  -48.471416  -26.948969  0
-6.256579  -48.853180  -27.153936  0
-6.057703  -49.126999  -27.110458  0
-10.300881  -48.815380  -26.959579  0
-5.826028  -49.398491  -27.095528  0
-5.570310  -49.664352  -27.097548  0
-6.062791  -49.365673  -26.832199  0
-10.424153  -49.311016  -26.906431  0
-10.145680  -49.613430  -27.192177  0
-10.642535  -49.376095  -26.659990  0
-5.324219  -49.925068  -27.168743  0
-5.545072  -49.988777  -26.794598  0
-9.865687  -49.838387  -27.436548  0
-9.969450  -50.222149  -27.358757  0
-10.129062  -49.972935  -27.166523  0
-5.196731  -50.327442  -27.032331  0
-5.038621  -50.596329  -27.094088  0
-10.253429  -50.302242  -27.060959  0
-4.807220  -50.807129  -27.253416  0
-5.056891  -51.051876  -26.893232  0
-10.384346  -50.825333  -26.978420  0
-10.134236  -51.160229  -27.187977  0
-10.608533  -50.885059  -26.758173  0
-4.809472  -51.287964  -27.096308  0
-5.090263  -51.538185  -26.819645  0
-9.853187  -51.379860  -27.323627  0
-10.111087  -51.591427  -27.002560  0
-4.836195  -51.783901  -27.082634  0
-5.206387  -52.066582  -26.826468  0
-9.231862  -52.174381  -27.249556  0
-9.824447  -51.870472  -27.039371  0
-9.554009  -52.167458  -27.035110  0
-10.090412  -51.856594  -26.841272  0
-4.847468  -52.302345  -27.199389  0
-4.945969  -52.747856  -27.264162  0
-5.225986  -52.578457  -26.980930  0
-5.550536  -52.483143  -26.700682  0
-8.861064  -52.388802  -27.351803  0
-9.104955  -52.546787  -27.073050  0
-9.412650  -52.509171  -26.866226  0
-5.220378  -52.937000  -27.105448  0
-5.635417  -53.020439  -26.838047  0
-8.830708  -52.881107  -27.031359  0
-8.639228  -53.232109  -26.978746  0
-9.173670  -52.780430  -26.836679  0
-5.287426  -53.328636  -27.207367  0
-5.396833  -53.738350  -27.303190  0
-5.700190  -53.566711  -27.014452  0
-6.126431  -53.500950  -26.716309  0
-8.420647  -53.463486  -26.984587  0
-8.104502  -53.673676  -27.147118  0
-8.630902  -53.424339  -26.827639  0
-5.703662  -53.945698  -27.222651  0
-6.088726  -54.247601  -27.331676  0
-6.104938  -53.899498  -26.997478  0
-6.680357  -54.222549  -27.088858  0
-6.443644  -53.864010  -26.779064  0
-7.814538  -53.894909  -27.277060  0
-7.548141  -54.179981  -27.047028  0
-7.942248  -53.962467  -26.970263  0
-6.997362  -54.398796  -27.057205  0
-7.215930  -54.363647  -27.253363  0
-7.080517  -54.454510  -27.142794  0
-7.182289  -54.386971  -27.060749  0
-7.615306  -47.839302  -26.820921  0
-9.121609  -47.780678  -26.723539  0
-9.427478  -47.789341  -26.810772  0
-7.371660  -47.965046  -26.726004  0
-7.103649  -48.174606  -26.571362  0
-7.785165  -47.880432  -26.702740  0
-7.691381  -47.946545  -26.586521  0
-8.073795  -48.038261  -26.500141  0
-8.814749  -47.820118  -26.712305  0
-8.641273  -47.944176  -26.543259  0
-9.054585  -47.863018  -26.486670  0
-9.669459  -47.900547  -26.778032  0
-9.488955  -47.903023  -26.495260  0
-9.926847  -48.161552  -26.669975  0
-6.855278  -48.418640  -26.626295  0
-6.630292  -48.766914  -26.575165  0
-7.064202  -48.336712  -26.381327  0
-8.002789  -48.293999  -26.164948  0
-10.287251  -48.563236  -26.506758  0
-10.083589  -48.288952  -26.231276  0
-6.446159  -48.919064  -26.723265  0
-6.589406  -49.095325  -26.366795  0
-10.508808  -48.999794  -26.594025  0
-10.640025  -49.252823  -26.631519  0
-6.310719  -49.311909  -26.577320  0
-6.059619  -49.607067  -26.596212  0
-6.560951  -49.353905  -26.233377  0
-10.703241  -49.367279  -26.507683  0
-10.610890  -49.545689  -26.507511  0
-5.828658  -49.892967  -26.583448  0
-5.637339  -50.213581  -26.515810  0
-6.066802  -49.849937  -26.370920  0
-10.388193  -49.859844  -26.814939  0
-5.422464  -50.291817  -26.736418  0
-5.594646  -50.572464  -26.402853  0
-10.505656  -50.338223  -26.659424  0
-10.597717  -50.683899  -26.717720  0
-10.667974  -50.524910  -26.470068  0
-5.304739  -50.743732  -26.693220  0
-5.568293  -51.037819  -26.342064  0
-10.763518  -50.846935  -26.444988  0
-10.636301  -51.165836  -26.625015  0
-5.316437  -51.276047  -26.582815  0
-5.575157  -51.494610  -26.344206  0
-10.388931  -51.455711  -26.761681  0
-10.643306  -51.567455  -26.380484  0
-5.381147  -51.715481  -26.562622  0
-5.607964  -52.079197  -26.490032  0
-5.586599  -51.781258  -26.389383  0
-10.246001  -51.813980  -26.692360  0
-10.087171  -52.109108  -26.570532  0
-5.805782  -52.433983  -26.481815  0
-6.050782  -52.595612  -26.345943  0
-9.755502  -52.315250  -26.723284  0
-9.620908  -52.661167  -26.457331  0
-5.877674  -52.745205  -26.554142  0
-6.141254  -53.075771  -26.478390  0
-6.098773  -52.820923  -26.404600  0
-9.360438  -52.820995  -26.601137  0
-9.098842  -53.084007  -26.532516  0
-6.387397  -53.381863  -26.439468  0
-6.584243  -53.640530  -26.479679  0
-6.579017  -53.432533  -26.315754  0
-8.794636  -53.302647  -26.711596  0
-8.565968  -53.622093  -26.552868  0
-6.841588  -53.975960  -26.633286  0
-7.146744  -54.232628  -26.821699  0
-7.299743  -54.006962  -26.386797  0
-7.596447  -54.138145  -26.537859  0
-7.673656  -54.015076  -26.199661  0
-8.235549  -53.821651  -26.764004  0
-7.946753  -54.063061  -26.631565  0
-7.654580  -48.204803  -26.314213  0
-8.684547  -48.186058  -26.025225  0
-9.214785  -48.037846  -26.124525  0
-9.754363  -48.110611  -26.157145  0
-7.270743  -48.274029  -26.331703  0
-7.080130  -48.545979  -26.224907  0
-7.808604  -48.527302  -25.966814  0
-7.405362  -48.554008  -26.061199  0
-8.291080  -48.273167  -26.095638  0
-8.196626  -48.471691  -25.893356  0
-8.510711  -48.392738  -25.827087  0
-9.960646  -48.307140  -25.872055  0
-10.210360  -48.508614  -26.041643  0
-6.835944  -48.844154  -26.257111  0
-7.130429  -48.906750  -25.971039  0
-7.544816  -48.945587  -25.711716  0
-10.419662  -48.945965  -26.068804  0
-10.654412  -49.212780  -26.374369  0
-6.832956  -49.325806  -25.981087  0
-6.541645  -49.631721  -26.096594  0
-7.183331  -49.239399  -25.736792  0
-10.691950  -49.405548  -26.321321  0
-10.611084  -49.532810  -26.160290  0
-10.607920  -49.313633  -26.120628  0
-6.263659  -49.776360  -26.259380  0
-6.117367  -50.089050  -26.184900  0
-6.481099  -50.103489  -25.920599  0
-10.534623  -49.887783  -26.176760  0
-10.630689  -50.280575  -26.236277  0
-5.864497  -50.349434  -26.252247  0
-6.222493  -50.546631  -25.953115  0
-6.576825  -50.511333  -25.751886  0
-10.780095  -50.508156  -26.096828  0
-5.864579  -50.811352  -26.124819  0
-6.180467  -51.091969  -25.913691  0
-6.518166  -50.909599  -25.743023  0
-10.987782  -50.824306  -25.973742  0
-11.180725  -51.060997  -25.793427  0
-5.853940  -51.305489  -26.116880  0
-6.178374  -51.606853  -25.943388  0
-6.498095  -51.414307  -25.742842  0
-10.933994  -51.326672  -26.077770  0
-10.731655  -51.761810  -26.051184  0
-11.181466  -51.278889  -25.800066  0
-5.844106  -51.803989  -26.208822  0
-5.957637  -52.248817  -26.274963  0
-6.207986  -52.094467  -26.021118  0
-6.507601  -51.941631  -25.776911  0
-10.445768  -51.974651  -26.202641  0
-10.180473  -52.318642  -26.146433  0
-10.679658  -51.954987  -25.862774  0
-6.218463  -52.455029  -26.135429  0
-6.508933  -52.475471  -25.896971  0
-9.926898  -52.472424  -26.300449  0
-9.762069  -52.751041  -25.946339  0
-10.058837  -52.530582  -25.933027  0
-6.316789  -52.795158  -26.193113  0
-6.583725  -53.147980  -26.134220  0
-6.571235  -52.833015  -25.972881  0
-9.415549  -52.956974  -26.216297  0
-9.126768  -53.236515  -25.980492  0
-6.830097  -53.459488  -26.146334  0
-7.044830  -53.738579  -26.245312  0
-7.248922  -53.485928  -25.870914  0
-7.588744  -53.757088  -25.941076  0
-7.547951  -53.493122  -25.685856  0
-8.851405  -53.445427  -26.251179  0
-8.514938  -53.719585  -26.010454  0
-7.924006  -53.933453  -26.000298  0
-8.270926  -53.918457  -26.343588  0
-7.954533  -54.049213  -26.255903  0
-8.191300  -53.919067  -26.030411  0
-9.208108  -48.256439  -25.665956  0
-9.611481  -48.208786  -25.766287  0
-8.064787  -48.760628  -25.620977  0
-8.887477  -48.444736  -25.527445  0
-8.482423  -48.604328  -25.568968  0
-9.240147  -48.409088  -25.400074  0
-9.824039  -48.348316  -25.625727  0
-9.572924  -48.421509  -25.443035  0
-10.027355  -48.626152  -25.616587  0
-7.883913  -49.044186  -25.433023  0
-7.614611  -49.205956  -25.442520  0
-8.140178  -48.943226  -25.386850  0
-8.394629  -48.860092  -25.330862  0
-10.228544  -49.045143  -25.619087  0
-9.966480  -48.990784  -25.334761  0
-7.409838  -49.391529  -25.471607  0
-7.113857  -49.621948  -25.600252  0
-7.582040  -49.368088  -25.339794  0
-9.791661  -49.352993  -25.177973  0
-10.397840  -49.451111  -25.788567  0
-10.113365  -49.301796  -25.427055  0
-6.818451  -49.852043  -25.758467  0
-7.144533  -50.104969  -25.431751  0
-9.649712  -49.701481  -25.090567  0
-10.367258  -49.867958  -25.609951  0
-10.035969  -49.689968  -25.310818  0
-10.598192  -50.187191  -25.723829  0
-6.822267  -50.297928  -25.636765  0
-7.058348  -50.509762  -25.442507  0
-7.348863  -50.520206  -25.198095  0
-10.895573  -50.490482  -25.588024  0
-11.124686  -50.776264  -25.627205  0
-6.823524  -50.722900  -25.583729  0
-7.119976  -50.937317  -25.351015  0
-11.236348  -50.939816  -25.502670  0
-6.807174  -51.202152  -25.562637  0
-7.077642  -51.495327  -25.346834  0
-11.266667  -51.189217  -25.571148  0
-11.131227  -51.428040  -25.615536  0
-11.232135  -51.295959  -25.347059  0
-6.800426  -51.734497  -25.557577  0
-7.097175  -52.030151  -25.332527  0
-10.866702  -51.766224  -25.653404  0
-10.602131  -52.115250  -25.570501  0
-6.825438  -52.273430  -25.588379  0
-7.180006  -52.558315  -25.347990  0
-9.740780  -52.816368  -25.438869  0
-10.301470  -52.353111  -25.756199  0
-10.051391  -52.602791  -25.561493  0
-6.847127  -52.798325  -25.724203  0
-7.033298  -53.191605  -25.791842  0
-7.199481  -52.938450  -25.490482  0
-7.507659  -53.204712  -25.472746  0
-7.419086  -52.856590  -25.274874  0
-9.426610  -53.018337  -25.700863  0
-9.013441  -53.223545  -25.448359  0
-7.860622  -53.490875  -25.547884  0
-8.148544  -53.731159  -25.753078  0
-8.312363  -53.466259  -25.413490  0
-8.812583  -53.482433  -25.760464  0
-8.518865  -53.602272  -25.626741  0
-8.666099  -53.426708  -25.437841  0
-9.250363  -48.642212  -25.209223  0
-9.693812  -48.740078  -25.238914  0
-8.217353  -49.160034  -25.181417  0
-8.788431  -48.744141  -25.246904  0
-8.620208  -49.018513  -25.096514  0
-9.001647  -48.993462  -25.018427  0
-9.713687  -49.028149  -25.125727  0
-9.525463  -49.226860  -25.028454  0
-9.422169  -48.962215  -25.038465  0
-7.807707  -49.319561  -25.256395  0
-7.642065  -49.571533  -25.212149  0
-8.058647  -49.604099  -24.999813  0
-8.636642  -49.393261  -24.933378  0
-9.414401  -49.545296  -24.994473  0
-9.175406  -49.308842  -24.936501  0
-7.403605  -49.798973  -25.298164  0
-7.467103  -50.151443  -25.155315  0
-7.755553  -49.947128  -25.004107  0
-8.050735  -49.915234  -24.852545  0
-8.384721  -49.914337  -24.764708  0
-9.372809  -49.850140  -24.921621  0
-8.976823  -49.777306  -24.814823  0
-9.689332  -49.970913  -24.981321  0
-10.216095  -50.109241  -25.144028  0
-10.643490  -50.284760  -25.295568  0
-7.712885  -50.402763  -24.910286  0
-7.557156  -50.721874  -24.973763  0
-8.037761  -50.170727  -24.768433  0
-10.097500  -50.318260  -24.733665  0
-10.820198  -50.418961  -25.225517  0
-10.546826  -50.407848  -24.935436  0
-11.010617  -50.694263  -25.205620  0
-7.381978  -50.888210  -25.118271  0
-7.583467  -51.070084  -24.909115  0
-11.234190  -51.054592  -25.272709  0
-11.192383  -51.228416  -25.155821  0
-11.023227  -51.063770  -24.946878  0
-7.346115  -51.280003  -25.120253  0
-7.673595  -51.586082  -24.851479  0
-11.005136  -51.520695  -25.174534  0
-10.800285  -51.380241  -24.739840  0
-7.360050  -51.792107  -25.105089  0
-7.711377  -52.122597  -24.907019  0
-8.093704  -52.054264  -24.698370  0
-10.774627  -51.937115  -25.264494  0
-10.618118  -52.128708  -25.203196  0
-10.605597  -51.929562  -24.912298  0
-7.412405  -52.283005  -25.107901  0
-7.488841  -52.635307  -25.129150  0
-7.754261  -52.555767  -24.980436  0
-8.138659  -52.501034  -24.831690  0
-8.603383  -52.484241  -24.691187  0
-9.723656  -52.780899  -25.139894  0
-9.681652  -52.609444  -24.843851  0
-10.361610  -52.338451  -25.249960  0
-9.980983  -52.616539  -25.155821  0
-10.177571  -52.318241  -24.856068  0
-7.720272  -52.896835  -25.137865  0
-8.022305  -53.202682  -25.243744  0
-8.132256  -52.879150  -24.999916  0
-8.545549  -53.182518  -25.172951  0
-8.592443  -52.838291  -24.900036  0
-9.400196  -52.930069  -25.193813  0
-8.953502  -53.027054  -25.078836  0
-9.106825  -52.758179  -24.829533  0
-8.697005  -50.216099  -24.582527  0
-9.250436  -50.157146  -24.669115  0
-9.751101  -50.227512  -24.726580  0
-8.311718  -50.288025  -24.611181  0
-8.072811  -50.542271  -24.634727  0
-8.468019  -50.594635  -24.447670  0
-8.959291  -50.556168  -24.330376  0
-9.862618  -50.378185  -24.550705  0
-9.533463  -50.464401  -24.400976  0
-10.123648  -50.585690  -24.483803  0
-10.703788  -50.738129  -24.729195  0
-7.813886  -50.818691  -24.746058  0
-8.227676  -51.017788  -24.478962  0
-8.750120  -50.981621  -24.238894  0
-10.008957  -50.964485  -24.250273  0
-10.770410  -51.027100  -24.625441  0
-10.602570  -51.219196  -24.499571  0
-10.453815  -50.933899  -24.445808  0
-7.880452  -51.259071  -24.665764  0
-7.987176  -51.647125  -24.630739  0
-8.233206  -51.529671  -24.491589  0
-8.639637  -51.459309  -24.332270  0
-9.147798  -51.394485  -24.190741  0
-9.741340  -51.348465  -24.207069  0
-10.485308  -51.593803  -24.548731  0
-10.266639  -51.289349  -24.354910  0
-8.253172  -51.870331  -24.546541  0
-8.461991  -52.156689  -24.567461  0
-8.633849  -51.941681  -24.448257  0
-9.016938  -51.824383  -24.335112  0
-9.556008  -52.355019  -24.556011  0
-9.536679  -51.908691  -24.364227  0
-10.295371  -51.983360  -24.621723  0
-9.924517  -52.192562  -24.576988  0
-10.078130  -51.739246  -24.411116  0
-8.779099  -52.316006  -24.542929  0
-9.331416  -52.556499  -24.643248  0
-9.014951  -52.527130  -24.618048  0
-9.142321  -52.253773  -24.479176  0
-9.274256  -50.712936  -24.126345  0
-9.669398  -50.746990  -24.181509  0
-9.012002  -50.827717  -24.105726  0
-9.066286  -51.038612  -24.071703  0
-9.203175  -50.901142  -24.021868  0
-9.651571  -50.998074  -24.096529  0
-9.365172  -51.093643  -24.054077  0
-9.424119  -50.878674  -24.039055  0
38 46 0 0
1 40 0 0
0 40 38 0
2 42 1 0
1 42 40 0
2 48 42 0
0 46 3 0
3 46 52 0
0 4 1 0
0 3 4 0
1 5 2 0
1 4 5 0
48 2 55 0
55 2 5 0
53 59 6 0
53 6 52 0
6 3 52 0
6 7 3 0
3 8 4 0
3 7 8 0
4 9 5 0
4 8 9 0
55 5 62 0
62 5 9 0
60 66 10 0
60 10 59 0
10 6 59 0
10 11 6 0
6 12 7 0
6 11 12 0
7 13 8 0
7 12 13 0
8 14 9 0
8 13 14 0
62 9 68 0
68 9 14 0
10 66 15 0
15 66 72 0
10 16 11 0
10 15 16 0
11 17 12 0
11 16 17 0
12 18 13 0
12 17 18 0
13 19 14 0
13 18 19 0
68 14 74 0
74 14 19 0
15 72 20 0
20 72 77 0
15 21 16 0
15 20 21 0
16 22 17 0
16 21 22 0
17 23 18 0
17 22 23 0
18 24 19 0
18 23 24 0
74 19 79 0
79 19 24 0
20 77 25 0
25 77 82 0
20 26 21 0
20 25 26 0
21 27 22 0
21 26 27 0
22 28 23 0
22 27 28 0
23 29 24 0
23 28 29 0
79 24 84 0
84 24 29 0
25 82 30 0
30 82 87 0
25 31 26 0
25 30 31 0
26 32 27 0
26 31 32 0
27 33 28 0
27 32 33 0
28 34 29 0
28 33 34 0
84 29 90 0
90 29 34 0
87 89 30 0
93 35 89 0
35 30 89 0
35 31 30 0
31 36 32 0
31 35 36 0
32 37 33 0
32 36 37 0
91 34 97 0
34 37 97 0
34 33 37 0
34 91 90 0
93 95 35 0
35 95 36 0
36 95 96 0
36 96 37 0
37 96 98 0
37 98 97 0
103 110 39 0
41 104 39 0
39 104 103 0
43 105 41 0
41 105 104 0
44 106 43 0
43 106 105 0
45 108 44 0
44 108 106 0
45 112 108 0
111 116 47 0
111 47 110 0
110 47 39 0
47 46 39 0
46 38 39 0
39 38 40 0
39 40 41 0
41 40 42 0
41 42 43 0
43 42 48 0
49 43 48 0
44 43 49 0
44 50 45 0
44 49 50 0
112 45 113 0
45 51 113 0
45 50 51 0
51 117 113 0
47 116 54 0
54 116 119 0
54 52 46 0
54 46 47 0
55 56 49 0
55 49 48 0
49 57 50 0
49 56 57 0
50 58 51 0
50 57 58 0
117 51 121 0
121 51 58 0
120 123 61 0
120 61 119 0
119 61 54 0
61 59 54 0
59 53 54 0
54 53 52 0
62 63 56 0
62 56 55 0
56 64 57 0
56 63 64 0
57 65 58 0
57 64 65 0
121 58 125 0
125 58 65 0
124 127 67 0
124 67 123 0
123 67 61 0
67 66 61 0
66 60 61 0
61 60 59 0
68 69 63 0
68 63 62 0
63 70 64 0
63 69 70 0
64 71 65 0
64 70 71 0
125 65 128 0
128 65 71 0
67 127 73 0
73 127 131 0
73 72 66 0
73 66 67 0
74 75 69 0
74 69 68 0
69 76 70 0
69 75 76 0
129 71 132 0
71 76 132 0
71 70 76 0
71 129 128 0
73 131 78 0
78 131 134 0
78 77 72 0
78 72 73 0
79 80 75 0
79 75 74 0
75 81 76 0
75 80 81 0
132 76 135 0
135 76 81 0
78 134 83 0
83 134 137 0
83 82 77 0
83 77 78 0
84 85 80 0
84 80 79 0
80 86 81 0
80 85 86 0
135 81 138 0
138 81 86 0
83 137 88 0
88 137 141 0
88 87 82 0
88 82 83 0
90 92 85 0
90 85 84 0
139 86 143 0
86 92 143 0
86 85 92 0
86 139 138 0
141 142 88 0
142 146 94 0
142 94 89 0
88 142 89 0
87 88 89 0
94 93 89 0
97 99 91 0
99 148 91 0
91 148 90 0
148 144 90 0
144 92 90 0
92 144 143 0
146 147 94 0
147 152 100 0
147 100 95 0
94 147 95 0
93 94 95 0
101 96 95 0
101 95 100 0
102 98 96 0
102 96 101 0
102 155 98 0
98 155 97 0
155 149 97 0
149 99 97 0
99 149 148 0
152 153 100 0
100 153 101 0
101 153 154 0
101 154 102 0
102 154 156 0
102 156 155 0
158 162 107 0
109 159 107 0
107 159 158 0
109 165 159 0
160 169 103 0
103 169 110 0
161 103 104 0
161 160 103 0
163 104 105 0
163 161 104 0
106 107 162 0
163 106 162 0
105 106 163 0
107 106 108 0
107 108 109 0
114 166 112 0
112 166 108 0
166 165 108 0
165 109 108 0
115 167 114 0
114 167 166 0
115 172 167 0
170 174 111 0
111 174 116 0
111 110 169 0
111 169 170 0
113 114 112 0
114 113 117 0
118 114 117 0
115 114 118 0
172 115 176 0
176 115 118 0
174 119 116 0
178 119 174 0
121 122 118 0
121 118 117 0
176 118 180 0
180 118 122 0
179 182 120 0
120 182 123 0
120 119 178 0
120 178 179 0
125 126 122 0
125 122 121 0
180 122 184 0
184 122 126 0
183 186 124 0
124 186 127 0
124 123 182 0
124 182 183 0
128 130 126 0
128 126 125 0
184 126 187 0
187 126 130 0
186 131 127 0
189 131 186 0
132 133 129 0
133 190 129 0
129 190 128 0
190 188 128 0
188 130 128 0
130 188 187 0
189 134 131 0
192 134 189 0
135 136 133 0
135 133 132 0
190 133 193 0
193 133 136 0
192 137 134 0
195 137 192 0
138 140 136 0
138 136 135 0
193 136 197 0
197 136 140 0
195 141 137 0
199 141 195 0
143 145 139 0
145 202 139 0
139 202 138 0
202 198 138 0
198 140 138 0
140 198 197 0
199 200 141 0
141 200 142 0
146 142 200 0
146 200 204 0
148 150 144 0
145 143 144 0
150 145 144 0
151 145 150 0
202 145 207 0
207 145 151 0
204 205 146 0
146 205 147 0
152 147 205 0
152 205 210 0
155 157 149 0
157 214 149 0
149 214 148 0
214 206 148 0
206 150 148 0
150 206 151 0
151 206 208 0
151 208 207 0
210 211 152 0
152 211 153 0
153 212 154 0
211 212 153 0
154 213 156 0
212 213 154 0
155 156 157 0
156 215 157 0
156 213 215 0
157 215 214 0
221 227 164 0
162 158 164 0
158 221 164 0
158 222 221 0
224 158 159 0
224 222 158 0
159 165 224 0
224 165 229 0
226 230 168 0
168 233 226 0
171 169 160 0
171 160 236 0
160 228 236 0
160 161 228 0
163 164 227 0
228 163 227 0
161 163 228 0
164 163 162 0
231 229 165 0
231 165 166 0
167 168 230 0
231 167 230 0
166 167 231 0
173 234 172 0
172 234 167 0
234 233 167 0
233 168 167 0
173 238 234 0
175 174 170 0
240 175 170 0
240 170 169 0
237 240 169 0
171 237 169 0
237 171 236 0
176 177 173 0
176 173 172 0
238 173 242 0
242 173 177 0
241 244 175 0
244 174 175 0
244 178 174 0
241 175 240 0
180 181 177 0
180 177 176 0
242 177 246 0
246 177 181 0
245 247 179 0
179 247 182 0
179 178 244 0
179 244 245 0
184 185 181 0
184 181 180 0
246 181 250 0
250 181 185 0
248 253 183 0
183 253 186 0
183 182 247 0
183 247 248 0
255 251 185 0
184 255 185 0
187 255 184 0
185 251 250 0
253 189 186 0
258 189 253 0
190 191 188 0
191 260 188 0
260 187 188 0
260 255 187 0
258 192 189 0
262 192 258 0
193 194 191 0
193 191 190 0
260 191 265 0
265 191 194 0
196 195 263 0
195 262 263 0
195 192 262 0
267 196 263 0
268 266 194 0
193 268 194 0
197 268 193 0
194 266 265 0
201 199 196 0
196 199 195 0
196 267 269 0
196 269 201 0
202 203 198 0
203 271 198 0
271 197 198 0
271 268 197 0
201 200 199 0
204 200 201 0
269 204 201 0
273 204 269 0
207 209 203 0
207 203 202 0
271 203 276 0
276 203 209 0
273 274 204 0
204 274 205 0
210 205 274 0
210 274 279 0
214 216 206 0
217 208 206 0
217 206 216 0
217 283 208 0
208 283 207 0
283 277 207 0
277 209 207 0
209 277 276 0
279 280 210 0
210 280 211 0
280 286 218 0
212 280 218 0
211 280 212 0
219 213 212 0
219 212 218 0
220 215 213 0
220 213 219 0
220 290 215 0
215 290 214 0
290 282 214 0
282 216 214 0
216 282 217 0
217 282 284 0
217 284 283 0
286 287 218 0
218 287 219 0
219 287 289 0
219 289 220 0
220 289 291 0
220 291 290 0
293 295 223 0
225 294 223 0
223 294 293 0
225 298 294 0
296 304 221 0
221 304 227 0
222 223 295 0
296 222 295 0
221 222 296 0
223 222 224 0
223 224 225 0
232 299 229 0
229 299 224 0
299 298 224 0
298 225 224 0
230 226 232 0
226 299 232 0
226 300 299 0
235 302 233 0
302 226 233 0
302 300 226 0
235 307 302 0
305 310 228 0
228 310 236 0
228 227 304 0
228 304 305 0
231 232 229 0
232 231 230 0
234 235 233 0
239 308 238 0
238 308 234 0
308 307 234 0
307 235 234 0
239 313 308 0
311 315 237 0
237 315 240 0
237 236 310 0
237 310 311 0
242 243 239 0
242 239 238 0
313 239 318 0
318 239 243 0
316 321 241 0
241 321 244 0
241 240 315 0
241 315 316 0
323 319 243 0
242 323 243 0
246 323 242 0
243 319 318 0
249 247 245 0
326 249 245 0
244 326 245 0
321 326 244 0
250 252 324 0
323 250 324 0
246 250 323 0
252 329 324 0
254 253 248 0
331 254 248 0
331 248 247 0
327 331 247 0
249 327 247 0
327 249 326 0
255 256 251 0
252 250 251 0
256 252 251 0
257 252 256 0
329 252 333 0
333 252 257 0
259 258 254 0
254 258 253 0
254 331 336 0
254 336 259 0
260 261 256 0
260 256 255 0
334 257 338 0
257 261 338 0
257 256 261 0
257 334 333 0
264 262 259 0
259 262 258 0
259 336 341 0
259 341 264 0
343 339 261 0
260 343 261 0
265 343 260 0
261 339 338 0
264 263 262 0
267 263 264 0
341 267 264 0
347 267 341 0
350 344 266 0
350 266 268 0
265 266 343 0
343 266 344 0
270 269 348 0
269 347 348 0
269 267 347 0
353 270 348 0
355 351 272 0
351 350 272 0
350 271 272 0
350 268 271 0
275 273 270 0
270 273 269 0
270 353 358 0
270 358 275 0
355 272 278 0
355 278 361 0
276 278 271 0
271 278 272 0
275 274 273 0
359 281 279 0
359 279 274 0
358 359 274 0
275 358 274 0
364 281 359 0
368 362 285 0
285 362 361 0
285 361 278 0
283 285 278 0
277 283 278 0
277 278 276 0
281 280 279 0
365 288 286 0
365 286 280 0
364 365 280 0
281 364 280 0
371 288 365 0
372 367 292 0
282 290 292 0
367 282 292 0
369 282 367 0
285 284 368 0
284 369 368 0
284 282 369 0
284 285 283 0
288 287 286 0
371 373 288 0
373 287 288 0
373 289 287 0
292 291 372 0
291 373 372 0
291 289 373 0
291 292 290 0
297 295 293 0
297 293 379 0
293 376 379 0
293 294 376 0
294 298 376 0
376 298 381 0
377 382 301 0
303 378 301 0
301 378 377 0
303 385 378 0
306 304 296 0
388 306 296 0
388 296 295 0
380 388 295 0
297 380 295 0
380 297 379 0
383 381 298 0
383 298 299 0
300 301 382 0
383 300 382 0
299 300 383 0
301 300 302 0
301 302 303 0
309 386 307 0
307 386 302 0
386 385 302 0
385 303 302 0
309 390 386 0
312 310 305 0
393 312 305 0
393 305 304 0
389 393 304 0
306 389 304 0
389 306 388 0
308 309 307 0
314 391 313 0
313 391 308 0
391 390 308 0
390 309 308 0
314 395 391 0
317 315 311 0
396 317 311 0
396 311 310 0
394 396 310 0
312 394 310 0
394 312 393 0
318 320 314 0
318 314 313 0
395 314 399 0
399 314 320 0
322 321 316 0
402 322 316 0
402 316 315 0
397 402 315 0
317 397 315 0
397 317 396 0
323 325 319 0
325 404 319 0
319 404 318 0
404 400 318 0
400 320 318 0
320 400 399 0
328 326 322 0
322 326 321 0
322 402 407 0
322 407 328 0
324 325 323 0
330 405 329 0
329 405 324 0
405 404 324 0
404 325 324 0
330 409 405 0
332 331 327 0
410 332 327 0
410 327 326 0
408 410 326 0
328 408 326 0
408 328 407 0
333 335 330 0
333 330 329 0
409 330 412 0
412 330 335 0
337 336 332 0
332 336 331 0
332 410 415 0
332 415 337 0
338 340 334 0
340 417 334 0
334 417 333 0
417 413 333 0
413 335 333 0
335 413 412 0
342 341 337 0
337 341 336 0
337 415 419 0
337 419 342 0
343 345 339 0
340 338 339 0
345 340 339 0
346 340 345 0
417 340 422 0
422 340 346 0
349 347 342 0
342 347 341 0
342 419 425 0
342 425 349 0
350 352 344 0
352 429 344 0
344 429 343 0
429 421 343 0
421 345 343 0
345 421 346 0
346 421 423 0
346 423 422 0
349 348 347 0
426 354 353 0
426 353 348 0
425 426 348 0
349 425 348 0
432 354 426 0
355 356 351 0
352 350 351 0
356 352 351 0
357 352 356 0
429 352 434 0
434 352 357 0
360 358 354 0
354 358 353 0
354 432 437 0
354 437 360 0
361 363 356 0
361 356 355 0
435 357 441 0
357 363 441 0
357 356 363 0
357 435 434 0
360 359 358 0
438 366 364 0
438 364 359 0
437 438 359 0
360 437 359 0
444 366 438 0
368 370 362 0
370 449 362 0
362 449 361 0
449 442 361 0
442 363 361 0
363 442 441 0
366 365 364 0
445 374 371 0
445 371 365 0
444 445 365 0
366 444 365 0
367 372 374 0
445 367 374 0
447 367 445 0
447 452 375 0
369 447 375 0
367 447 369 0
375 453 369 0
369 453 368 0
453 450 368 0
450 370 368 0
370 450 449 0
374 373 371 0
373 374 372 0
452 454 375 0
375 454 453 0
456 459 376 0
376 459 379 0
376 381 456 0
456 381 461 0
384 382 377 0
384 377 464 0
377 457 464 0
377 378 457 0
387 458 385 0
458 378 385 0
458 457 378 0
387 467 458 0
460 470 380 0
380 470 388 0
380 379 459 0
380 459 460 0
463 461 381 0
463 381 383 0
383 382 384 0
465 383 384 0
463 383 465 0
465 384 464 0
386 387 385 0
392 469 390 0
390 469 386 0
469 467 386 0
467 387 386 0
392 474 469 0
471 476 389 0
389 476 393 0
389 388 470 0
389 470 471 0
391 392 390 0
391 395 392 0
395 474 392 0
395 478 474 0
398 396 394 0
480 398 394 0
393 480 394 0
476 480 393 0
399 401 479 0
478 399 479 0
395 399 478 0
401 483 479 0
403 402 397 0
485 403 397 0
485 397 396 0
481 485 396 0
398 481 396 0
481 398 480 0
404 406 400 0
406 488 400 0
400 488 399 0
488 484 399 0
484 401 399 0
401 484 483 0
486 489 403 0
489 402 403 0
489 407 402 0
486 403 485 0
405 406 404 0
405 409 406 0
409 488 406 0
409 491 488 0
411 410 408 0
494 411 408 0
407 494 408 0
489 494 407 0
412 414 492 0
491 412 492 0
409 412 491 0
414 496 492 0
416 415 411 0
411 415 410 0
411 494 498 0
411 498 416 0
417 418 413 0
418 500 413 0
413 500 412 0
500 497 412 0
497 414 412 0
414 497 496 0
420 419 416 0
416 419 415 0
416 498 502 0
416 502 420 0
422 424 418 0
422 418 417 0
500 418 505 0
505 418 424 0
427 425 420 0
420 425 419 0
420 502 503 0
428 420 503 0
427 420 428 0
507 428 503 0
429 430 421 0
431 423 421 0
431 421 430 0
431 509 423 0
423 509 422 0
509 506 422 0
506 424 422 0
424 506 505 0
427 426 425 0
426 427 432 0
427 433 432 0
427 428 433 0
428 507 511 0
428 511 433 0
434 436 430 0
434 430 429 0
510 431 514 0
431 436 514 0
431 430 436 0
431 510 509 0
439 437 433 0
433 437 432 0
433 511 512 0
440 433 512 0
439 433 440 0
516 440 512 0
441 443 435 0
443 519 435 0
435 519 434 0
519 515 434 0
515 436 434 0
436 515 514 0
439 438 437 0
438 439 444 0
439 446 444 0
439 440 446 0
440 516 517 0
448 440 517 0
446 440 448 0
521 448 517 0
449 451 442 0
451 526 442 0
442 526 441 0
526 520 441 0
520 443 441 0
443 520 519 0
446 445 444 0
445 446 447 0
447 446 448 0
522 455 452 0
522 452 447 0
521 522 447 0
448 521 447 0
450 453 455 0
522 450 455 0
524 450 522 0
449 450 451 0
450 527 451 0
450 524 527 0
451 527 526 0
455 454 452 0
454 455 453 0
462 459 456 0
461 462 456 0
466 464 457 0
458 468 457 0
457 468 466 0
467 468 458 0
472 470 460 0
532 472 460 0
532 460 459 0
528 532 459 0
462 528 459 0
534 528 473 0
473 528 463 0
528 462 463 0
462 461 463 0
473 463 536 0
463 529 536 0
463 465 529 0
465 464 466 0
530 465 466 0
529 465 530 0
530 466 468 0
530 468 531 0
539 531 475 0
475 531 469 0
531 468 469 0
468 467 469 0
474 475 469 0
477 476 471 0
541 477 471 0
541 471 470 0
533 541 470 0
472 533 470 0
533 472 532 0
537 534 473 0
537 473 536 0
540 539 475 0
475 474 540 0
474 544 540 0
474 478 544 0
482 480 477 0
477 480 476 0
477 541 546 0
477 546 482 0
545 544 478 0
545 478 479 0
479 483 545 0
545 483 549 0
487 485 481 0
552 487 481 0
552 481 480 0
547 552 480 0
482 547 480 0
547 482 546 0
555 550 484 0
555 484 488 0
483 484 549 0
549 484 550 0
490 489 486 0
557 490 486 0
557 486 485 0
553 557 485 0
487 553 485 0
553 487 552 0
491 493 556 0
555 491 556 0
488 491 555 0
493 560 556 0
495 494 490 0
490 494 489 0
490 557 561 0
490 561 495 0
492 493 491 0
492 496 493 0
496 560 493 0
496 564 560 0
499 498 495 0
495 498 494 0
495 561 566 0
495 566 499 0
500 501 497 0
501 569 497 0
569 496 497 0
569 564 496 0
504 502 499 0
499 502 498 0
499 566 572 0
499 572 504 0
576 570 501 0
500 576 501 0
505 576 500 0
501 570 569 0
504 503 502 0
573 508 507 0
573 507 503 0
572 573 503 0
504 572 503 0
579 508 573 0
581 577 506 0
581 506 509 0
505 506 576 0
576 506 577 0
513 511 508 0
508 511 507 0
508 579 584 0
508 584 513 0
587 582 510 0
587 510 514 0
509 510 581 0
581 510 582 0
513 512 511 0
585 518 516 0
585 516 512 0
584 585 512 0
513 584 512 0
589 518 585 0
594 588 515 0
594 515 519 0
514 515 587 0
587 515 588 0
518 517 516 0
590 523 521 0
590 521 517 0
589 590 517 0
518 589 517 0
592 525 523 0
592 523 590 0
596 525 592 0
597 595 520 0
597 520 526 0
519 520 594 0
594 520 595 0
523 522 521 0
522 523 524 0
524 523 525 0
596 598 525 0
598 524 525 0
598 527 524 0
526 527 597 0
597 527 598 0
535 532 528 0
534 535 528 0
538 536 529 0
538 529 603 0
529 600 603 0
529 530 600 0
601 530 531 0
601 600 530 0
531 539 601 0
601 539 606 0
542 541 533 0
532 535 533 0
535 542 533 0
535 543 542 0
543 535 534 0
602 543 534 0
537 602 534 0
609 543 602 0
537 536 538 0
604 537 538 0
602 537 604 0
604 538 603 0
608 606 539 0
608 539 540 0
540 544 608 0
608 544 613 0
548 546 542 0
542 546 541 0
543 610 615 0
548 543 615 0
542 543 548 0
610 543 609 0
544 545 551 0
619 544 551 0
613 544 619 0
549 551 545 0
554 552 547 0
621 554 547 0
621 547 546 0
616 621 546 0
548 616 546 0
616 548 615 0
619 551 550 0
555 619 550 0
624 619 555 0
550 551 549 0
558 557 553 0
552 554 553 0
554 558 553 0
554 559 558 0
554 621 627 0
554 627 559 0
626 624 555 0
626 555 556 0
556 560 626 0
626 560 630 0
562 561 558 0
558 561 557 0
563 558 559 0
562 558 563 0
559 627 632 0
559 632 563 0
564 565 631 0
630 564 631 0
560 564 630 0
565 634 631 0
567 566 562 0
562 566 561 0
568 562 563 0
567 562 568 0
563 632 635 0
563 635 568 0
569 571 565 0
569 565 564 0
634 565 637 0
637 565 571 0
574 572 567 0
567 572 566 0
575 567 568 0
574 567 575 0
568 635 640 0
568 640 575 0
576 578 570 0
578 642 570 0
570 642 569 0
642 638 569 0
638 571 569 0
571 638 637 0
574 573 572 0
573 574 579 0
574 580 579 0
574 575 580 0
575 640 644 0
575 644 580 0
581 583 577 0
583 647 577 0
577 647 576 0
647 643 576 0
643 578 576 0
578 643 642 0
586 584 580 0
580 584 579 0
580 644 649 0
580 649 586 0
654 646 582 0
654 582 587 0
581 582 583 0
582 648 583 0
582 646 648 0
583 648 647 0
586 585 584 0
650 591 589 0
650 589 585 0
649 650 585 0
586 649 585 0
652 593 591 0
652 591 650 0
656 593 652 0
659 655 588 0
659 588 594 0
587 588 654 0
654 588 655 0
591 590 589 0
590 591 592 0
592 591 593 0
657 599 596 0
657 596 592 0
656 657 592 0
593 656 592 0
595 597 599 0
657 595 599 0
660 595 657 0
594 595 659 0
659 595 660 0
599 598 596 0
598 599 597 0
605 603 600 0
601 607 600 0
600 607 605 0
606 607 601 0
611 609 602 0
604 612 602 0
602 612 611 0
665 612 604 0
665 604 603 0
662 665 603 0
605 662 603 0
662 605 607 0
662 607 663 0
668 663 614 0
614 663 608 0
663 607 608 0
607 606 608 0
613 614 608 0
617 615 610 0
671 617 610 0
671 610 609 0
664 671 609 0
611 664 609 0
664 611 612 0
664 612 666 0
666 612 665 0
675 669 618 0
618 669 668 0
614 618 668 0
620 618 614 0
619 620 613 0
613 620 614 0
622 621 616 0
677 622 616 0
677 616 615 0
672 677 615 0
617 672 615 0
672 617 671 0
675 618 623 0
675 623 682 0
625 618 620 0
623 618 625 0
624 625 619 0
619 625 620 0
628 627 622 0
622 627 621 0
622 677 678 0
629 622 678 0
628 622 629 0
687 629 678 0
684 682 623 0
684 623 625 0
684 625 685 0
685 625 624 0
626 685 624 0
686 685 626 0
626 630 686 0
686 630 691 0
633 632 628 0
628 632 627 0
629 688 694 0
633 629 694 0
628 629 633 0
688 629 687 0
693 691 630 0
693 630 631 0
631 634 693 0
693 634 696 0
636 635 633 0
633 635 632 0
633 694 699 0
633 699 636 0
701 697 639 0
697 696 639 0
696 637 639 0
696 634 637 0
641 640 636 0
636 640 635 0
636 699 703 0
636 703 641 0
701 639 638 0
642 701 638 0
706 701 642 0
638 639 637 0
645 644 641 0
641 644 640 0
641 703 709 0
641 709 645 0
716 707 643 0
716 643 647 0
642 643 706 0
706 643 707 0
651 649 645 0
645 649 644 0
645 709 710 0
653 645 710 0
651 645 653 0
719 653 710 0
724 714 646 0
724 646 654 0
646 717 648 0
714 717 646 0
647 648 716 0
716 648 717 0
651 650 649 0
650 651 652 0
652 651 653 0
720 658 656 0
720 656 652 0
719 720 652 0
653 719 652 0
722 661 658 0
722 658 720 0
655 659 661 0
722 655 661 0
725 655 722 0
654 655 724 0
724 655 725 0
658 657 656 0
657 658 660 0
660 658 661 0
660 661 659 0
667 665 662 0
663 670 662 0
662 670 667 0
668 670 663 0
673 671 664 0
666 674 664 0
664 674 673 0
665 667 666 0
667 674 666 0
667 676 674 0
675 676 669 0
676 670 669 0
676 667 670 0
669 670 668 0
679 677 672 0
671 673 672 0
673 679 672 0
673 680 679 0
681 673 674 0
680 673 681 0
683 674 676 0
681 674 683 0
682 683 675 0
675 683 676 0
679 678 677 0
678 679 687 0
679 689 687 0
679 680 689 0
681 727 730 0
689 681 730 0
680 681 689 0
727 681 683 0
727 683 728 0
728 683 682 0
684 728 682 0
729 728 684 0
734 729 690 0
729 685 690 0
729 684 685 0
686 692 685 0
685 692 690 0
691 692 686 0
695 694 688 0
738 695 688 0
738 688 687 0
731 738 687 0
689 731 687 0
731 689 730 0
736 734 690 0
736 690 692 0
736 692 737 0
742 737 698 0
698 737 693 0
737 692 693 0
692 691 693 0
696 698 693 0
700 699 695 0
695 699 694 0
695 738 745 0
695 745 700 0
751 743 702 0
702 743 742 0
702 742 698 0
701 702 698 0
697 701 698 0
697 698 696 0
704 703 700 0
700 703 699 0
700 745 746 0
705 700 746 0
704 700 705 0
753 705 746 0
751 702 708 0
751 708 759 0
706 708 701 0
701 708 702 0
711 709 704 0
704 709 703 0
712 704 705 0
711 704 712 0
705 753 754 0
713 705 754 0
712 705 713 0
762 713 754 0
763 757 715 0
760 718 715 0
760 715 757 0
718 760 759 0
718 759 708 0
716 718 708 0
707 716 708 0
707 708 706 0
711 710 709 0
710 711 719 0
711 721 719 0
711 712 721 0
723 712 713 0
721 712 723 0
713 762 764 0
726 713 764 0
723 713 726 0
726 764 763 0
726 763 715 0
724 726 715 0
714 724 715 0
714 715 717 0
717 715 718 0
717 718 716 0
721 720 719 0
720 721 722 0
722 721 723 0
722 723 725 0
725 723 726 0
725 726 724 0
732 730 727 0
728 733 727 0
727 733 732 0
729 735 728 0
728 735 733 0
734 735 729 0
739 738 731 0
730 732 731 0
732 739 731 0
732 740 739 0
733 766 768 0
740 733 768 0
732 733 740 0
766 733 735 0
766 735 767 0
771 767 741 0
741 767 736 0
767 735 736 0
735 734 736 0
737 744 736 0
736 744 741 0
742 744 737 0
747 745 739 0
739 745 738 0
748 739 740 0
747 739 748 0
740 768 769 0
749 740 769 0
748 740 749 0
772 750 749 0
772 749 769 0
750 772 771 0
741 750 771 0
752 750 741 0
751 752 743 0
752 744 743 0
752 741 744 0
743 744 742 0
747 746 745 0
746 747 753 0
747 755 753 0
747 748 755 0
756 748 749 0
755 748 756 0
758 749 750 0
756 749 758 0
