#!ascii version in FreeSurfer format (SUMA)
644 1284
-4.943474  -54.570175  -29.763847  0
-4.443474  -54.570175  -29.763847  0
-5.943474  -53.570175  -29.263847  0
-5.443474  -53.570175  -29.263847  0
-4.943474  -53.570175  -29.263847  0
-5.943474  -54.070175  -29.263847  0
-5.443474  -54.070175  -29.263847  0
-4.943474  -54.320175  -29.513847  0
-4.943474  -54.070175  -29.263847  0
-4.443474  -54.320175  -29.513847  0
-4.443474  -54.070175  -29.263847  0
-5.193474  -54.570175  -29.513847  0
-5.443474  -54.570175  -29.263847  0
-4.943474  -54.820175  -29.513847  0
-4.193474  -54.570175  -29.513847  0
-4.443474  -54.820175  -29.513847  0
-4.943474  -55.070175  -29.263847  0
-4.443474  -55.070175  -29.263847  0
-4.943474  -55.570175  -29.263847  0
-4.443474  -55.570175  -29.263847  0
-5.443474  -56.570175  -29.263847  0
-4.943474  -56.570175  -29.263847  0
-4.443474  -56.570175  -29.263847  0
-4.443474  -57.070175  -29.263847  0
-5.943474  -53.320175  -29.013847  0
-5.443474  -53.320175  -29.013847  0
-5.443474  -53.070175  -28.763847  0
-4.943474  -53.320175  -29.013847  0
-6.193474  -53.570175  -29.013847  0
-6.443474  -53.570175  -28.763847  0
-4.693474  -53.570175  -29.013847  0
-4.443474  -53.820175  -29.013847  0
-6.943474  -54.070175  -28.763847  0
-6.193474  -54.070175  -29.013847  0
-6.443474  -54.070175  -28.763847  0
-5.943474  -54.320175  -29.013847  0
-4.193474  -54.070175  -29.013847  0
-6.943474  -54.570175  -28.763847  0
-6.443474  -54.570175  -28.763847  0
-5.693474  -54.570175  -29.013847  0
-5.943474  -54.570175  -28.763847  0
-5.443474  -54.820175  -29.013847  0
-4.193474  -54.570175  -29.013847  0
-3.943474  -54.570175  -28.763847  0
-6.443474  -55.070175  -28.763847  0
-5.943474  -55.070175  -28.763847  0
-5.193474  -55.070175  -29.013847  0
-5.443474  -55.070175  -28.763847  0
-4.193474  -55.070175  -29.013847  0
-3.943474  -55.070175  -28.763847  0
-6.443474  -55.570175  -28.763847  0
-5.943474  -55.570175  -28.763847  0
-5.193474  -55.570175  -29.013847  0
-5.443474  -55.570175  -28.763847  0
-4.943474  -55.820175  -29.013847  0
-4.193474  -55.570175  -29.013847  0
-4.443474  -55.820175  -29.013847  0
-3.943474  -55.570175  -28.763847  0
-6.443474  -56.070175  -28.763847  0
-5.443474  -56.320175  -29.013847  0
-5.443474  -56.070175  -28.763847  0
-4.943474  -56.320175  -29.013847  0
-4.943474  -56.070175  -28.763847  0
-4.443474  -56.320175  -29.013847  0
-4.443474  -56.070175  -28.763847  0
-3.943474  -56.070175  -28.763847  0
-5.693474  -56.570175  -29.013847  0
-5.443474  -56.820175  -29.013847  0
-4.943474  -56.820175  -29.013847  0
-4.193474  -56.570175  -29.013847  0
-3.943474  -56.570175  -28.763847  0
-5.443474  -57.070175  -28.763847  0
-4.693474  -57.070175  -29.013847  0
-4.943474  -57.070175  -28.763847  0
-4.193474  -57.070175  -29.013847  0
-4.443474  -57.320175  -29.013847  0
-3.943474  -57.070175  -28.763847  0
-5.443474  -57.570175  -28.763847  0
-4.943474  -57.570175  -28.763847  0
-4.443474  -57.570175  -28.763847  0
-4.943474  -58.070175  -28.763847  0
-5.443474  -52.820175  -28.513847  0
-6.443474  -53.320175  -28.513847  0
-6.443474  -53.070175  -28.263847  0
-5.693474  -53.070175  -28.513847  0
-5.943474  -53.320175  -28.513847  0
-5.943474  -53.070175  -28.263847  0
-5.193474  -53.070175  -28.513847  0
-4.943474  -53.320175  -28.513847  0
-6.693474  -53.570175  -28.513847  0
-6.943474  -53.820175  -28.513847  0
-6.943474  -53.570175  -28.263847  0
-4.693474  -53.570175  -28.513847  0
-4.443474  -53.820175  -28.513847  0
-4.443474  -53.570175  -28.263847  0
-7.943474  -54.070175  -28.263847  0
-7.193474  -54.070175  -28.513847  0
-7.443474  -54.070175  -28.263847  0
-4.193474  -54.070175  -28.513847  0
-3.943474  -54.320175  -28.513847  0
-7.943474  -54.570175  -28.263847  0
-7.193474  -54.570175  -28.513847  0
-7.443474  -54.570175  -28.263847  0
-6.943474  -54.820175  -28.513847  0
-3.693474  -54.570175  -28.513847  0
-6.693474  -55.070175  -28.513847  0
-6.943474  -55.070175  -28.263847  0
-3.693474  -55.070175  -28.513847  0
-6.693474  -55.570175  -28.513847  0
-6.943474  -55.570175  -28.263847  0
-5.943474  -55.820175  -28.513847  0
-3.693474  -55.570175  -28.513847  0
-6.693474  -56.070175  -28.513847  0
-6.193474  -56.070175  -28.513847  0
-6.443474  -56.320175  -28.513847  0
-5.693474  -56.070175  -28.513847  0
-5.943474  -56.070175  -28.263847  0
-3.693474  -56.070175  -28.513847  0
-6.443474  -56.570175  -28.263847  0
-5.693474  -56.570175  -28.513847  0
-5.943474  -56.570175  -28.263847  0
-3.693474  -56.570175  -28.513847  0
-6.443474  -57.070175  -28.263847  0
-5.693474  -57.070175  -28.513847  0
-5.943474  -57.070175  -28.263847  0
-3.693474  -57.070175  -28.513847  0
-3.943474  -57.320175  -28.513847  0
-5.693474  -57.570175  -28.513847  0
-5.943474  -57.570175  -28.263847  0
-5.443474  -57.820175  -28.513847  0
-4.193474  -57.570175  -28.513847  0
-4.443474  -57.820175  -28.513847  0
-3.943474  -57.570175  -28.263847  0
-5.193474  -58.070175  -28.513847  0
-5.443474  -58.070175  -28.263847  0
-4.693474  -58.070175  -28.513847  0
-4.943474  -58.320175  -28.513847  0
-4.443474  -58.070175  -28.263847  0
-6.443474  -52.820175  -28.013847  0
-5.943474  -52.820175  -28.013847  0
-5.443474  -52.820175  -28.013847  0
-6.693474  -53.070175  -28.013847  0
-6.943474  -53.320175  -28.013847  0
-6.943474  -53.070175  -27.763847  0
-5.193474  -53.070175  -28.013847  0
-4.943474  -53.320175  -28.013847  0
-4.943474  -53.070175  -27.763847  0
-4.443474  -53.320175  -28.013847  0
-7.943474  -53.820175  -28.013847  0
-7.943474  -53.570175  -27.763847  0
-7.193474  -53.570175  -28.013847  0
-7.443474  -53.820175  -28.013847  0
-7.443474  -53.570175  -27.763847  0
-4.193474  -53.570175  -28.013847  0
-8.193474  -54.070175  -28.013847  0
-4.193474  -54.070175  -28.013847  0
-3.943474  -54.320175  -28.013847  0
-8.193474  -54.570175  -28.013847  0
-8.443474  -54.570175  -27.763847  0
-7.943474  -54.820175  -28.013847  0
-7.443474  -54.820175  -28.013847  0
-3.693474  -54.570175  -28.013847  0
-3.943474  -54.570175  -27.763847  0
-7.943474  -55.070175  -27.763847  0
-7.193474  -55.070175  -28.013847  0
-7.443474  -55.070175  -27.763847  0
-3.693474  -55.070175  -28.013847  0
-7.943474  -55.570175  -27.763847  0
-7.193474  -55.570175  -28.013847  0
-7.443474  -55.570175  -27.763847  0
-6.943474  -55.820175  -28.013847  0
-3.693474  -55.570175  -28.013847  0
-7.443474  -56.070175  -27.763847  0
-6.693474  -56.070175  -28.013847  0
-6.943474  -56.070175  -27.763847  0
-3.693474  -56.070175  -28.013847  0
-6.693474  -56.570175  -28.013847  0
-6.943474  -56.570175  -27.763847  0
-3.693474  -56.570175  -28.013847  0
-3.943474  -56.570175  -27.763847  0
-6.693474  -57.070175  -28.013847  0
-6.943474  -57.070175  -27.763847  0
-6.443474  -57.320175  -28.013847  0
-3.693474  -57.070175  -28.013847  0
-6.193474  -57.570175  -28.013847  0
-6.443474  -57.570175  -27.763847  0
-5.943474  -57.820175  -28.013847  0
-3.693474  -57.570175  -28.013847  0
-3.943474  -57.820175  -28.013847  0
-5.693474  -58.070175  -28.013847  0
-5.943474  -58.070175  -27.763847  0
-5.443474  -58.320175  -28.013847  0
-4.943474  -58.320175  -28.013847  0
-4.193474  -58.070175  -28.013847  0
-4.443474  -58.320175  -28.013847  0
-5.943474  -58.570175  -27.763847  0
-5.443474  -58.570175  -27.763847  0
-6.943474  -52.820175  -27.513847  0
-6.443474  -52.820175  -27.513847  0
-5.943474  -52.820175  -27.513847  0
-5.443474  -52.820175  -27.513847  0
-4.943474  -52.820175  -27.513847  0
-7.943474  -53.320175  -27.513847  0
-7.193474  -53.070175  -27.513847  0
-7.443474  -53.320175  -27.513847  0
-7.443474  -53.070175  -27.263847  0
-4.693474  -53.070175  -27.513847  0
-4.943474  -53.070175  -27.263847  0
-4.443474  -53.320175  -27.513847  0
-8.193474  -53.570175  -27.513847  0
-4.193474  -53.570175  -27.513847  0
-4.443474  -53.570175  -27.263847  0
-8.193474  -54.070175  -27.513847  0
-8.443474  -54.320175  -27.513847  0
-8.443474  -54.070175  -27.263847  0
-4.193474  -54.070175  -27.513847  0
-8.693474  -54.570175  -27.513847  0
-8.443474  -54.820175  -27.513847  0
-4.193474  -54.570175  -27.513847  0
-3.943474  -54.820175  -27.513847  0
-8.193474  -55.070175  -27.513847  0
-8.443474  -55.070175  -27.263847  0
-3.693474  -55.070175  -27.513847  0
-3.943474  -55.070175  -27.263847  0
-8.193474  -55.570175  -27.513847  0
-8.443474  -55.570175  -27.263847  0
-7.943474  -55.820175  -27.513847  0
-3.693474  -55.570175  -27.513847  0
-3.943474  -55.570175  -27.263847  0
-7.693474  -56.070175  -27.513847  0
-7.943474  -56.070175  -27.263847  0
-7.443474  -56.320175  -27.513847  0
-3.693474  -56.070175  -27.513847  0
-3.943474  -56.320175  -27.513847  0
-7.943474  -56.570175  -27.263847  0
-7.193474  -56.570175  -27.513847  0
-7.443474  -56.570175  -27.263847  0
-4.193474  -56.570175  -27.513847  0
-3.943474  -56.820175  -27.513847  0
-7.193474  -57.070175  -27.513847  0
-7.443474  -57.070175  -27.263847  0
-6.943474  -57.320175  -27.513847  0
-3.693474  -57.070175  -27.513847  0
-3.943474  -57.070175  -27.263847  0
-6.693474  -57.570175  -27.513847  0
-6.943474  -57.570175  -27.263847  0
-6.443474  -57.820175  -27.513847  0
-3.693474  -57.570175  -27.513847  0
-3.943474  -57.820175  -27.513847  0
-3.943474  -57.570175  -27.263847  0
-6.943474  -58.070175  -27.263847  0
-6.193474  -58.070175  -27.513847  0
-6.443474  -58.070175  -27.263847  0
-4.943474  -58.320175  -27.513847  0
-4.193474  -58.070175  -27.513847  0
-4.443474  -58.320175  -27.513847  0
-4.443474  -58.070175  -27.263847  0
-6.193474  -58.570175  -27.513847  0
-6.443474  -58.570175  -27.263847  0
-5.943474  -58.820175  -27.513847  0
-5.193474  -58.570175  -27.513847  0
-5.443474  -58.820175  -27.513847  0
-7.443474  -52.820175  -27.013847  0
-6.943474  -52.820175  -27.013847  0
-6.443474  -52.820175  -27.013847  0
-5.943474  -52.820175  -27.013847  0
-5.443474  -52.820175  -27.013847  0
-7.693474  -53.070175  -27.013847  0
-7.943474  -53.320175  -27.013847  0
-5.193474  -53.070175  -27.013847  0
-5.443474  -53.070175  -26.763847  0
-4.943474  -53.320175  -27.013847  0
-8.193474  -53.570175  -27.013847  0
-8.443474  -53.820175  -27.013847  0
-8.443474  -53.570175  -26.763847  0
-4.693474  -53.570175  -27.013847  0
-4.943474  -53.570175  -26.763847  0
-4.443474  -53.820175  -27.013847  0
-8.693474  -54.070175  -27.013847  0
-4.193474  -54.070175  -27.013847  0
-4.443474  -54.070175  -26.763847  0
-8.693474  -54.570175  -27.013847  0
-4.193474  -54.570175  -27.013847  0
-4.443474  -54.570175  -26.763847  0
-8.693474  -55.070175  -27.013847  0
-4.193474  -55.070175  -27.013847  0
-8.693474  -55.570175  -27.013847  0
-8.443474  -55.820175  -27.013847  0
-4.193474  -55.570175  -27.013847  0
-4.443474  -55.570175  -26.763847  0
-3.943474  -55.820175  -27.013847  0
-8.193474  -56.070175  -27.013847  0
-8.443474  -56.070175  -26.763847  0
-3.693474  -56.070175  -27.013847  0
-3.943474  -56.320175  -27.013847  0
-3.943474  -56.070175  -26.763847  0
-8.193474  -56.570175  -27.013847  0
-7.943474  -56.820175  -27.013847  0
-4.193474  -56.570175  -27.013847  0
-4.443474  -56.570175  -26.763847  0
-7.693474  -57.070175  -27.013847  0
-7.943474  -57.070175  -26.763847  0
-7.443474  -57.320175  -27.013847  0
-4.193474  -57.070175  -27.013847  0
-4.443474  -57.070175  -26.763847  0
-7.193474  -57.570175  -27.013847  0
-7.443474  -57.570175  -26.763847  0
-4.193474  -57.570175  -27.013847  0
-4.443474  -57.820175  -27.013847  0
-4.443474  -57.570175  -26.763847  0
-7.193474  -58.070175  -27.013847  0
-6.943474  -58.320175  -27.013847  0
-4.693474  -58.070175  -27.013847  0
-4.943474  -58.320175  -27.013847  0
-4.943474  -58.070175  -26.763847  0
-6.693474  -58.570175  -27.013847  0
-6.443474  -58.820175  -27.013847  0
-5.943474  -58.820175  -27.013847  0
-5.193474  -58.570175  -27.013847  0
-5.443474  -58.820175  -27.013847  0
-7.443474  -52.820175  -26.513847  0
-6.943474  -52.820175  -26.513847  0
-6.443474  -52.820175  -26.513847  0
-5.943474  -52.820175  -26.513847  0
-8.443474  -53.320175  -26.513847  0
-7.693474  -53.070175  -26.513847  0
-7.943474  -53.320175  -26.513847  0
-5.693474  -53.070175  -26.513847  0
-5.943474  -53.070175  -26.263847  0
-5.443474  -53.320175  -26.513847  0
-8.693474  -53.570175  -26.513847  0
-5.193474  -53.570175  -26.513847  0
-5.443474  -53.570175  -26.263847  0
-4.943474  -53.820175  -26.513847  0
-8.693474  -54.070175  -26.513847  0
-5.443474  -54.070175  -26.263847  0
-4.693474  -54.070175  -26.513847  0
-4.943474  -54.070175  -26.263847  0
-8.693474  -54.570175  -26.513847  0
-8.943474  -54.570175  -26.263847  0
-5.443474  -54.570175  -26.263847  0
-4.693474  -54.570175  -26.513847  0
-4.943474  -54.570175  -26.263847  0
-4.443474  -54.820175  -26.513847  0
-8.693474  -55.070175  -26.513847  0
-8.943474  -55.070175  -26.263847  0
-4.193474  -55.070175  -26.513847  0
-4.443474  -55.320175  -26.513847  0
-4.443474  -55.070175  -26.263847  0
-8.693474  -55.570175  -26.513847  0
-8.943474  -55.570175  -26.263847  0
-4.693474  -55.570175  -26.513847  0
-4.943474  -55.570175  -26.263847  0
-4.443474  -55.820175  -26.513847  0
-8.693474  -56.070175  -26.513847  0
-8.443474  -56.320175  -26.513847  0
-4.193474  -56.070175  -26.513847  0
-4.443474  -56.320175  -26.513847  0
-4.443474  -56.070175  -26.263847  0
-8.193474  -56.570175  -26.513847  0
-8.443474  -56.570175  -26.263847  0
-4.693474  -56.570175  -26.513847  0
-4.943474  -56.570175  -26.263847  0
-8.193474  -57.070175  -26.513847  0
-7.943474  -57.320175  -26.513847  0
-4.693474  -57.070175  -26.513847  0
-4.943474  -57.070175  -26.263847  0
-7.693474  -57.570175  -26.513847  0
-7.943474  -57.570175  -26.263847  0
-7.443474  -57.820175  -26.513847  0
-4.693474  -57.570175  -26.513847  0
-4.943474  -57.820175  -26.513847  0
-4.943474  -57.570175  -26.263847  0
-7.193474  -58.070175  -26.513847  0
-7.443474  -58.070175  -26.263847  0
-6.943474  -58.320175  -26.513847  0
-5.193474  -58.070175  -26.513847  0
-5.443474  -58.070175  -26.263847  0
-6.693474  -58.570175  -26.513847  0
-6.943474  -58.570175  -26.263847  0
-6.443474  -58.820175  -26.513847  0
-5.943474  -58.820175  -26.513847  0
-5.193474  -58.570175  -26.513847  0
-5.443474  -58.820175  -26.513847  0
-5.443474  -58.570175  -26.263847  0
-7.443474  -52.820175  -26.013847  0
-6.943474  -52.820175  -26.013847  0
-6.443474  -52.820175  -26.013847  0
-8.443474  -53.320175  -26.013847  0
-7.693474  -53.070175  -26.013847  0
-7.943474  -53.320175  -26.013847  0
-7.443474  -53.070175  -25.763847  0
-6.943474  -53.070175  -25.763847  0
-6.193474  -53.070175  -26.013847  0
-6.443474  -53.070175  -25.763847  0
-5.943474  -53.320175  -26.013847  0
-8.693474  -53.570175  -26.013847  0
-8.443474  -53.570175  -25.763847  0
-5.693474  -53.570175  -26.013847  0
-5.943474  -53.570175  -25.763847  0
-8.693474  -54.070175  -26.013847  0
-8.943474  -54.320175  -26.013847  0
-5.693474  -54.070175  -26.013847  0
-5.943474  -54.070175  -25.763847  0
-9.193474  -54.570175  -26.013847  0
-5.693474  -54.570175  -26.013847  0
-5.943474  -54.570175  -25.763847  0
-5.443474  -54.820175  -26.013847  0
-4.943474  -54.820175  -26.013847  0
-9.193474  -55.070175  -26.013847  0
-5.443474  -55.070175  -25.763847  0
-4.693474  -55.070175  -26.013847  0
-4.943474  -55.320175  -26.013847  0
-4.943474  -55.070175  -25.763847  0
-9.193474  -55.570175  -26.013847  0
-9.443474  -55.570175  -25.763847  0
-8.943474  -55.820175  -26.013847  0
-5.193474  -55.570175  -26.013847  0
-5.443474  -55.570175  -25.763847  0
-4.943474  -55.820175  -26.013847  0
-8.693474  -56.070175  -26.013847  0
-8.943474  -56.070175  -25.763847  0
-5.443474  -56.070175  -25.763847  0
-4.693474  -56.070175  -26.013847  0
-4.943474  -56.320175  -26.013847  0
-4.943474  -56.070175  -25.763847  0
-8.693474  -56.570175  -26.013847  0
-8.443474  -56.820175  -26.013847  0
-5.193474  -56.570175  -26.013847  0
-8.193474  -57.070175  -26.013847  0
-5.193474  -57.070175  -26.013847  0
-8.193474  -57.570175  -26.013847  0
-7.943474  -57.820175  -26.013847  0
-5.193474  -57.570175  -26.013847  0
-5.443474  -57.820175  -26.013847  0
-5.443474  -57.570175  -25.763847  0
-7.693474  -58.070175  -26.013847  0
-7.443474  -58.320175  -26.013847  0
-5.693474  -58.070175  -26.013847  0
-7.193474  -58.570175  -26.013847  0
-6.943474  -58.820175  -26.013847  0
-6.443474  -58.820175  -26.013847  0
-5.693474  -58.570175  -26.013847  0
-5.943474  -58.820175  -26.013847  0
-5.943474  -58.570175  -25.763847  0
-7.943474  -53.320175  -25.513847  0
-7.443474  -53.320175  -25.513847  0
-6.943474  -53.320175  -25.513847  0
-6.443474  -53.320175  -25.513847  0
-8.193474  -53.570175  -25.513847  0
-8.443474  -53.820175  -25.513847  0
-7.943474  -53.570175  -25.263847  0
-6.943474  -53.570175  -25.263847  0
-6.193474  -53.570175  -25.513847  0
-6.443474  -53.570175  -25.263847  0
-8.693474  -54.070175  -25.513847  0
-8.943474  -54.320175  -25.513847  0
-8.443474  -54.070175  -25.263847  0
-6.943474  -54.070175  -25.263847  0
-6.193474  -54.070175  -25.513847  0
-6.443474  -54.070175  -25.263847  0
-9.193474  -54.570175  -25.513847  0
-9.443474  -54.570175  -25.263847  0
-6.193474  -54.570175  -25.513847  0
-6.443474  -54.570175  -25.263847  0
-5.943474  -54.820175  -25.513847  0
-9.193474  -55.070175  -25.513847  0
-9.443474  -55.320175  -25.513847  0
-9.443474  -55.070175  -25.263847  0
-5.693474  -55.070175  -25.513847  0
-5.943474  -55.070175  -25.263847  0
-9.693474  -55.570175  -25.513847  0
-9.443474  -55.820175  -25.513847  0
-5.693474  -55.570175  -25.513847  0
-9.193474  -56.070175  -25.513847  0
-9.443474  -56.070175  -25.263847  0
-8.943474  -56.320175  -25.513847  0
-5.693474  -56.070175  -25.513847  0
-5.443474  -56.320175  -25.513847  0
-8.693474  -56.570175  -25.513847  0
-8.443474  -56.820175  -25.513847  0
-5.943474  -56.570175  -25.263847  0
-5.193474  -56.570175  -25.513847  0
-5.443474  -56.570175  -25.263847  0
-8.193474  -57.070175  -25.513847  0
-8.443474  -57.070175  -25.263847  0
-5.193474  -57.070175  -25.513847  0
-5.443474  -57.320175  -25.513847  0
-5.443474  -57.070175  -25.263847  0
-8.193474  -57.570175  -25.513847  0
-7.943474  -57.820175  -25.513847  0
-5.693474  -57.570175  -25.513847  0
-7.693474  -58.070175  -25.513847  0
-7.443474  -58.320175  -25.513847  0
-5.693474  -58.070175  -25.513847  0
-5.943474  -58.320175  -25.513847  0
-5.943474  -58.070175  -25.263847  0
-7.193474  -58.570175  -25.513847  0
-6.943474  -58.820175  -25.513847  0
-6.943474  -58.570175  -25.263847  0
-6.193474  -58.570175  -25.513847  0
-6.443474  -58.820175  -25.513847  0
-6.443474  -58.570175  -25.263847  0
-7.443474  -53.320175  -25.013847  0
-7.693474  -53.570175  -25.013847  0
-7.943474  -53.820175  -25.013847  0
-7.193474  -53.570175  -25.013847  0
-7.443474  -53.570175  -24.763847  0
-9.443474  -54.320175  -25.013847  0
-8.943474  -54.320175  -25.013847  0
-8.193474  -54.070175  -25.013847  0
-8.443474  -54.320175  -25.013847  0
-7.943474  -54.070175  -24.763847  0
-7.193474  -54.070175  -25.013847  0
-7.443474  -54.070175  -24.763847  0
-6.943474  -54.320175  -25.013847  0
-9.693474  -54.570175  -25.013847  0
-6.693474  -54.570175  -25.013847  0
-6.943474  -54.570175  -24.763847  0
-6.443474  -54.820175  -25.013847  0
-9.693474  -55.070175  -25.013847  0
-6.193474  -55.070175  -25.013847  0
-6.443474  -55.070175  -24.763847  0
-5.943474  -55.320175  -25.013847  0
-9.693474  -55.570175  -25.013847  0
-6.443474  -55.570175  -24.763847  0
-5.693474  -55.570175  -25.013847  0
-5.943474  -55.570175  -24.763847  0
-9.693474  -56.070175  -25.013847  0
-9.443474  -56.320175  -25.013847  0
-8.943474  -56.320175  -25.013847  0
-5.693474  -56.070175  -25.013847  0
-5.943474  -56.320175  -25.013847  0
-5.943474  -56.070175  -24.763847  0
-8.693474  -56.570175  -25.013847  0
-6.193474  -56.570175  -25.013847  0
-6.443474  -56.570175  -24.763847  0
-5.943474  -56.820175  -25.013847  0
-8.693474  -57.070175  -25.013847  0
-8.443474  -57.320175  -25.013847  0
-8.443474  -57.070175  -24.763847  0
-7.943474  -57.070175  -24.763847  0
-6.443474  -57.070175  -24.763847  0
-5.693474  -57.070175  -25.013847  0
-5.943474  -57.070175  -24.763847  0
-8.193474  -57.570175  -25.013847  0
-7.943474  -57.820175  -25.013847  0
-7.943474  -57.570175  -24.763847  0
-5.693474  -57.570175  -25.013847  0
-5.943474  -57.820175  -25.013847  0
-5.943474  -57.570175  -24.763847  0
-7.693474  -58.070175  -25.013847  0
-7.443474  -58.320175  -25.013847  0
-7.443474  -58.070175  -24.763847  0
-6.943474  -58.320175  -25.013847  0
-6.943474  -58.070175  -24.763847  0
-6.193474  -58.070175  -25.013847  0
-6.443474  -58.320175  -25.013847  0
-6.443474  -58.070175  -24.763847  0
-9.443474  -54.320175  -24.513847  0
-8.943474  -54.320175  -24.513847  0
-8.443474  -54.320175  -24.513847  0
-7.943474  -54.320175  -24.513847  0
-7.443474  -54.320175  -24.513847  0
-9.693474  -54.570175  -24.513847  0
-9.443474  -54.570175  -24.263847  0
-8.443474  -54.570175  -24.263847  0
-7.943474  -54.570175  -24.263847  0
-7.193474  -54.570175  -24.513847  0
-7.443474  -54.570175  -24.263847  0
-6.943474  -54.820175  -24.513847  0
-9.693474  -55.070175  -24.513847  0
-6.693474  -55.070175  -24.513847  0
-6.943474  -55.070175  -24.263847  0
-9.693474  -55.570175  -24.513847  0
-6.693474  -55.570175  -24.513847  0
-6.943474  -55.570175  -24.263847  0
-6.443474  -55.820175  -24.513847  0
-9.693474  -56.070175  -24.513847  0
-9.443474  -56.320175  -24.513847  0
-8.943474  -56.320175  -24.513847  0
-6.943474  -56.070175  -24.263847  0
-6.193474  -56.070175  -24.513847  0
-6.443474  -56.320175  -24.513847  0
-6.443474  -56.070175  -24.263847  0
-8.693474  -56.570175  -24.513847  0
-8.443474  -56.820175  -24.513847  0
-8.443474  -56.570175  -24.263847  0
-7.943474  -56.820175  -24.513847  0
-7.943474  -56.570175  -24.263847  0
-7.443474  -56.570175  -24.263847  0
-6.693474  -56.570175  -24.513847  0
-6.943474  -56.570175  -24.263847  0
-7.693474  -57.070175  -24.513847  0
-7.443474  -57.070175  -24.263847  0
-6.693474  -57.070175  -24.513847  0
-6.943474  -57.070175  -24.263847  0
-6.443474  -57.320175  -24.513847  0
-7.693474  -57.570175  -24.513847  0
-7.443474  -57.820175  -24.513847  0
-7.443474  -57.570175  -24.263847  0
-6.943474  -57.820175  -24.513847  0
-6.943474  -57.570175  -24.263847  0
-6.193474  -57.570175  -24.513847  0
-6.443474  -57.820175  -24.513847  0
-6.443474  -57.570175  -24.263847  0
-8.943474  -54.320175  -24.013847  0
-9.193474  -54.570175  -24.013847  0
-9.443474  -54.820175  -24.013847  0
-8.693474  -54.570175  -24.013847  0
-8.943474  -54.570175  -23.763847  0
-8.443474  -54.820175  -24.013847  0
-7.943474  -54.820175  -24.013847  0
-7.443474  -54.820175  -24.013847  0
-9.693474  -55.070175  -24.013847  0
-9.443474  -55.070175  -23.763847  0
-8.443474  -55.070175  -23.763847  0
-7.943474  -55.070175  -23.763847  0
-7.193474  -55.070175  -24.013847  0
-7.443474  -55.070175  -23.763847  0
-9.693474  -55.570175  -24.013847  0
-9.443474  -55.570175  -23.763847  0
-8.943474  -55.570175  -23.763847  0
-8.443474  -55.570175  -23.763847  0
-7.943474  -55.570175  -23.763847  0
-7.193474  -55.570175  -24.013847  0
-7.443474  -55.570175  -23.763847  0
-9.693474  -56.070175  -24.013847  0
-9.443474  -56.320175  -24.013847  0
-9.443474  -56.070175  -23.763847  0
-8.943474  -56.320175  -24.013847  0
-8.943474  -56.070175  -23.763847  0
-8.443474  -56.320175  -24.013847  0
-8.443474  -56.070175  -23.763847  0
-7.943474  -56.320175  -24.013847  0
-7.943474  -56.070175  -23.763847  0
-7.193474  -56.070175  -24.013847  0
-7.443474  -56.320175  -24.013847  0
-7.443474  -56.070175  -23.763847  0
-8.943474  -54.820175  -23.513847  0
-9.193474  -55.070175  -23.513847  0
-8.693474  -55.070175  -23.513847  0
-8.943474  -55.320175  -23.513847  0
-8.943474  -55.070175  -23.263847  0
7 11 0 0
1 9 0 0
0 9 7 0
1 14 9 0
11 13 0 0
0 13 1 0
1 13 15 0
1 15 14 0
24 28 2 0
3 25 2 0
2 25 24 0
4 27 3 0
3 27 25 0
4 30 27 0
2 28 5 0
5 28 33 0
2 6 3 0
2 5 6 0
3 8 4 0
3 6 8 0
30 4 31 0
4 10 31 0
4 8 10 0
10 36 31 0
33 35 5 0
39 12 35 0
12 5 35 0
12 6 5 0
12 11 7 0
8 12 7 0
6 12 8 0
8 7 9 0
8 9 10 0
9 14 10 0
14 36 10 0
14 42 36 0
39 41 12 0
41 46 16 0
41 16 13 0
12 41 13 0
11 12 13 0
17 15 13 0
17 13 16 0
17 48 15 0
48 14 15 0
48 42 14 0
16 46 18 0
18 46 52 0
16 19 17 0
16 18 19 0
48 17 55 0
55 17 19 0
52 54 18 0
18 54 19 0
19 54 56 0
19 56 55 0
59 66 20 0
21 61 20 0
20 61 59 0
22 63 21 0
21 63 61 0
22 69 63 0
66 67 20 0
20 67 21 0
21 67 68 0
72 23 68 0
23 21 68 0
23 22 21 0
69 22 74 0
74 22 23 0
72 75 23 0
23 75 74 0
81 84 26 0
26 87 81 0
82 89 29 0
28 24 29 0
24 82 29 0
24 85 82 0
25 26 84 0
85 25 84 0
24 25 85 0
88 87 26 0
25 88 26 0
27 88 25 0
27 30 88 0
88 30 92 0
90 96 32 0
90 32 89 0
32 29 89 0
32 34 29 0
34 33 28 0
34 28 29 0
93 92 30 0
93 30 31 0
31 36 93 0
93 36 98 0
32 96 37 0
37 96 101 0
32 38 34 0
32 37 38 0
40 35 33 0
34 40 33 0
38 40 34 0
40 39 35 0
42 43 99 0
98 42 99 0
36 42 98 0
43 104 99 0
101 103 37 0
105 44 103 0
44 37 103 0
44 38 37 0
38 45 40 0
38 44 45 0
47 41 39 0
40 47 39 0
45 47 40 0
47 46 41 0
48 49 43 0
48 43 42 0
104 43 107 0
107 43 49 0
44 105 50 0
50 105 108 0
44 51 45 0
44 50 51 0
45 53 47 0
45 51 53 0
53 52 46 0
53 46 47 0
55 57 49 0
55 49 48 0
107 49 111 0
111 49 57 0
50 108 58 0
58 108 112 0
110 51 113 0
51 58 113 0
51 50 58 0
115 60 110 0
60 51 110 0
60 53 51 0
62 54 52 0
53 62 52 0
60 62 53 0
64 56 54 0
64 54 62 0
57 55 56 0
64 57 56 0
65 57 64 0
111 57 117 0
117 57 65 0
112 114 58 0
58 114 113 0
60 115 59 0
115 66 59 0
115 119 66 0
60 59 61 0
60 61 62 0
62 61 63 0
62 63 64 0
64 63 69 0
70 64 69 0
65 64 70 0
117 65 121 0
121 65 70 0
67 66 71 0
66 123 71 0
66 119 123 0
73 68 67 0
73 67 71 0
73 72 68 0
74 76 70 0
74 70 69 0
121 70 125 0
125 70 76 0
71 123 77 0
77 123 127 0
71 78 73 0
71 77 78 0
79 75 72 0
73 79 72 0
78 79 73 0
79 130 75 0
75 130 74 0
130 126 74 0
126 76 74 0
76 126 125 0
127 129 77 0
133 80 129 0
80 77 129 0
80 78 77 0
131 79 135 0
79 80 135 0
79 78 80 0
79 131 130 0
133 136 80 0
80 136 135 0
138 141 83 0
86 139 83 0
83 139 138 0
84 81 86 0
81 139 86 0
81 140 139 0
81 87 140 0
140 87 144 0
142 150 91 0
142 91 141 0
141 91 83 0
91 89 83 0
89 82 83 0
83 82 85 0
83 85 86 0
86 85 84 0
145 144 87 0
145 87 88 0
94 147 92 0
147 88 92 0
147 145 88 0
94 153 147 0
148 154 95 0
97 151 95 0
95 151 148 0
151 97 150 0
150 97 91 0
97 96 91 0
96 90 91 0
91 90 89 0
93 94 92 0
93 98 94 0
98 153 94 0
98 155 153 0
95 154 100 0
100 154 157 0
95 102 97 0
95 100 102 0
102 101 96 0
102 96 97 0
156 155 98 0
156 98 99 0
99 104 156 0
156 104 161 0
157 159 100 0
100 159 102 0
102 159 160 0
160 164 106 0
160 106 103 0
102 160 103 0
101 102 103 0
106 105 103 0
107 161 104 0
107 166 161 0
106 164 109 0
109 164 168 0
109 108 105 0
109 105 106 0
111 166 107 0
111 171 166 0
168 170 109 0
108 109 170 0
173 108 170 0
112 108 173 0
113 116 110 0
116 115 110 0
117 171 111 0
117 175 171 0
114 112 118 0
112 176 118 0
112 173 176 0
116 113 114 0
118 116 114 0
120 116 118 0
120 119 115 0
120 115 116 0
121 175 117 0
121 178 175 0
118 176 122 0
122 176 180 0
118 124 120 0
118 122 124 0
124 123 119 0
124 119 120 0
125 178 121 0
125 183 178 0
180 182 122 0
184 128 182 0
128 122 182 0
128 124 122 0
128 127 123 0
128 123 124 0
130 132 126 0
132 187 126 0
187 125 126 0
187 183 125 0
184 186 128 0
186 189 134 0
186 134 129 0
128 186 129 0
127 128 129 0
134 133 129 0
135 137 131 0
137 193 131 0
131 193 130 0
193 188 130 0
188 132 130 0
132 188 187 0
189 191 134 0
134 191 133 0
191 136 133 0
191 192 136 0
135 136 137 0
136 194 137 0
136 192 194 0
137 194 193 0
197 203 143 0
141 138 143 0
138 197 143 0
138 198 197 0
199 138 139 0
199 198 138 0
200 139 140 0
200 199 139 0
146 201 144 0
201 140 144 0
201 200 140 0
146 206 201 0
202 209 149 0
152 204 149 0
149 204 202 0
204 152 203 0
203 152 143 0
152 150 143 0
150 142 143 0
143 142 141 0
145 146 144 0
208 206 146 0
145 208 146 0
147 208 145 0
147 153 208 0
208 153 210 0
149 209 148 0
209 154 148 0
209 212 154 0
149 148 151 0
149 151 152 0
152 151 150 0
155 210 153 0
155 215 210 0
213 216 158 0
212 213 158 0
157 212 158 0
154 212 157 0
155 156 162 0
218 155 162 0
215 155 218 0
161 162 156 0
216 217 158 0
217 220 163 0
217 163 159 0
158 217 159 0
157 158 159 0
165 160 159 0
165 159 163 0
165 164 160 0
219 218 162 0
162 161 219 0
161 222 219 0
161 166 222 0
163 220 167 0
167 220 224 0
163 169 165 0
163 167 169 0
169 168 164 0
169 164 165 0
171 222 166 0
171 227 222 0
224 226 167 0
229 172 226 0
172 167 226 0
172 169 167 0
174 170 168 0
169 174 168 0
172 174 169 0
174 173 170 0
175 227 171 0
175 232 227 0
229 231 172 0
235 177 231 0
177 172 231 0
177 174 172 0
177 176 173 0
177 173 174 0
237 233 179 0
233 232 179 0
232 178 179 0
232 175 178 0
177 235 181 0
181 235 239 0
181 180 176 0
181 176 177 0
238 237 179 0
179 178 238 0
178 242 238 0
178 183 242 0
239 241 181 0
241 244 185 0
241 185 182 0
181 241 182 0
180 181 182 0
185 184 182 0
187 242 183 0
187 247 242 0
244 246 185 0
246 251 190 0
246 190 186 0
185 246 186 0
184 185 186 0
190 189 186 0
254 248 188 0
254 188 193 0
187 188 247 0
247 188 248 0
190 251 195 0
195 251 257 0
196 191 189 0
190 196 189 0
195 196 190 0
191 196 260 0
253 191 260 0
192 191 253 0
192 255 194 0
253 255 192 0
193 194 254 0
254 194 255 0
257 259 195 0
195 259 196 0
196 259 261 0
196 261 260 0
262 267 205 0
203 197 205 0
197 262 205 0
197 263 262 0
264 197 198 0
264 263 197 0
265 198 199 0
265 264 198 0
266 199 200 0
266 265 199 0
269 266 207 0
266 201 207 0
266 200 201 0
206 207 201 0
268 272 202 0
202 272 209 0
204 205 267 0
268 204 267 0
202 204 268 0
205 204 203 0
271 269 207 0
275 271 211 0
211 271 208 0
271 207 208 0
207 206 208 0
210 211 208 0
273 278 214 0
272 273 214 0
212 272 214 0
209 272 212 0
277 275 211 0
211 210 277 0
210 279 277 0
210 215 279 0
214 278 213 0
278 216 213 0
278 281 216 0
214 213 212 0
218 279 215 0
218 282 279 0
217 216 221 0
216 284 221 0
216 281 284 0
221 220 217 0
218 219 223 0
285 218 223 0
282 218 285 0
222 223 219 0
221 284 225 0
225 284 286 0
225 224 220 0
225 220 221 0
285 223 228 0
285 228 288 0
227 228 222 0
222 228 223 0
286 287 225 0
287 291 230 0
287 230 226 0
225 287 226 0
224 225 226 0
230 229 226 0
290 288 228 0
228 227 290 0
227 293 290 0
227 232 293 0
230 291 234 0
234 291 296 0
236 231 229 0
230 236 229 0
234 236 230 0
236 235 231 0
298 294 233 0
298 233 237 0
232 233 293 0
293 233 294 0
296 297 234 0
300 240 297 0
240 234 297 0
240 236 234 0
240 239 235 0
240 235 236 0
237 238 243 0
303 237 243 0
298 237 303 0
242 243 238 0
300 302 240 0
302 305 245 0
302 245 241 0
240 302 241 0
239 240 241 0
245 244 241 0
303 243 249 0
303 249 307 0
247 249 242 0
242 249 243 0
245 305 250 0
250 305 310 0
252 246 244 0
245 252 244 0
250 252 245 0
252 251 246 0
312 308 256 0
256 308 307 0
256 307 249 0
254 256 249 0
248 254 249 0
248 249 247 0
310 311 250 0
315 258 311 0
258 250 311 0
258 252 250 0
258 257 251 0
258 251 252 0
318 313 253 0
318 253 260 0
256 255 312 0
255 313 312 0
255 253 313 0
255 256 254 0
315 316 258 0
258 316 257 0
316 259 257 0
316 317 259 0
259 319 261 0
317 319 259 0
260 261 318 0
318 261 319 0
320 325 262 0
262 325 267 0
321 262 263 0
321 320 262 0
322 263 264 0
322 321 263 0
323 264 265 0
323 322 264 0
327 323 270 0
323 266 270 0
323 265 266 0
269 270 266 0
324 330 274 0
272 268 274 0
268 324 274 0
268 326 324 0
268 267 325 0
268 325 326 0
329 327 270 0
331 329 276 0
276 329 271 0
329 270 271 0
270 269 271 0
275 276 271 0
274 330 273 0
330 278 273 0
330 334 278 0
274 273 272 0
333 331 276 0
336 333 280 0
280 333 277 0
333 276 277 0
276 275 277 0
279 280 277 0
334 281 278 0
338 281 334 0
336 280 283 0
336 283 341 0
282 283 279 0
279 283 280 0
338 284 281 0
344 284 338 0
343 341 283 0
283 282 343 0
282 346 343 0
282 285 346 0
344 286 284 0
349 286 344 0
351 347 289 0
347 346 289 0
346 288 289 0
346 285 288 0
287 286 292 0
286 354 292 0
286 349 354 0
292 291 287 0
353 351 289 0
356 353 295 0
295 353 290 0
353 289 290 0
289 288 290 0
293 295 290 0
354 355 292 0
291 292 355 0
359 291 355 0
296 291 359 0
361 357 299 0
299 357 356 0
299 356 295 0
298 299 295 0
294 298 295 0
294 295 293 0
297 296 301 0
296 363 301 0
296 359 363 0
301 300 297 0
361 299 304 0
361 304 365 0
303 304 298 0
298 304 299 0
363 364 301 0
364 367 306 0
364 306 302 0
301 364 302 0
300 301 302 0
306 305 302 0
365 304 309 0
365 309 370 0
307 309 303 0
303 309 304 0
367 369 306 0
305 306 369 0
373 305 369 0
310 305 373 0
376 371 314 0
314 371 370 0
314 370 309 0
312 314 309 0
308 312 309 0
308 309 307 0
373 375 310 0
310 375 311 0
315 311 375 0
315 375 378 0
376 314 313 0
318 376 313 0
382 376 318 0
313 314 312 0
378 380 315 0
315 380 316 0
316 381 317 0
380 381 316 0
317 383 319 0
381 383 317 0
318 319 382 0
382 319 383 0
385 389 320 0
320 389 325 0
386 320 321 0
386 385 320 0
387 321 322 0
387 386 321 0
393 387 328 0
387 323 328 0
387 322 323 0
327 328 323 0
388 396 324 0
324 396 330 0
390 324 326 0
390 388 324 0
326 325 389 0
326 389 390 0
395 393 328 0
398 395 332 0
332 395 329 0
395 328 329 0
328 327 329 0
331 332 329 0
396 334 330 0
400 334 396 0
398 332 335 0
398 335 402 0
333 337 331 0
337 332 331 0
337 335 332 0
336 337 333 0
401 404 339 0
400 401 339 0
338 400 339 0
334 400 338 0
402 335 340 0
402 340 405 0
342 335 337 0
340 335 342 0
341 342 336 0
336 342 337 0
339 404 345 0
345 404 409 0
345 344 338 0
345 338 339 0
407 405 340 0
407 340 342 0
407 342 408 0
411 408 348 0
348 408 343 0
408 342 343 0
342 341 343 0
346 348 343 0
345 409 350 0
350 409 414 0
350 349 344 0
350 344 345 0
417 412 352 0
352 412 411 0
352 411 348 0
351 352 348 0
347 351 348 0
347 348 346 0
414 416 350 0
349 350 416 0
420 349 416 0
354 349 420 0
419 417 352 0
423 419 358 0
358 419 353 0
419 352 353 0
352 351 353 0
356 358 353 0
355 354 360 0
354 426 360 0
354 420 426 0
360 359 355 0
428 424 362 0
362 424 423 0
362 423 358 0
361 362 358 0
357 361 358 0
357 358 356 0
426 427 360 0
359 360 427 0
429 359 427 0
363 359 429 0
428 362 366 0
428 366 430 0
365 366 361 0
361 366 362 0
364 363 368 0
363 431 368 0
363 429 431 0
368 367 364 0
430 366 372 0
430 372 433 0
370 372 365 0
365 372 366 0
431 432 368 0
432 436 374 0
432 374 369 0
368 432 369 0
367 368 369 0
374 373 369 0
438 434 377 0
377 434 433 0
377 433 372 0
376 377 372 0
371 376 372 0
371 372 370 0
436 437 374 0
437 439 379 0
437 379 375 0
374 437 375 0
373 374 375 0
379 378 375 0
438 377 384 0
438 384 442 0
382 384 376 0
376 384 377 0
439 440 379 0
379 440 378 0
440 380 378 0
440 441 380 0
380 443 381 0
441 443 380 0
384 383 442 0
383 443 442 0
383 381 443 0
383 384 382 0
391 389 385 0
386 392 385 0
385 392 391 0
387 394 386 0
386 394 392 0
393 394 387 0
397 396 388 0
397 388 449 0
388 445 449 0
388 390 445 0
390 389 391 0
446 390 391 0
445 390 446 0
446 391 392 0
446 392 447 0
447 392 394 0
447 394 448 0
453 448 399 0
399 448 395 0
448 394 395 0
394 393 395 0
398 399 395 0
450 455 397 0
455 396 397 0
455 400 396 0
450 397 449 0
453 399 403 0
453 403 459 0
402 403 398 0
398 403 399 0
456 461 401 0
401 461 404 0
401 400 455 0
401 455 456 0
459 403 406 0
459 406 463 0
405 406 402 0
402 406 403 0
461 409 404 0
466 409 461 0
465 463 406 0
469 465 410 0
410 465 407 0
465 406 407 0
406 405 407 0
408 413 407 0
407 413 410 0
411 413 408 0
467 471 415 0
466 467 415 0
414 466 415 0
409 466 414 0
469 410 418 0
469 418 473 0
417 418 412 0
418 413 412 0
418 410 413 0
412 413 411 0
471 472 415 0
472 474 421 0
472 421 416 0
415 472 416 0
414 415 416 0
421 420 416 0
473 418 422 0
473 422 477 0
419 425 417 0
425 418 417 0
425 422 418 0
423 425 419 0
474 476 421 0
420 421 476 0
479 420 476 0
426 420 479 0
478 477 422 0
428 482 424 0
482 422 424 0
422 425 424 0
482 478 422 0
424 425 423 0
479 480 426 0
426 480 427 0
429 427 480 0
429 480 484 0
430 482 428 0
430 486 482 0
484 431 429 0
489 431 484 0
491 487 435 0
487 486 435 0
486 433 435 0
486 430 433 0
489 490 431 0
431 490 432 0
436 432 490 0
436 490 492 0
491 435 434 0
438 491 434 0
494 491 438 0
434 435 433 0
492 493 436 0
436 493 437 0
439 437 493 0
439 493 497 0
500 495 444 0
495 494 444 0
494 442 444 0
494 438 442 0
497 498 439 0
439 498 440 0
440 501 441 0
498 501 440 0
444 443 500 0
443 501 500 0
443 441 501 0
443 444 442 0
451 449 445 0
451 445 504 0
445 503 504 0
445 446 503 0
506 503 452 0
503 447 452 0
503 446 447 0
448 454 447 0
447 454 452 0
453 454 448 0
457 455 450 0
510 457 450 0
510 450 449 0
505 510 449 0
451 505 449 0
505 451 504 0
506 452 458 0
506 458 513 0
460 452 454 0
458 452 460 0
459 460 453 0
453 460 454 0
508 516 462 0
461 456 462 0
456 508 462 0
456 509 508 0
456 455 457 0
511 456 457 0
509 456 511 0
511 457 510 0
515 513 458 0
464 517 515 0
458 464 515 0
460 464 458 0
463 464 459 0
459 464 460 0
462 516 468 0
468 516 520 0
468 466 461 0
468 461 462 0
519 517 464 0
521 519 470 0
470 519 465 0
519 464 465 0
464 463 465 0
469 470 465 0
468 520 467 0
520 471 467 0
520 524 471 0
468 467 466 0
523 521 470 0
470 469 523 0
469 526 523 0
469 473 526 0
472 471 475 0
471 528 475 0
471 524 528 0
475 474 472 0
477 526 473 0
477 531 526 0
528 529 475 0
475 529 474 0
529 476 474 0
529 530 476 0
479 476 530 0
479 530 534 0
535 532 481 0
483 481 478 0
481 531 478 0
531 477 478 0
531 481 532 0
482 483 478 0
480 479 485 0
479 538 485 0
479 534 538 0
485 484 480 0
537 535 481 0
488 543 537 0
481 488 537 0
483 488 481 0
486 488 482 0
482 488 483 0
538 539 485 0
484 485 539 0
545 484 539 0
489 484 545 0
543 488 487 0
491 543 487 0
548 543 491 0
487 488 486 0
545 546 489 0
489 546 490 0
492 490 546 0
492 546 551 0
556 549 496 0
549 548 496 0
548 494 496 0
548 491 494 0
551 552 492 0
492 552 493 0
554 499 497 0
493 554 497 0
552 554 493 0
557 502 499 0
557 499 554 0
502 557 556 0
502 556 496 0
500 502 496 0
495 500 496 0
495 496 494 0
499 498 497 0
498 499 501 0
501 499 502 0
501 502 500 0
507 504 503 0
506 507 503 0
512 510 505 0
504 507 505 0
507 512 505 0
507 514 512 0
513 514 506 0
506 514 507 0
559 564 508 0
508 564 516 0
560 508 509 0
560 559 508 0
561 509 511 0
561 560 509 0
511 510 512 0
562 511 512 0
561 511 562 0
562 512 514 0
562 514 563 0
568 563 518 0
518 563 515 0
563 514 515 0
514 513 515 0
517 518 515 0
564 520 516 0
571 520 564 0
570 568 518 0
572 570 522 0
522 570 519 0
570 518 519 0
518 517 519 0
521 522 519 0
571 524 520 0
574 524 571 0
572 522 525 0
572 525 575 0
523 527 521 0
527 522 521 0
527 525 522 0
526 527 523 0
574 528 524 0
578 528 574 0
577 575 525 0
533 582 577 0
525 533 577 0
527 533 525 0
531 533 526 0
526 533 527 0
578 579 528 0
528 579 529 0
529 580 530 0
579 580 529 0
534 530 580 0
534 580 585 0
591 583 536 0
536 583 582 0
536 582 533 0
535 536 533 0
532 535 533 0
532 533 531 0
540 538 586 0
538 585 586 0
538 534 585 0
588 541 540 0
588 540 586 0
593 541 588 0
591 536 542 0
591 542 595 0
537 544 535 0
544 536 535 0
544 542 536 0
543 544 537 0
540 539 538 0
539 540 545 0
540 547 545 0
540 541 547 0
541 593 598 0
541 598 547 0
597 595 542 0
550 603 597 0
542 550 597 0
544 550 542 0
548 550 543 0
543 550 544 0
547 546 545 0
599 553 551 0
599 551 546 0
598 599 546 0
547 598 546 0
601 555 553 0
601 553 599 0
604 558 555 0
604 555 601 0
558 604 603 0
558 603 550 0
556 558 550 0
549 556 550 0
549 550 548 0
553 552 551 0
552 553 554 0
554 553 555 0
554 555 557 0
557 555 558 0
557 558 556 0
565 564 559 0
565 559 607 0
559 606 607 0
559 560 606 0
609 606 566 0
606 561 566 0
606 560 561 0
562 567 561 0
561 567 566 0
563 569 562 0
562 569 567 0
568 569 563 0
608 614 565 0
614 564 565 0
614 571 564 0
608 565 607 0
611 609 566 0
611 566 567 0
611 567 612 0
612 567 569 0
612 569 613 0
618 613 573 0
573 613 570 0
613 569 570 0
569 568 570 0
572 573 570 0
614 574 571 0
620 574 614 0
618 573 576 0
618 576 625 0
575 576 572 0
572 576 573 0
620 578 574 0
627 578 620 0
625 576 581 0
625 581 636 0
577 584 575 0
584 576 575 0
584 581 576 0
582 584 577 0
627 628 578 0
578 628 579 0
579 630 580 0
628 630 579 0
632 587 585 0
580 632 585 0
630 632 580 0
634 589 587 0
634 587 632 0
637 590 589 0
637 589 634 0
590 637 636 0
581 590 636 0
592 590 581 0
591 592 583 0
592 584 583 0
592 581 584 0
583 584 582 0
587 586 585 0
586 587 588 0
588 587 589 0
588 589 593 0
589 594 593 0
589 590 594 0
596 590 592 0
594 590 596 0
595 596 591 0
591 596 592 0
600 598 594 0
594 598 593 0
602 594 596 0
600 594 602 0
597 605 595 0
605 596 595 0
605 602 596 0
603 605 597 0
600 599 598 0
599 600 601 0
601 600 602 0
601 602 604 0
604 602 605 0
604 605 603 0
610 607 606 0
609 610 606 0
615 614 608 0
640 615 608 0
640 608 607 0
639 640 607 0
610 639 607 0
641 639 616 0
616 639 611 0
639 610 611 0
610 609 611 0
612 617 611 0
611 617 616 0
613 619 612 0
612 619 617 0
618 619 613 0
621 620 615 0
615 620 614 0
615 640 642 0
622 615 642 0
621 615 622 0
622 642 641 0
616 622 641 0
623 622 616 0
624 616 617 0
623 616 624 0
626 617 619 0
624 617 626 0
625 626 618 0
618 626 619 0
629 627 621 0
621 627 620 0
631 621 622 0
629 621 631 0
633 622 623 0
631 622 633 0
635 623 624 0
633 623 635 0
638 624 626 0
635 624 638 0
636 638 625 0
625 638 626 0
629 628 627 0
628 629 630 0
630 629 631 0
630 631 632 0
632 631 633 0
632 633 634 0
634 633 635 0
634 635 637 0
637 635 638 0
637 638 636 0
643 640 639 0
641 643 639 0
643 642 640 0
642 643 641 0
