#!ascii version in FreeSurfer format (SUMA)
870 1738
-8.129044  -54.188644  -28.495361  0
-8.345774  -53.969940  -28.208540  0
-3.596840  -54.012203  -28.440805  0
-3.407597  -54.381516  -28.533894  0
-8.163162  -54.472786  -28.515482  0
-8.399390  -54.410534  -28.274666  0
-7.967973  -54.744953  -28.491131  0
-7.418802  -54.932842  -28.717356  0
-3.296219  -54.594563  -28.386570  0
-7.972867  -55.162750  -28.258207  0
-7.291053  -55.295143  -28.626020  0
-7.632659  -55.115875  -28.491058  0
-3.237719  -54.942532  -28.420942  0
-7.901237  -55.522255  -28.129915  0
-7.196472  -55.675549  -28.555279  0
-7.561590  -55.448509  -28.378052  0
-3.206256  -55.395199  -28.442053  0
-7.108348  -55.967209  -28.525246  0
-7.457646  -55.918365  -28.268637  0
-6.919866  -56.309471  -28.529606  0
-3.203406  -55.897305  -28.435534  0
-6.709181  -56.773357  -28.502485  0
-7.020900  -56.661217  -28.294846  0
-3.216693  -56.437340  -28.412474  0
-6.630280  -57.038719  -28.457186  0
-6.888237  -56.989773  -28.247038  0
-6.500768  -57.295223  -28.424341  0
-3.240845  -56.983749  -28.363958  0
-3.375140  -57.325737  -28.493782  0
-6.209159  -57.564682  -28.523228  0
-6.415474  -57.614445  -28.291803  0
-5.914603  -57.879314  -28.578632  0
-3.609069  -57.624092  -28.528187  0
-3.869036  -57.907440  -28.558575  0
-3.377918  -57.582706  -28.249043  0
-5.613806  -58.255791  -28.582321  0
-5.925451  -58.229279  -28.341812  0
-5.280242  -58.433990  -28.675230  0
-4.127468  -58.170204  -28.553751  0
-4.403817  -58.405750  -28.612709  0
-3.886984  -58.144707  -28.273520  0
-5.957449  -58.473270  -28.173487  0
-5.171135  -58.677704  -28.455910  0
-5.581811  -58.553867  -28.350117  0
-4.702549  -58.507648  -28.682529  0
-4.829998  -58.756748  -28.335159  0
-4.516920  -58.642426  -28.381912  0
-6.439402  -52.396458  -27.779612  0
-5.845196  -52.346542  -28.009279  0
-5.332423  -52.358360  -27.979927  0
-6.734563  -52.658684  -28.062643  0
-6.968481  -52.795979  -28.070139  0
-6.992252  -52.628635  -27.827154  0
-4.998384  -52.456051  -27.931612  0
-4.790346  -52.625832  -28.052246  0
-4.804912  -52.538727  -27.724953  0
-4.525399  -52.857990  -28.163757  0
-7.949758  -53.414742  -28.071453  0
-7.948488  -53.154064  -27.774385  0
-7.238282  -52.972580  -28.075609  0
-7.664424  -53.241173  -28.076929  0
-7.458078  -52.863430  -27.810497  0
-4.235422  -53.073608  -27.964870  0
-3.977088  -53.374748  -28.140192  0
-8.196883  -53.573982  -28.033806  0
-8.475258  -53.759869  -27.948006  0
-8.350111  -53.438721  -27.737860  0
-3.747347  -53.666458  -27.954542  0
-8.626413  -54.074375  -27.971954  0
-3.532373  -54.090218  -27.815660  0
-3.378862  -54.344139  -28.177807  0
-8.707603  -54.407604  -27.946709  0
-8.890622  -54.527294  -27.687218  0
-8.490688  -54.835785  -28.039982  0
-3.250464  -54.748737  -28.036564  0
-3.366904  -54.460339  -27.812836  0
-8.270320  -55.276390  -28.006983  0
-8.593125  -55.143593  -27.831074  0
-3.170827  -55.150661  -28.126242  0
-8.159199  -55.513870  -27.963419  0
-8.439648  -55.459656  -27.784349  0
-8.015326  -55.794250  -27.922815  0
-3.154495  -55.565922  -28.043749  0
-7.673934  -56.161049  -27.999580  0
-7.995557  -56.168316  -27.760208  0
-7.319213  -56.395687  -28.167780  0
-3.159345  -56.082310  -28.006399  0
-7.929299  -56.507362  -27.651270  0
-7.246145  -56.750893  -28.058903  0
-7.607534  -56.488464  -27.898542  0
-3.188601  -56.667423  -27.914280  0
-3.261894  -56.533649  -27.541979  0
-7.144852  -56.997021  -28.014734  0
-7.514823  -56.897736  -27.763638  0
-6.944325  -57.315212  -28.005939  0
-3.190918  -57.083088  -28.013260  0
-6.636945  -57.703335  -28.036753  0
-6.965124  -57.686581  -27.780745  0
-6.282530  -57.942104  -28.208311  0
-3.265598  -57.403492  -28.053881  0
-3.433942  -57.777256  -27.941360  0
-6.897842  -58.031425  -27.680258  0
-6.228906  -58.263252  -28.089218  0
-6.583225  -58.003624  -27.934505  0
-3.701259  -58.017570  -28.116177  0
-3.928288  -58.303608  -27.958471  0
-6.148584  -58.496460  -28.028166  0
-6.493560  -58.422745  -27.811310  0
-5.931136  -58.770233  -27.957737  0
-5.256754  -58.910774  -28.024271  0
-4.812716  -58.900818  -27.890722  0
-4.253881  -58.521610  -28.182682  0
-4.508260  -58.750019  -27.986380  0
-5.998775  -59.092228  -27.668352  0
-5.608459  -59.127613  -27.725899  0
-6.880618  -52.349728  -27.328939  0
-6.347219  -52.242039  -27.343666  0
-5.933269  -52.258938  -27.504734  0
-5.516050  -52.296726  -27.644400  0
-5.088634  -52.407619  -27.590122  0
-8.045446  -52.943459  -27.387354  0
-7.275534  -52.577564  -27.563648  0
-7.683890  -52.728157  -27.428181  0
-7.361938  -52.471527  -27.280325  0
-4.802277  -52.542000  -27.518740  0
-4.946588  -52.539139  -27.271116  0
-4.573250  -52.767128  -27.589746  0
-8.232345  -53.162186  -27.512867  0
-8.491783  -53.337791  -27.420372  0
-4.253419  -53.036709  -27.573513  0
-4.400045  -53.025940  -27.259750  0
-4.044256  -53.322933  -27.558781  0
-8.636060  -53.705944  -27.664003  0
-3.771246  -53.773693  -27.445757  0
-4.022487  -53.507763  -27.202873  0
-8.864218  -54.075172  -27.610582  0
-9.049970  -54.252628  -27.397316  0
-9.016437  -53.930969  -27.253437  0
-3.600979  -54.108376  -27.448067  0
-9.090243  -54.606670  -27.319132  0
-8.847326  -54.900162  -27.664778  0
-3.496242  -54.515503  -27.394190  0
-3.313601  -54.756004  -27.653053  0
-8.772700  -55.232784  -27.605549  0
-8.992716  -55.025761  -27.401056  0
-3.230938  -55.173462  -27.702637  0
-3.364284  -54.962658  -27.391449  0
-8.670847  -55.471394  -27.572411  0
-8.885566  -55.418934  -27.319427  0
-8.475187  -55.807529  -27.549471  0
-3.249237  -55.733494  -27.535532  0
-3.382079  -55.341827  -27.242405  0
-8.268412  -56.251587  -27.511179  0
-8.566100  -56.118782  -27.296455  0
-3.225231  -56.221001  -27.595751  0
-3.353080  -56.361900  -27.295628  0
-8.165277  -56.489418  -27.478815  0
-8.399235  -56.479527  -27.251640  0
-8.014874  -56.748623  -27.447178  0
-3.397024  -56.728333  -27.300253  0
-3.274415  -56.826000  -27.560938  0
-7.754926  -57.006439  -27.507988  0
-7.971965  -57.048683  -27.287819  0
-7.498239  -57.333233  -27.518513  0
-3.264411  -57.196331  -27.690931  0
-3.391540  -57.096653  -27.373583  0
-7.239106  -57.774094  -27.505289  0
-7.583582  -57.630413  -27.246979  0
-3.328660  -57.598595  -27.683790  0
-3.430087  -57.806335  -27.594551  0
-3.511170  -57.615723  -27.368864  0
-7.122784  -58.016888  -27.495602  0
-7.369501  -57.978046  -27.247698  0
-6.975961  -58.284920  -27.483355  0
-3.646837  -58.046234  -27.629818  0
-3.883644  -58.309322  -27.568045  0
-3.898934  -58.123959  -27.247330  0
-6.717607  -58.562981  -27.577484  0
-6.914040  -58.604828  -27.324116  0
-6.450643  -58.861328  -27.565599  0
-4.979552  -59.026855  -27.551796  0
-4.171792  -58.525761  -27.625448  0
-4.587770  -58.797321  -27.447147  0
-4.285698  -58.457455  -27.153202  0
-6.197775  -59.185932  -27.437691  0
-6.479887  -59.122986  -27.254786  0
-5.822506  -59.298553  -27.373274  0
-5.275616  -59.149529  -27.622454  0
-5.458724  -59.266159  -27.431473  0
-7.266819  -52.348000  -26.868969  0
-6.832315  -52.245682  -26.849598  0
-6.443169  -52.229191  -26.974962  0
-6.029973  -52.235802  -27.111574  0
-5.477783  -52.353432  -27.160200  0
-7.631710  -52.524345  -27.058464  0
-8.046865  -52.757210  -26.939896  0
-5.136883  -52.525482  -26.995459  0
-5.398231  -52.524620  -26.741211  0
-4.874727  -52.767471  -26.968561  0
-8.322427  -53.059105  -27.219595  0
-8.547312  -53.234138  -27.177551  0
-8.540937  -53.103783  -26.877237  0
-4.589428  -53.023712  -26.970245  0
-4.856821  -53.024128  -26.706232  0
-4.377579  -53.271687  -26.991329  0
-8.781439  -53.544060  -27.216490  0
-9.023901  -53.705902  -26.975058  0
-8.882189  -53.383717  -26.748623  0
-4.156753  -53.502876  -26.992996  0
-4.383706  -53.520912  -26.751581  0
-4.028600  -53.750095  -26.979422  0
-9.148032  -54.092094  -27.019279  0
-3.756368  -54.167038  -27.098806  0
-4.019988  -54.059856  -26.763826  0
-9.228741  -54.464481  -26.909258  0
-3.727751  -54.670811  -26.899233  0
-3.931519  -54.387436  -26.700378  0
-9.163980  -54.986431  -27.009254  0
-3.532092  -55.017067  -27.069529  0
-9.096010  -55.614079  -26.841150  0
-8.813310  -55.861301  -27.147547  0
-3.574647  -55.370251  -26.906778  0
-3.760885  -55.503269  -26.653830  0
-3.523409  -55.716228  -26.974728  0
-8.750311  -56.289768  -26.942789  0
-8.956670  -56.021835  -26.824142  0
-3.367477  -56.055843  -27.223412  0
-3.448581  -56.253189  -27.092810  0
-3.614501  -56.133831  -26.858171  0
-8.569812  -56.725769  -26.860561  0
-8.280745  -56.841488  -27.135023  0
-3.569922  -56.551300  -27.000898  0
-3.803022  -56.446724  -26.687391  0
-8.181923  -57.061626  -27.077568  0
-8.358206  -57.061768  -26.864866  0
-7.995783  -57.341671  -27.031008  0
-3.633008  -57.164101  -27.067562  0
-3.871419  -56.922043  -26.745789  0
-7.803898  -57.758373  -26.902702  0
-8.115690  -57.549294  -26.720217  0
-3.783136  -57.696487  -27.054062  0
-3.946916  -57.900890  -26.976952  0
-4.017494  -57.587524  -26.802410  0
-7.574893  -58.076473  -26.911739  0
-7.274402  -58.319103  -27.100416  0
-4.137476  -58.091682  -26.932940  0
-4.388091  -58.307941  -26.843388  0
-4.319011  -57.978546  -26.697752  0
-7.188248  -58.617180  -26.917299  0
-6.814943  -58.897778  -27.121693  0
-4.586031  -58.609070  -26.935081  0
-4.882210  -58.933968  -27.016327  0
-6.666994  -59.167217  -26.854086  0
-6.219323  -59.327621  -27.034885  0
-5.839399  -59.388546  -26.945408  0
-5.192155  -59.176792  -27.235487  0
-5.506525  -59.306965  -27.049143  0
-7.352742  -52.357201  -26.361120  0
-6.928111  -52.281605  -26.473400  0
-6.540182  -52.248795  -26.609272  0
-5.985338  -52.339462  -26.654589  0
-8.334499  -52.867306  -26.360826  0
-7.691518  -52.479126  -26.650162  0
-7.971971  -52.616570  -26.424603  0
-5.665247  -52.517956  -26.475283  0
-5.936512  -52.523426  -26.245182  0
-5.392259  -52.763031  -26.437794  0
-8.702344  -53.125961  -26.467726  0
-8.933824  -53.360271  -26.331263  0
-5.135338  -53.023155  -26.446074  0
-5.411949  -53.016129  -26.192453  0
-4.880566  -53.279171  -26.477640  0
-9.098193  -53.687630  -26.633877  0
-4.625199  -53.539494  -26.504517  0
-4.871060  -53.564972  -26.262672  0
-4.396847  -53.820469  -26.520483  0
-9.242371  -54.095093  -26.576612  0
-4.176027  -54.212318  -26.490395  0
-4.459248  -54.110359  -26.274937  0
-9.330888  -54.612385  -26.541452  0
-9.441860  -54.534382  -26.178951  0
-4.088839  -54.454361  -26.470198  0
-4.340004  -54.443119  -26.242832  0
-4.037209  -54.745106  -26.472239  0
-9.321365  -55.206787  -26.573101  0
-9.468922  -54.911987  -26.270897  0
-3.784545  -55.146172  -26.680891  0
-3.891127  -55.355808  -26.512527  0
-4.093765  -55.189754  -26.326540  0
-9.326422  -55.722458  -26.376802  0
-9.505434  -55.365162  -26.222040  0
-3.969359  -55.480694  -26.422020  0
-4.226911  -55.458748  -26.162865  0
-3.917680  -55.806389  -26.488813  0
-9.111332  -56.112915  -26.458942  0
-8.937327  -56.297695  -26.628025  0
-3.857618  -56.174347  -26.570992  0
-3.944898  -56.345879  -26.507969  0
-4.116426  -56.174183  -26.313663  0
-8.828629  -56.654228  -26.485817  0
-8.994744  -56.454166  -26.355452  0
-4.079371  -56.626499  -26.447859  0
-4.329650  -56.435040  -26.135414  0
-8.595768  -57.114746  -26.448849  0
-8.315753  -57.352509  -26.653549  0
-4.190873  -57.211250  -26.512220  0
-4.378657  -56.911266  -26.206980  0
-8.261430  -57.546371  -26.549021  0
-8.403927  -57.516273  -26.356667  0
-8.124136  -57.755371  -26.506950  0
-4.300130  -57.653847  -26.567274  0
-4.441283  -57.871941  -26.529648  0
-4.514176  -57.559902  -26.298584  0
-7.826772  -58.000114  -26.651272  0
-8.006870  -58.070324  -26.306360  0
-7.586744  -58.336277  -26.623571  0
-4.606068  -58.222500  -26.551037  0
-4.797352  -57.968845  -26.136740  0
-7.362878  -58.619247  -26.624704  0
-7.515122  -58.628002  -26.313190  0
-7.118044  -58.904209  -26.587461  0
-4.795615  -58.679291  -26.678993  0
-4.951611  -58.857552  -26.659254  0
-4.985436  -58.587383  -26.333307  0
-6.841100  -59.202129  -26.447073  0
-7.077627  -59.115681  -26.198336  0
-6.461330  -59.351906  -26.461948  0
-6.050044  -59.396400  -26.622196  0
-5.196180  -59.064548  -26.706898  0
-5.649764  -59.274830  -26.519882  0
-5.334379  -58.951424  -26.233932  0
-7.377247  -52.410995  -26.011694  0
-6.993701  -52.376625  -26.060753  0
-6.458281  -52.370979  -26.219160  0
-8.265917  -52.925655  -25.807617  0
-7.681300  -52.474834  -26.197077  0
-7.920132  -52.674755  -25.939196  0
-7.559237  -52.514717  -25.861324  0
-7.174133  -52.511307  -25.740067  0
-6.224356  -52.526161  -26.005615  0
-6.583957  -52.557270  -25.802845  0
-5.936253  -52.761745  -25.954584  0
-8.639730  -53.138035  -25.991423  0
-8.931282  -53.400208  -25.980570  0
-8.426145  -53.076759  -25.697803  0
-5.678519  -53.008171  -25.941040  0
-5.922848  -53.015957  -25.710840  0
-5.419383  -53.297413  -25.966568  0
-9.147445  -53.711159  -26.165480  0
-9.040153  -53.600563  -25.764202  0
-5.124158  -53.655304  -25.990433  0
-5.455866  -53.663322  -25.738737  0
-4.767772  -53.878056  -26.149160  0
-9.337244  -54.179344  -26.177454  0
-9.484858  -54.342907  -25.893188  0
-5.388784  -54.073307  -25.659771  0
-4.695871  -54.222263  -26.041433  0
-5.071443  -53.977402  -25.884516  0
-9.554918  -54.682827  -26.002018  0
-5.400480  -54.391388  -25.575470  0
-4.608174  -54.492359  -26.011209  0
-4.982694  -54.454792  -25.786692  0
-4.472033  -54.832657  -26.039841  0
-9.638998  -55.033596  -25.987526  0
-4.353203  -55.197887  -26.058626  0
-4.410499  -55.313282  -25.983557  0
-4.591106  -55.184662  -25.835842  0
-9.699485  -55.404358  -25.948576  0
-9.871072  -55.553314  -25.697067  0
-9.597097  -55.774921  -25.981611  0
-4.470493  -55.432091  -25.917244  0
-4.722761  -55.478882  -25.653717  0
-4.388656  -55.780037  -25.994913  0
-9.375388  -56.167690  -26.006617  0
-9.622782  -56.089172  -25.778646  0
-4.377033  -56.119011  -26.032629  0
-4.504987  -56.265282  -25.896233  0
-4.546402  -56.030842  -25.822695  0
-9.137634  -56.482948  -26.050356  0
-8.984027  -56.703239  -26.106876  0
-4.550943  -56.593281  -25.891781  0
-8.849105  -57.021824  -26.007055  0
-4.626308  -57.065884  -25.923122  0
-8.617119  -57.469936  -25.915016  0
-8.329114  -57.809212  -26.093336  0
-4.752952  -57.492535  -25.917391  0
-4.898101  -57.741001  -25.823812  0
-4.885648  -57.453426  -25.658518  0
-8.179500  -58.109085  -25.843573  0
-7.856328  -58.364830  -26.091606  0
-5.031863  -58.125511  -25.877787  0
-7.683368  -58.637226  -25.822638  0
-7.357759  -58.900162  -26.052181  0
-5.238629  -58.585373  -25.936583  0
-5.404509  -58.857288  -25.966831  0
-5.481422  -58.689934  -25.720182  0
-7.152264  -59.133549  -25.815443  0
-6.804478  -59.296375  -26.042101  0
-6.487838  -59.371254  -26.058275  0
-5.617902  -59.058052  -26.023975  0
-6.091803  -59.287121  -26.069798  0
-5.801175  -58.972267  -25.699726  0
-7.864140  -52.895493  -25.403496  0
-7.497304  -52.671524  -25.550632  0
-6.939413  -52.743229  -25.404318  0
-6.349699  -52.827148  -25.565073  0
-8.195018  -53.106079  -25.392002  0
-8.495672  -53.247643  -25.539305  0
-7.939737  -53.079586  -25.164112  0
-6.995659  -52.942150  -25.081192  0
-6.188385  -53.019051  -25.476938  0
-6.531707  -53.031418  -25.252398  0
-5.959791  -53.322418  -25.484068  0
-8.788229  -53.403965  -25.651808  0
-8.986663  -53.706993  -25.302315  0
-8.592800  -53.470184  -25.309038  0
-5.744804  -53.792168  -25.480509  0
-6.055702  -53.620537  -25.265478  0
-9.299502  -53.950348  -25.747658  0
-9.515279  -54.223621  -25.651838  0
-9.514121  -54.097004  -25.344776  0
-5.654022  -54.193138  -25.464859  0
-5.956670  -53.984470  -25.261461  0
-9.705013  -54.589767  -25.650196  0
-9.885041  -54.404945  -25.205370  0
-5.572284  -54.450405  -25.455065  0
-5.825088  -54.409924  -25.254509  0
-5.380555  -54.709686  -25.433899  0
-4.886893  -54.904659  -25.684740  0
-9.854774  -55.136806  -25.703026  0
-10.048174  -55.270222  -25.444653  0
-10.013349  -54.849487  -25.362812  0
-5.411698  -55.116253  -25.171350  0
-4.860649  -55.181465  -25.591215  0
-5.052322  -55.339233  -25.368111  0
-5.104191  -55.050186  -25.451031  0
-10.080347  -55.640972  -25.301466  0
-9.816175  -55.909634  -25.643564  0
-4.978158  -55.710144  -25.331861  0
-4.717141  -55.856731  -25.613703  0
-9.744696  -56.129604  -25.604631  0
-9.899944  -56.082123  -25.365173  0
-9.615897  -56.312656  -25.566128  0
-4.710021  -56.251442  -25.619951  0
-4.908497  -56.043030  -25.357409  0
-9.335276  -56.513187  -25.715710  0
-9.485868  -56.624615  -25.304487  0
-9.121425  -56.843212  -25.606377  0
-4.763471  -56.712440  -25.593769  0
-4.944737  -56.420834  -25.295557  0
-8.841666  -57.266228  -25.447958  0
-9.040139  -57.072639  -25.176975  0
-4.815209  -57.138847  -25.629004  0
-4.962588  -57.259121  -25.426792  0
-4.960682  -56.885433  -25.316788  0
-8.621209  -57.593903  -25.410744  0
-8.435518  -57.835064  -25.607763  0
-5.058109  -57.662254  -25.508528  0
-8.217652  -58.099529  -25.324205  0
-7.977193  -58.370678  -25.574005  0
-5.276448  -58.190651  -25.552973  0
-5.461867  -58.416794  -25.481445  0
-5.505394  -58.205341  -25.248562  0
-7.734631  -58.606709  -25.329012  0
-7.423461  -58.890511  -25.525002  0
-5.657929  -58.633854  -25.455791  0
-5.863917  -58.851925  -25.461237  0
-5.892015  -58.614616  -25.207344  0
-7.125580  -59.108376  -25.465137  0
-6.919055  -59.245770  -25.647718  0
-6.812118  -59.115456  -25.330206  0
-6.100249  -59.048878  -25.544880  0
-6.533148  -59.261726  -25.686831  0
-6.366845  -58.966187  -25.256918  0
-7.368540  -52.892021  -25.131851  0
-7.661321  -53.132107  -24.950123  0
-7.981824  -53.266132  -24.999720  0
-7.162251  -53.001396  -24.946127  0
-7.301639  -53.097954  -24.869209  0
-6.904901  -53.221550  -24.892567  0
-6.380003  -53.382988  -25.108814  0
-9.323098  -53.898239  -24.851740  0
-8.865209  -53.760502  -24.826870  0
-8.286959  -53.372196  -25.149954  0
-8.466667  -53.620567  -24.908686  0
-8.084564  -53.488354  -24.828732  0
-6.904658  -53.625542  -24.682932  0
-6.278748  -53.749973  -25.044788  0
-6.594994  -53.550785  -24.878027  0
-9.720130  -54.119534  -24.952951  0
-9.980457  -54.340363  -24.799030  0
-6.868980  -53.993031  -24.569576  0
-6.194284  -54.155746  -25.024529  0
-6.545740  -53.901386  -24.808035  0
-10.108232  -54.644131  -25.026220  0
-6.097691  -54.450520  -25.015751  0
-6.465330  -54.365986  -24.725876  0
-5.891711  -54.764236  -24.991600  0
-10.200274  -55.096657  -25.058256  0
-5.677457  -55.064980  -24.965149  0
-5.896179  -55.069241  -24.754662  0
-5.585627  -55.290138  -24.895140  0
-10.263420  -55.480621  -24.889925  0
-5.307190  -55.577782  -25.042479  0
-5.570618  -55.582676  -24.773174  0
-10.132298  -55.945362  -24.874365  0
-9.831347  -56.362881  -25.094339  0
-5.167667  -56.099865  -25.060432  0
-5.509333  -55.989658  -24.752420  0
-9.657782  -56.641064  -24.796265  0
-9.276331  -56.880070  -24.976252  0
-5.674553  -56.441936  -24.585094  0
-5.176480  -56.646435  -25.021544  0
-5.392825  -56.414856  -24.807816  0
-9.040611  -57.057442  -24.875771  0
-8.841905  -57.223034  -24.928179  0
-8.923943  -57.095974  -24.720432  0
-5.185739  -57.224297  -25.116602  0
-5.481093  -56.910221  -24.742195  0
-8.648299  -57.488033  -25.046829  0
-8.387707  -57.775009  -25.013548  0
-8.494773  -57.565586  -24.815170  0
-5.303839  -57.758953  -25.187935  0
-5.462869  -57.880035  -25.029112  0
-5.531364  -57.593544  -24.823784  0
-8.133221  -58.047070  -24.892298  0
-7.905556  -58.312679  -24.979635  0
-7.969666  -58.101562  -24.697144  0
-5.663292  -58.109344  -24.968588  0
-5.881058  -58.360798  -24.936741  0
-5.899691  -58.095867  -24.705570  0
-7.632656  -58.565029  -24.958664  0
-7.488761  -58.748760  -25.129978  0
-7.304482  -58.641338  -24.807592  0
-7.122627  -58.897690  -25.111429  0
-6.845675  -58.632675  -24.714067  0
-6.160856  -58.586990  -24.940643  0
-6.623130  -58.828148  -24.979589  0
-6.359803  -58.455654  -24.677038  0
-7.336201  -53.411613  -24.668306  0
-9.304421  -53.939754  -24.387453  0
-9.006253  -53.839050  -24.562054  0
-8.550489  -53.816833  -24.478559  0
-7.772861  -53.445946  -24.694994  0
-8.065005  -53.680649  -24.560190  0
-7.208654  -53.792561  -24.475672  0
-7.628553  -53.717793  -24.439880  0
-9.684832  -54.119408  -24.451958  0
-9.990778  -54.395905  -24.413431  0
-9.476522  -54.041496  -24.197893  0
-8.540929  -53.974552  -24.140301  0
-8.060052  -53.954285  -24.217508  0
-7.122217  -54.022598  -24.410627  0
-7.441879  -54.051758  -24.264233  0
-6.982592  -54.266705  -24.392981  0
-10.177889  -54.715672  -24.633989  0
-10.079683  -54.646130  -24.215925  0
-6.705956  -54.499012  -24.467070  0
-6.929641  -54.546783  -24.241007  0
-6.415718  -54.791626  -24.491062  0
-10.289973  -55.159874  -24.664145  0
-6.104289  -55.150394  -24.500690  0
-6.413394  -55.138973  -24.232931  0
-5.807961  -55.369404  -24.643276  0
-10.278841  -55.539368  -24.502234  0
-6.350979  -55.515846  -24.132545  0
-5.781323  -55.742386  -24.558407  0
-6.070995  -55.466457  -24.389343  0
-10.174972  -55.969063  -24.312559  0
-9.968896  -56.342003  -24.565857  0
-5.775266  -56.095146  -24.525232  0
-5.870522  -56.276291  -24.448448  0
-6.083147  -56.008766  -24.298920  0
-9.730989  -56.597935  -24.301687  0
-9.415934  -56.793049  -24.467449  0
-9.034151  -56.957119  -24.536184  0
-5.946667  -56.523914  -24.381598  0
-6.255036  -56.558167  -24.146082  0
-5.767656  -56.829384  -24.498013  0
-8.724836  -57.127884  -24.532047  0
-8.565611  -57.371750  -24.682533  0
-8.328643  -57.221798  -24.278795  0
-7.972042  -57.230045  -24.042624  0
-6.283966  -57.083790  -24.086895  0
-5.752183  -57.257519  -24.513668  0
-6.007824  -56.977360  -24.310305  0
-8.310116  -57.547134  -24.568165  0
-7.987224  -57.816925  -24.486595  0
-8.053250  -57.457855  -24.253336  0
-5.796633  -57.673573  -24.538439  0
-5.937484  -57.859764  -24.471560  0
-6.082007  -57.561802  -24.268650  0
-7.714497  -58.131905  -24.502951  0
-7.507600  -58.396530  -24.633024  0
-7.276070  -58.158806  -24.270439  0
-7.054070  -58.409893  -24.463772  0
-6.812879  -58.114769  -24.168737  0
-6.166571  -58.063213  -24.434044  0
-6.579528  -58.307941  -24.410967  0
-6.402446  -57.947453  -24.181122  0
-8.904161  -53.943340  -24.206442  0
-9.204317  -54.115852  -23.961357  0
-9.528791  -54.236561  -23.945782  0
-8.708021  -54.031712  -24.017197  0
-8.855612  -54.098682  -23.919603  0
-8.449960  -54.190437  -23.860966  0
-7.815198  -54.266125  -23.959560  0
-7.314794  -54.371128  -24.101866  0
-9.799479  -54.496605  -23.937714  0
-10.013960  -54.845615  -23.918594  0
-9.545844  -54.453014  -23.678055  0
-8.529939  -54.452587  -23.547062  0
-8.099549  -54.495766  -23.633902  0
-7.177897  -54.564762  -24.022638  0
-7.500853  -54.583569  -23.805294  0
-6.928164  -54.832043  -23.992987  0
-10.205997  -55.075592  -24.235626  0
-10.036991  -55.263733  -23.783258  0
-6.673577  -55.246845  -23.936148  0
-6.990229  -55.112579  -23.722622  0
-10.202507  -55.591198  -24.056307  0
-10.032294  -55.726254  -23.711523  0
-6.566338  -55.586647  -23.927126  0
-6.873310  -55.528118  -23.701303  0
-6.388488  -55.824371  -24.053341  0
-10.132988  -55.943729  -23.936375  0
-9.927908  -56.263153  -23.975571  0
-10.017553  -56.012852  -23.754770  0
-6.976301  -56.039642  -23.639156  0
-6.372762  -56.139458  -24.062670  0
-6.520056  -56.378826  -23.955458  0
-6.629811  -55.977707  -23.866400  0
-9.641565  -56.549404  -23.934835  0
-9.479539  -56.703911  -24.101149  0
-9.313383  -56.592121  -23.795042  0
-9.132941  -56.779465  -24.100985  0
-8.847942  -56.611691  -23.732176  0
-8.633337  -56.896473  -24.094110  0
-8.317423  -56.637287  -23.687859  0
-8.106158  -56.954784  -23.917854  0
-7.751979  -56.708149  -23.660656  0
-7.209270  -56.537563  -23.636618  0
-6.538538  -56.782070  -23.936659  0
-6.783412  -56.457378  -23.790672  0
-7.756676  -57.094669  -23.860975  0
-7.345218  -57.140167  -23.782665  0
-6.513905  -57.160904  -23.919785  0
-6.841553  -57.017853  -23.797489  0
-6.345416  -57.400806  -24.012480  0
-7.695425  -57.462029  -24.030798  0
-7.506251  -57.859184  -24.148838  0
-7.300808  -57.585510  -23.905155  0
-7.065963  -57.864376  -23.992489  0
-6.949668  -57.498653  -23.838203  0
-6.376742  -57.656223  -24.029135  0
-6.664134  -57.787544  -23.967758  0
-6.591810  -57.445190  -23.887978  0
-8.861776  -54.337593  -23.626469  0
-9.225455  -54.507046  -23.495455  0
-9.509284  -54.731930  -23.453363  0
-8.693806  -54.525845  -23.430500  0
-8.843683  -54.590267  -23.358524  0
-8.418824  -54.754501  -23.324574  0
-7.804198  -54.800556  -23.468512  0
-7.323934  -54.906887  -23.614429  0
-9.774389  -54.976032  -23.575636  0
-9.376425  -55.210480  -23.206751  0
-8.451031  -55.235943  -23.101883  0
-7.934731  -55.123852  -23.257248  0
-7.221379  -55.254044  -23.501001  0
-7.546195  -55.071785  -23.391243  0
-9.753537  -55.480167  -23.452944  0
-9.362203  -55.733025  -23.252529  0
-8.854368  -55.527496  -23.078287  0
-8.307539  -55.657440  -23.131226  0
-7.928228  -55.538937  -23.197268  0
-7.205690  -55.681179  -23.468273  0
-7.533599  -55.406250  -23.320135  0
-9.755345  -55.980289  -23.542681  0
-9.551534  -56.347725  -23.638578  0
-9.367656  -56.112946  -23.374790  0
-9.114341  -56.359936  -23.486990  0
-8.958882  -56.023045  -23.252359  0
-8.612001  -56.333683  -23.431456  0
-8.443228  -55.981628  -23.225574  0
-8.085846  -56.320568  -23.430372  0
-7.954655  -55.945702  -23.267307  0
-7.277702  -56.077469  -23.484232  0
-7.606136  -56.251099  -23.449696  0
-7.547528  -55.827126  -23.336483  0
-8.874983  -54.877872  -23.130459  0
-9.195711  -54.909954  -23.134794  0
-8.860353  -55.166153  -22.978140  0
-9.070347  -55.165848  -22.991806  0
-9.013192  -55.026402  -22.974352  0
7 11 0 0
1 9 0 0
0 9 7 0
1 14 9 0
11 13 0 0
0 13 1 0
1 13 15 0
1 15 14 0
25 31 2 0
3 27 2 0
2 27 25 0
4 29 3 0
3 29 27 0
4 33 29 0
2 31 5 0
5 31 37 0
2 6 3 0
2 5 6 0
3 8 4 0
3 6 8 0
33 4 34 0
4 10 34 0
4 8 10 0
10 40 34 0
37 39 5 0
45 12 39 0
12 5 39 0
12 6 5 0
12 11 7 0
8 12 7 0
6 12 8 0
8 7 9 0
8 9 10 0
16 41 14 0
14 41 9 0
41 40 9 0
40 10 9 0
16 48 41 0
45 47 12 0
47 52 17 0
47 17 13 0
12 47 13 0
11 12 13 0
18 15 13 0
18 13 17 0
18 54 15 0
15 54 14 0
54 49 14 0
49 16 14 0
16 49 48 0
17 52 19 0
19 52 58 0
17 20 18 0
17 19 20 0
54 18 61 0
61 18 20 0
58 60 19 0
19 60 20 0
20 60 62 0
20 62 61 0
65 72 21 0
22 67 21 0
21 67 65 0
23 69 22 0
22 69 67 0
23 76 69 0
72 74 21 0
21 74 22 0
22 74 75 0
79 24 75 0
24 22 75 0
24 23 22 0
76 23 81 0
81 23 24 0
79 82 24 0
24 82 81 0
88 92 26 0
28 89 26 0
26 89 88 0
30 91 28 0
28 91 89 0
30 95 91 0
93 97 32 0
93 32 92 0
92 32 26 0
32 31 26 0
31 25 26 0
26 25 27 0
26 27 28 0
28 27 29 0
28 29 30 0
35 96 33 0
33 96 29 0
96 95 29 0
95 30 29 0
35 100 96 0
98 103 36 0
98 36 97 0
36 32 97 0
36 38 32 0
38 37 31 0
38 31 32 0
34 35 33 0
42 101 40 0
40 101 34 0
101 100 34 0
100 35 34 0
42 105 101 0
36 103 43 0
43 103 107 0
36 44 38 0
36 43 44 0
46 39 37 0
38 46 37 0
44 46 38 0
46 45 39 0
41 42 40 0
41 48 42 0
48 105 42 0
48 110 105 0
107 109 43 0
112 50 109 0
50 43 109 0
50 44 43 0
44 51 46 0
44 50 51 0
53 47 45 0
46 53 45 0
51 53 46 0
53 52 47 0
54 55 49 0
55 114 49 0
114 48 49 0
114 110 48 0
50 112 56 0
56 112 116 0
50 57 51 0
50 56 57 0
51 59 53 0
51 57 59 0
59 58 52 0
59 52 53 0
61 63 55 0
61 55 54 0
114 55 119 0
119 55 63 0
56 116 64 0
64 116 121 0
118 57 123 0
57 64 123 0
57 56 64 0
125 66 118 0
66 57 118 0
66 59 57 0
68 60 58 0
59 68 58 0
66 68 59 0
70 62 60 0
70 60 68 0
63 61 62 0
70 63 62 0
71 63 70 0
119 63 128 0
128 63 71 0
121 124 64 0
64 130 124 0
64 73 130 0
64 123 126 0
73 64 126 0
126 73 125 0
125 73 66 0
73 72 66 0
72 65 66 0
66 65 67 0
66 67 68 0
68 67 69 0
68 69 70 0
70 69 76 0
77 70 76 0
71 70 77 0
128 71 133 0
133 71 77 0
130 132 73 0
132 136 78 0
132 78 74 0
73 132 74 0
72 73 74 0
80 75 74 0
80 74 78 0
80 79 75 0
81 83 77 0
81 77 76 0
133 77 138 0
138 77 83 0
78 136 84 0
84 136 141 0
78 85 80 0
78 84 85 0
86 82 79 0
80 86 79 0
85 86 80 0
86 144 82 0
82 144 81 0
144 139 81 0
139 83 81 0
83 139 138 0
141 143 84 0
147 87 143 0
87 84 143 0
87 85 84 0
145 86 149 0
86 87 149 0
86 85 87 0
86 145 144 0
147 150 87 0
87 150 149 0
153 156 90 0
90 159 153 0
154 161 94 0
92 88 94 0
88 154 94 0
88 157 154 0
89 90 156 0
157 89 156 0
88 89 157 0
160 159 90 0
89 160 90 0
91 160 89 0
91 95 160 0
160 95 164 0
162 169 99 0
162 99 161 0
161 99 94 0
99 97 94 0
97 93 94 0
94 93 92 0
165 164 95 0
165 95 96 0
96 100 165 0
165 100 172 0
167 175 102 0
104 170 102 0
102 170 167 0
170 104 169 0
169 104 99 0
104 103 99 0
103 98 99 0
99 98 97 0
173 172 100 0
173 100 101 0
101 105 173 0
173 105 177 0
102 175 106 0
106 175 179 0
102 108 104 0
102 106 108 0
108 107 103 0
108 103 104 0
110 111 178 0
177 110 178 0
105 110 177 0
111 183 178 0
179 181 106 0
106 181 108 0
108 181 182 0
182 185 113 0
182 113 109 0
108 182 109 0
107 108 109 0
113 112 109 0
114 115 111 0
114 111 110 0
183 111 187 0
187 111 115 0
113 185 117 0
117 185 189 0
117 116 112 0
117 112 113 0
119 120 115 0
119 115 114 0
187 115 191 0
191 115 120 0
117 189 122 0
122 189 192 0
122 121 116 0
122 116 117 0
123 127 118 0
127 125 118 0
128 129 120 0
128 120 119 0
191 120 195 0
195 120 129 0
192 194 122 0
194 196 131 0
194 131 124 0
122 194 124 0
121 122 124 0
131 123 124 0
131 127 123 0
131 130 126 0
127 131 126 0
127 126 125 0
133 134 129 0
133 129 128 0
195 129 198 0
198 129 134 0
131 196 135 0
135 196 199 0
137 132 130 0
131 137 130 0
135 137 131 0
137 136 132 0
138 140 134 0
138 134 133 0
198 134 202 0
202 134 140 0
199 201 135 0
204 142 201 0
142 135 201 0
142 137 135 0
142 141 136 0
142 136 137 0
144 146 139 0
146 207 139 0
139 207 138 0
207 203 138 0
203 140 138 0
140 203 202 0
204 206 142 0
206 210 148 0
206 148 143 0
142 206 143 0
141 142 143 0
148 147 143 0
149 151 145 0
151 213 145 0
145 213 144 0
213 208 144 0
208 146 144 0
146 208 207 0
210 212 148 0
212 217 152 0
212 152 150 0
148 212 150 0
147 148 150 0
152 219 150 0
150 219 149 0
219 214 149 0
214 151 149 0
151 214 213 0
217 220 152 0
152 220 219 0
222 225 155 0
158 223 155 0
155 223 222 0
156 153 158 0
153 223 158 0
153 224 223 0
153 159 224 0
224 159 228 0
226 234 163 0
226 163 225 0
225 163 155 0
163 161 155 0
161 154 155 0
155 154 157 0
155 157 158 0
158 157 156 0
229 228 159 0
229 159 160 0
166 231 164 0
231 160 164 0
231 229 160 0
166 237 231 0
232 239 168 0
171 235 168 0
168 235 232 0
235 171 234 0
234 171 163 0
171 169 163 0
169 162 163 0
163 162 161 0
165 166 164 0
174 238 172 0
172 238 165 0
238 237 165 0
237 166 165 0
174 242 238 0
240 243 176 0
240 176 239 0
239 176 168 0
176 175 168 0
175 167 168 0
168 167 170 0
168 170 171 0
171 170 169 0
173 174 172 0
173 177 174 0
177 242 174 0
177 244 242 0
176 243 180 0
180 243 246 0
180 179 175 0
180 175 176 0
245 244 177 0
245 177 178 0
178 183 245 0
245 183 249 0
246 248 180 0
248 251 184 0
248 184 181 0
180 248 181 0
179 180 181 0
186 182 181 0
186 181 184 0
186 185 182 0
187 249 183 0
187 253 249 0
184 251 188 0
188 251 254 0
184 190 186 0
184 188 190 0
190 189 185 0
190 185 186 0
191 253 187 0
191 257 253 0
254 256 188 0
258 193 256 0
193 188 256 0
193 190 188 0
193 192 189 0
193 189 190 0
195 257 191 0
195 261 257 0
258 260 193 0
260 263 197 0
260 197 194 0
193 260 194 0
192 193 194 0
197 196 194 0
198 261 195 0
198 265 261 0
197 263 200 0
200 263 267 0
200 199 196 0
200 196 197 0
202 265 198 0
202 270 265 0
267 269 200 0
269 271 205 0
269 205 201 0
200 269 201 0
199 200 201 0
205 204 201 0
207 209 203 0
209 274 203 0
274 202 203 0
274 270 202 0
271 273 205 0
273 277 211 0
273 211 206 0
205 273 206 0
204 205 206 0
211 210 206 0
213 215 208 0
215 279 208 0
208 279 207 0
279 275 207 0
275 209 207 0
209 275 274 0
211 277 216 0
216 277 281 0
218 212 210 0
211 218 210 0
216 218 211 0
218 217 212 0
219 221 214 0
221 286 214 0
214 286 213 0
286 280 213 0
280 215 213 0
215 280 279 0
281 283 216 0
216 283 218 0
218 283 284 0
218 284 217 0
284 220 217 0
284 285 220 0
219 220 221 0
220 287 221 0
220 285 287 0
221 287 286 0
290 296 227 0
225 222 227 0
222 290 227 0
222 291 290 0
292 222 223 0
292 291 222 0
293 223 224 0
293 292 223 0
230 294 228 0
294 224 228 0
294 293 224 0
230 299 294 0
295 302 233 0
236 297 233 0
233 297 295 0
297 236 296 0
296 236 227 0
236 234 227 0
234 226 227 0
227 226 225 0
229 230 228 0
301 299 230 0
229 301 230 0
231 301 229 0
231 237 301 0
301 237 304 0
303 307 241 0
303 241 302 0
302 241 233 0
241 239 233 0
239 232 233 0
233 232 235 0
233 235 236 0
236 235 234 0
306 304 237 0
306 237 238 0
238 242 306 0
306 242 308 0
241 307 240 0
307 243 240 0
307 310 243 0
241 240 239 0
244 308 242 0
244 313 308 0
311 314 247 0
310 311 247 0
246 310 247 0
243 310 246 0
244 245 250 0
316 244 250 0
313 244 316 0
249 250 245 0
314 315 247 0
315 318 252 0
315 252 248 0
247 315 248 0
246 247 248 0
252 251 248 0
317 316 250 0
250 249 317 0
249 320 317 0
249 253 320 0
252 318 255 0
255 318 322 0
255 254 251 0
255 251 252 0
257 320 253 0
257 325 320 0
322 324 255 0
324 327 259 0
324 259 256 0
255 324 256 0
254 255 256 0
259 258 256 0
261 325 257 0
261 329 325 0
259 327 262 0
262 327 331 0
264 260 258 0
259 264 258 0
262 264 259 0
264 263 260 0
334 330 266 0
330 329 266 0
329 265 266 0
329 261 265 0
331 333 262 0
336 268 333 0
268 262 333 0
268 264 262 0
268 267 263 0
268 263 264 0
335 334 266 0
266 265 335 0
265 339 335 0
265 270 339 0
336 338 268 0
338 341 272 0
338 272 269 0
268 338 269 0
267 268 269 0
272 271 269 0
274 339 270 0
274 343 339 0
272 341 276 0
276 341 346 0
278 273 271 0
272 278 271 0
276 278 272 0
278 277 273 0
349 344 275 0
349 275 279 0
274 275 343 0
343 275 344 0
346 348 276 0
352 282 348 0
282 276 348 0
282 278 276 0
282 281 277 0
282 277 278 0
356 350 280 0
356 280 286 0
279 280 349 0
349 280 350 0
352 354 282 0
354 359 288 0
354 288 283 0
282 354 283 0
281 282 283 0
289 284 283 0
289 283 288 0
284 289 362 0
355 284 362 0
285 284 355 0
285 357 287 0
355 357 285 0
286 287 356 0
356 287 357 0
359 361 288 0
288 361 289 0
289 361 363 0
289 363 362 0
364 369 298 0
296 290 298 0
290 364 298 0
290 365 364 0
366 290 291 0
366 365 290 0
367 291 292 0
367 366 291 0
368 292 293 0
368 367 292 0
371 368 300 0
368 294 300 0
368 293 294 0
299 300 294 0
370 374 295 0
295 374 302 0
297 298 369 0
370 297 369 0
295 297 370 0
298 297 296 0
373 371 300 0
377 373 305 0
305 373 301 0
373 300 301 0
300 299 301 0
304 305 301 0
375 380 303 0
303 380 307 0
303 302 374 0
303 374 375 0
379 377 305 0
383 379 309 0
309 379 306 0
379 305 306 0
305 304 306 0
308 309 306 0
381 386 312 0
380 381 312 0
310 380 312 0
307 380 310 0
385 383 309 0
309 308 385 0
308 387 385 0
308 313 387 0
312 386 311 0
386 314 311 0
386 389 314 0
312 311 310 0
316 387 313 0
316 390 387 0
315 314 319 0
314 392 319 0
314 389 392 0
319 318 315 0
316 317 321 0
393 316 321 0
390 316 393 0
320 321 317 0
319 392 323 0
323 392 394 0
323 322 318 0
323 318 319 0
393 321 326 0
393 326 396 0
325 326 320 0
320 326 321 0
394 395 323 0
395 399 328 0
395 328 324 0
323 395 324 0
322 323 324 0
328 327 324 0
398 396 326 0
326 325 398 0
325 401 398 0
325 329 401 0
328 399 332 0
332 399 404 0
332 331 327 0
332 327 328 0
406 402 330 0
406 330 334 0
329 330 401 0
401 330 402 0
404 405 332 0
405 408 337 0
405 337 333 0
332 405 333 0
331 332 333 0
337 336 333 0
334 335 340 0
411 334 340 0
406 334 411 0
339 340 335 0
408 410 337 0
410 413 342 0
410 342 338 0
337 410 338 0
336 337 338 0
342 341 338 0
411 340 345 0
411 345 415 0
343 345 339 0
339 345 340 0
342 413 347 0
347 413 418 0
347 346 341 0
347 341 342 0
420 416 351 0
351 416 415 0
351 415 345 0
349 351 345 0
344 349 345 0
344 345 343 0
418 419 347 0
419 423 353 0
419 353 348 0
347 419 348 0
346 347 348 0
353 352 348 0
425 421 358 0
358 421 420 0
358 420 351 0
356 358 351 0
350 356 351 0
350 351 349 0
423 424 353 0
424 427 360 0
424 360 354 0
353 424 354 0
352 353 354 0
360 359 354 0
430 426 355 0
430 355 362 0
358 357 425 0
357 426 425 0
357 355 426 0
357 358 356 0
427 428 360 0
360 428 359 0
428 361 359 0
428 429 361 0
361 431 363 0
429 431 361 0
362 363 430 0
430 363 431 0
432 437 364 0
364 437 369 0
433 364 365 0
433 432 364 0
434 365 366 0
434 433 365 0
435 366 367 0
435 434 366 0
439 435 372 0
435 368 372 0
435 367 368 0
371 372 368 0
436 442 376 0
374 370 376 0
370 436 376 0
370 438 436 0
370 369 437 0
370 437 438 0
441 439 372 0
444 441 378 0
378 441 373 0
441 372 373 0
372 371 373 0
377 378 373 0
443 447 382 0
443 382 442 0
442 382 376 0
382 380 376 0
380 375 376 0
376 375 374 0
446 444 378 0
448 446 384 0
384 446 379 0
446 378 379 0
378 377 379 0
383 384 379 0
382 447 381 0
447 386 381 0
447 451 386 0
382 381 380 0
450 448 384 0
452 450 388 0
388 450 385 0
450 384 385 0
384 383 385 0
387 388 385 0
451 389 386 0
454 389 451 0
452 388 391 0
452 391 456 0
390 391 387 0
387 391 388 0
454 392 389 0
459 392 454 0
458 456 391 0
391 390 458 0
390 461 458 0
390 393 461 0
459 394 392 0
464 394 459 0
466 462 397 0
462 461 397 0
461 396 397 0
461 393 396 0
395 394 400 0
394 469 400 0
394 464 469 0
400 399 395 0
468 466 397 0
471 468 403 0
403 468 398 0
468 397 398 0
397 396 398 0
401 403 398 0
469 470 400 0
399 400 470 0
474 399 470 0
404 399 474 0
476 472 407 0
407 472 471 0
407 471 403 0
406 407 403 0
402 406 403 0
402 403 401 0
405 404 409 0
404 478 409 0
404 474 478 0
409 408 405 0
476 407 412 0
476 412 480 0
411 412 406 0
406 412 407 0
478 479 409 0
479 482 414 0
479 414 410 0
409 479 410 0
408 409 410 0
414 413 410 0
480 412 417 0
480 417 485 0
415 417 411 0
411 417 412 0
482 484 414 0
413 414 484 0
488 413 484 0
418 413 488 0
491 486 422 0
422 486 485 0
422 485 417 0
420 422 417 0
416 420 417 0
416 417 415 0
488 490 418 0
418 490 419 0
423 419 490 0
423 490 493 0
491 422 421 0
425 491 421 0
496 491 425 0
421 422 420 0
493 495 423 0
423 495 424 0
427 424 495 0
427 495 499 0
503 497 426 0
503 426 430 0
425 426 496 0
496 426 497 0
499 501 427 0
427 501 428 0
428 502 429 0
501 502 428 0
429 504 431 0
502 504 429 0
430 431 503 0
503 431 504 0
506 510 432 0
432 510 437 0
507 432 433 0
507 506 432 0
508 433 434 0
508 507 433 0
514 508 440 0
508 435 440 0
508 434 435 0
439 440 435 0
509 517 436 0
436 517 442 0
511 436 438 0
511 509 436 0
438 437 510 0
438 510 511 0
516 514 440 0
520 516 445 0
445 516 441 0
516 440 441 0
440 439 441 0
444 445 441 0
518 523 443 0
443 523 447 0
443 442 517 0
443 517 518 0
522 520 445 0
525 522 449 0
449 522 446 0
522 445 446 0
445 444 446 0
448 449 446 0
523 451 447 0
528 451 523 0
527 525 449 0
531 527 453 0
453 527 450 0
527 449 450 0
449 448 450 0
452 453 450 0
529 533 455 0
528 529 455 0
454 528 455 0
451 528 454 0
531 453 457 0
531 457 535 0
456 457 452 0
452 457 453 0
455 533 460 0
460 533 538 0
460 459 454 0
460 454 455 0
537 535 457 0
539 537 463 0
463 537 458 0
537 457 458 0
457 456 458 0
461 463 458 0
460 538 465 0
465 538 542 0
465 464 459 0
465 459 460 0
545 540 467 0
467 540 539 0
467 539 463 0
466 467 463 0
462 466 463 0
462 463 461 0
542 544 465 0
464 465 544 0
548 464 544 0
469 464 548 0
547 545 467 0
550 547 473 0
473 547 468 0
547 467 468 0
467 466 468 0
471 473 468 0
470 469 475 0
469 553 475 0
469 548 553 0
475 474 470 0
555 551 477 0
477 551 550 0
477 550 473 0
476 477 473 0
472 476 473 0
472 473 471 0
553 554 475 0
474 475 554 0
556 474 554 0
478 474 556 0
555 477 481 0
555 481 557 0
480 481 476 0
476 481 477 0
479 478 483 0
478 558 483 0
478 556 558 0
483 482 479 0
557 481 487 0
557 487 560 0
485 487 480 0
480 487 481 0
558 559 483 0
559 563 489 0
559 489 484 0
483 559 484 0
482 483 484 0
489 488 484 0
565 561 492 0
492 561 560 0
492 560 487 0
491 492 487 0
486 491 487 0
486 487 485 0
563 564 489 0
564 566 494 0
564 494 490 0
489 564 490 0
488 489 490 0
494 493 490 0
565 492 498 0
565 498 568 0
496 498 491 0
491 498 492 0
566 567 494 0
567 571 500 0
567 500 495 0
494 567 495 0
493 494 495 0
500 499 495 0
574 569 505 0
505 569 568 0
505 568 498 0
503 505 498 0
497 503 498 0
497 498 496 0
571 572 500 0
500 572 499 0
572 501 499 0
572 573 501 0
501 575 502 0
573 575 501 0
505 504 574 0
504 575 574 0
504 502 575 0
504 505 503 0
512 510 506 0
507 513 506 0
506 513 512 0
508 515 507 0
507 515 513 0
514 515 508 0
519 517 509 0
519 509 581 0
509 577 581 0
509 511 577 0
511 510 512 0
578 511 512 0
577 511 578 0
578 512 513 0
578 513 579 0
579 513 515 0
579 515 580 0
585 580 521 0
521 580 516 0
580 515 516 0
515 514 516 0
520 521 516 0
524 523 518 0
588 524 518 0
588 518 517 0
582 588 517 0
519 582 517 0
582 519 581 0
587 585 521 0
591 587 526 0
526 587 522 0
587 521 522 0
521 520 522 0
525 526 522 0
589 593 524 0
593 523 524 0
593 528 523 0
589 524 588 0
591 526 530 0
591 530 596 0
527 532 525 0
532 526 525 0
532 530 526 0
531 532 527 0
594 598 529 0
529 598 533 0
529 528 593 0
529 593 594 0
596 530 534 0
596 534 600 0
536 530 532 0
534 530 536 0
535 536 531 0
531 536 532 0
598 538 533 0
604 538 598 0
602 600 534 0
602 534 536 0
602 536 603 0
608 603 541 0
541 603 537 0
603 536 537 0
536 535 537 0
539 541 537 0
605 611 543 0
604 605 543 0
542 604 543 0
538 604 542 0
613 609 546 0
546 609 608 0
546 608 541 0
545 546 541 0
540 545 541 0
540 541 539 0
611 612 543 0
612 615 549 0
612 549 544 0
543 612 544 0
542 543 544 0
549 548 544 0
614 613 546 0
618 614 552 0
552 614 547 0
614 546 547 0
546 545 547 0
550 552 547 0
615 617 549 0
548 549 617 0
620 548 617 0
553 548 620 0
618 552 551 0
555 618 551 0
623 618 555 0
551 552 550 0
620 622 553 0
553 622 554 0
556 554 622 0
556 622 625 0
557 623 555 0
557 627 623 0
625 558 556 0
630 558 625 0
632 628 562 0
628 627 562 0
627 560 562 0
627 557 560 0
630 631 558 0
558 631 559 0
563 559 631 0
563 631 633 0
632 562 561 0
565 632 561 0
635 632 565 0
561 562 560 0
633 634 563 0
563 634 564 0
566 564 634 0
566 634 638 0
640 636 570 0
636 635 570 0
635 568 570 0
635 565 568 0
638 639 566 0
566 639 567 0
571 567 639 0
571 639 643 0
646 641 576 0
576 641 640 0
576 640 570 0
574 576 570 0
569 574 570 0
569 570 568 0
643 644 571 0
571 644 572 0
572 647 573 0
644 647 572 0
576 575 646 0
575 647 646 0
575 573 647 0
575 576 574 0
583 581 577 0
583 577 650 0
577 649 650 0
577 578 649 0
652 649 584 0
649 579 584 0
649 578 579 0
580 586 579 0
579 586 584 0
585 586 580 0
590 588 582 0
658 590 582 0
658 582 581 0
651 658 581 0
583 651 581 0
651 583 650 0
654 652 584 0
654 584 586 0
654 586 655 0
662 655 592 0
592 655 587 0
655 586 587 0
586 585 587 0
591 592 587 0
656 664 595 0
593 589 595 0
589 656 595 0
589 657 656 0
589 588 590 0
659 589 590 0
657 589 659 0
659 590 658 0
662 592 597 0
662 597 667 0
596 597 591 0
591 597 592 0
665 669 599 0
665 599 664 0
664 599 595 0
599 598 595 0
598 594 595 0
595 594 593 0
667 597 601 0
667 601 670 0
600 601 596 0
596 601 597 0
599 669 606 0
606 669 673 0
606 604 598 0
606 598 599 0
672 670 601 0
674 672 607 0
607 672 602 0
672 601 602 0
601 600 602 0
603 610 602 0
602 610 607 0
608 610 603 0
606 673 605 0
673 611 605 0
673 677 611 0
606 605 604 0
676 674 607 0
613 678 609 0
678 607 609 0
607 610 609 0
678 676 607 0
609 610 608 0
612 611 616 0
611 680 616 0
611 677 680 0
616 615 612 0
613 614 619 0
682 613 619 0
678 613 682 0
618 619 614 0
680 681 616 0
681 684 621 0
681 621 617 0
616 681 617 0
615 616 617 0
621 620 617 0
682 619 624 0
682 624 687 0
623 624 618 0
618 624 619 0
684 685 621 0
685 689 626 0
685 626 622 0
621 685 622 0
620 621 622 0
626 625 622 0
687 624 629 0
687 629 692 0
627 629 623 0
623 629 624 0
689 690 626 0
625 626 690 0
694 625 690 0
630 625 694 0
692 629 628 0
632 692 628 0
697 692 632 0
628 629 627 0
694 695 630 0
630 695 631 0
633 631 695 0
633 695 700 0
703 698 637 0
698 697 637 0
697 635 637 0
697 632 635 0
700 701 633 0
633 701 634 0
638 634 701 0
638 701 706 0
711 704 642 0
642 704 703 0
642 703 637 0
640 642 637 0
636 640 637 0
636 637 635 0
706 707 638 0
638 707 639 0
709 645 643 0
639 709 643 0
707 709 639 0
712 648 645 0
712 645 709 0
648 712 711 0
648 711 642 0
646 648 642 0
641 646 642 0
641 642 640 0
645 644 643 0
644 645 647 0
647 645 648 0
647 648 646 0
653 650 649 0
652 653 649 0
660 658 651 0
718 660 651 0
718 651 650 0
714 718 650 0
653 714 650 0
720 714 661 0
661 714 654 0
714 653 654 0
653 652 654 0
655 663 654 0
654 663 661 0
662 663 655 0
715 722 656 0
656 722 664 0
716 656 657 0
716 715 656 0
717 657 659 0
717 716 657 0
659 658 660 0
719 659 660 0
717 659 719 0
719 660 718 0
720 661 666 0
720 666 727 0
668 661 663 0
666 661 668 0
667 668 662 0
662 668 663 0
723 730 665 0
665 730 669 0
665 664 722 0
665 722 723 0
729 727 666 0
671 732 729 0
666 671 729 0
668 671 666 0
670 671 667 0
667 671 668 0
730 673 669 0
735 673 730 0
734 732 671 0
736 734 675 0
675 734 672 0
734 671 672 0
671 670 672 0
674 675 672 0
735 677 673 0
739 677 735 0
738 736 675 0
741 738 679 0
679 738 676 0
738 675 676 0
675 674 676 0
678 679 676 0
739 680 677 0
743 680 739 0
741 679 683 0
741 683 745 0
682 683 678 0
678 683 679 0
743 744 680 0
680 744 681 0
684 681 744 0
684 744 748 0
751 746 686 0
686 746 745 0
683 686 745 0
688 686 683 0
687 688 682 0
682 688 683 0
748 749 684 0
684 749 685 0
750 691 689 0
685 750 689 0
749 750 685 0
754 691 750 0
753 751 686 0
693 759 753 0
686 693 753 0
688 693 686 0
692 693 687 0
687 693 688 0
691 690 689 0
755 696 694 0
755 694 690 0
754 755 690 0
691 754 690 0
761 696 755 0
759 693 699 0
759 699 764 0
697 699 692 0
692 699 693 0
696 695 694 0
762 702 700 0
762 700 695 0
761 762 695 0
696 761 695 0
767 702 762 0
772 765 705 0
705 765 764 0
705 764 699 0
703 705 699 0
698 703 699 0
698 699 697 0
702 701 700 0
768 708 706 0
768 706 701 0
767 768 701 0
702 767 701 0
770 710 708 0
770 708 768 0
773 713 710 0
773 710 770 0
713 773 772 0
713 772 705 0
711 713 705 0
704 711 705 0
704 705 703 0
708 707 706 0
707 708 709 0
709 708 710 0
709 710 712 0
712 710 713 0
712 713 711 0
721 718 714 0
720 721 714 0
724 722 715 0
724 715 776 0
715 775 776 0
715 716 775 0
778 775 725 0
775 717 725 0
775 716 717 0
719 726 717 0
717 726 725 0
718 721 719 0
721 726 719 0
721 728 726 0
727 728 720 0
720 728 721 0
731 730 723 0
783 731 723 0
783 723 722 0
777 783 722 0
724 777 722 0
777 724 776 0
780 778 725 0
780 725 726 0
780 726 781 0
781 726 728 0
781 728 782 0
788 782 733 0
733 782 729 0
782 728 729 0
728 727 729 0
732 733 729 0
784 791 731 0
791 730 731 0
791 735 730 0
784 731 783 0
790 788 733 0
793 790 737 0
737 790 734 0
790 733 734 0
733 732 734 0
736 737 734 0
791 739 735 0
795 739 791 0
793 737 740 0
793 740 797 0
738 742 736 0
742 737 736 0
742 740 737 0
741 742 738 0
795 743 739 0
800 743 795 0
799 797 740 0
747 804 799 0
740 747 799 0
742 747 740 0
745 747 741 0
741 747 742 0
800 801 743 0
743 801 744 0
748 744 801 0
748 801 807 0
817 805 752 0
752 805 804 0
752 804 747 0
751 752 747 0
746 751 747 0
746 747 745 0
807 808 748 0
748 808 749 0
749 810 750 0
808 810 749 0
812 756 754 0
750 812 754 0
810 812 750 0
814 757 756 0
814 756 812 0
819 757 814 0
817 752 758 0
817 758 821 0
753 760 751 0
760 752 751 0
760 758 752 0
759 760 753 0
756 755 754 0
755 756 761 0
756 763 761 0
756 757 763 0
757 819 824 0
757 824 763 0
823 821 758 0
766 829 823 0
758 766 823 0
760 766 758 0
764 766 759 0
759 766 760 0
763 762 761 0
825 769 767 0
825 767 762 0
824 825 762 0
763 824 762 0
827 771 769 0
827 769 825 0
830 774 771 0
830 771 827 0
774 830 829 0
774 829 766 0
772 774 766 0
765 772 766 0
765 766 764 0
769 768 767 0
768 769 770 0
770 769 771 0
770 771 773 0
773 771 774 0
773 774 772 0
779 776 775 0
778 779 775 0
785 783 777 0
833 785 777 0
833 777 776 0
832 833 776 0
779 832 776 0
835 832 786 0
786 832 780 0
832 779 780 0
779 778 780 0
781 787 780 0
780 787 786 0
782 789 781 0
781 789 787 0
788 789 782 0
792 791 784 0
840 792 784 0
840 784 783 0
834 840 783 0
785 834 783 0
834 785 833 0
837 835 786 0
837 786 787 0
837 787 838 0
838 787 789 0
838 789 839 0
844 839 794 0
794 839 790 0
839 789 790 0
789 788 790 0
793 794 790 0
796 795 792 0
792 795 791 0
792 840 846 0
792 846 796 0
844 794 798 0
844 798 851 0
797 798 793 0
793 798 794 0
802 800 796 0
796 800 795 0
796 846 853 0
796 853 802 0
851 798 803 0
851 803 862 0
799 806 797 0
806 798 797 0
806 803 798 0
804 806 799 0
