#!ascii version in FreeSurfer format (SUMA)
706 1408
7.077830  -56.422237  -34.914970  0
6.839975  -56.498444  -34.874821  0
8.583924  -55.572491  -34.459572  0
8.132932  -55.567516  -34.444622  0
8.692033  -55.943562  -34.495399  0
8.242896  -55.926575  -34.592457  0
7.739252  -55.846966  -34.555347  0
7.247530  -56.284958  -34.841908  0
7.222333  -56.019695  -34.640053  0
6.817238  -56.225662  -34.715717  0
6.854991  -55.994854  -34.556271  0
8.334283  -56.429649  -34.579029  0
7.310056  -56.520145  -34.891178  0
7.686356  -56.346146  -34.739445  0
7.042959  -56.682148  -34.889179  0
6.481893  -56.536869  -34.666840  0
6.732583  -56.732048  -34.800194  0
6.212247  -56.486862  -34.466721  0
8.278116  -57.081177  -34.552029  0
7.817843  -56.940308  -34.687576  0
7.315870  -56.924915  -34.773048  0
6.831524  -57.054989  -34.682842  0
8.514593  -57.448189  -34.459473  0
8.127948  -57.613976  -34.592712  0
7.783643  -57.504860  -34.642601  0
7.431518  -57.383499  -34.673214  0
6.970086  -57.550171  -34.547588  0
8.271695  -57.999317  -34.539261  0
7.792438  -58.016708  -34.603512  0
7.298790  -57.950962  -34.551247  0
8.303030  -58.389828  -34.484406  0
7.933128  -58.435081  -34.521534  0
7.449260  -58.463863  -34.482269  0
9.200099  -54.970272  -34.008442  0
8.808247  -55.319935  -34.324657  0
8.767007  -55.000694  -34.121643  0
8.344930  -55.219105  -34.209473  0
8.425692  -54.953827  -34.047859  0
9.560243  -55.344105  -33.982853  0
8.982426  -55.654846  -34.363594  0
9.157646  -55.340416  -34.194786  0
7.942454  -55.393303  -34.217175  0
7.684889  -55.581978  -34.292149  0
7.633097  -55.431744  -34.036953  0
7.275884  -55.758808  -34.333790  0
6.924720  -55.878464  -34.398392  0
8.998171  -56.004288  -34.349373  0
9.392149  -55.924721  -34.113686  0
8.764131  -56.254398  -34.426044  0
6.589148  -56.009686  -34.288910  0
6.342313  -56.292656  -34.432262  0
9.681622  -56.326237  -33.884552  0
9.350902  -56.507473  -34.000244  0
8.677046  -56.663685  -34.395355  0
9.031274  -56.364628  -34.245251  0
6.096463  -56.484707  -34.175831  0
6.183937  -56.730892  -34.356609  0
8.643705  -57.047649  -34.383026  0
8.748470  -57.203011  -34.324612  0
8.991256  -56.941654  -34.156208  0
6.454558  -56.944946  -34.536240  0
6.181865  -57.137180  -34.145782  0
8.828410  -57.448883  -34.277859  0
9.141875  -57.475021  -34.022472  0
8.633482  -57.798592  -34.410442  0
6.470564  -57.476772  -34.248730  0
6.665223  -57.889755  -34.272018  0
6.192399  -57.423981  -33.970943  0
9.197590  -58.010189  -34.010101  0
8.583776  -58.181713  -34.409081  0
8.886707  -57.894936  -34.236820  0
6.884040  -58.058659  -34.380878  0
6.674596  -58.253712  -34.120155  0
9.273677  -58.362865  -33.939293  0
8.496626  -58.460217  -34.389423  0
8.842319  -58.422722  -34.170650  0
8.247792  -58.721073  -34.313061  0
7.662107  -58.808895  -34.359894  0
6.971395  -58.504463  -34.231232  0
7.267831  -58.810661  -34.281200  0
6.704111  -58.501564  -33.991241  0
8.283002  -59.035255  -34.043064  0
7.868620  -59.061325  -34.104534  0
7.420261  -59.055634  -34.089825  0
9.207203  -54.743702  -33.850231  0
9.229362  -54.576885  -33.586048  0
8.847429  -54.697098  -33.817833  0
8.733818  -54.485691  -33.497566  0
8.487809  -54.807343  -33.892673  0
9.487433  -54.924385  -33.840435  0
9.728750  -55.150089  -33.826115  0
9.806279  -54.959560  -33.609188  0
8.138437  -54.953762  -33.770905  0
7.805043  -55.248550  -33.860588  0
9.889297  -55.429440  -33.781277  0
10.194579  -55.453423  -33.524109  0
9.768186  -55.747284  -33.919025  0
7.451449  -55.407490  -33.757366  0
7.269990  -55.578629  -33.919163  0
7.210992  -55.490322  -33.545479  0
6.864288  -55.783363  -34.017956  0
10.318230  -55.914654  -33.482460  0
9.783611  -56.057053  -33.899696  0
9.921931  -56.244980  -33.774300  0
10.034455  -55.907139  -33.719238  0
6.507159  -55.944973  -33.725246  0
6.237011  -56.206532  -33.971619  0
9.875542  -56.423374  -33.740654  0
10.137090  -56.343170  -33.556347  0
9.723066  -56.662918  -33.711708  0
9.341988  -56.837555  -33.885540  0
6.067010  -56.467785  -33.757038  0
9.823869  -56.998543  -33.532948  0
9.253590  -57.100636  -33.899868  0
9.400707  -57.320469  -33.785984  0
9.520054  -57.036602  -33.713863  0
6.028549  -56.844120  -33.864838  0
9.454167  -57.702309  -33.792099  0
9.721099  -57.385300  -33.567154  0
6.070682  -57.296047  -33.749466  0
6.234622  -57.650620  -33.706020  0
9.491505  -58.148678  -33.799717  0
9.751943  -57.906113  -33.573513  0
6.470381  -57.978176  -33.927250  0
9.456098  -58.423531  -33.801659  0
9.695836  -58.384869  -33.588245  0
9.272518  -58.681057  -33.779045  0
8.691442  -58.864883  -34.006996  0
6.568294  -58.364548  -33.767296  0
6.765430  -58.690220  -33.756989  0
9.374415  -58.959522  -33.486309  0
8.542305  -59.126820  -33.809704  0
8.967057  -59.042747  -33.663113  0
8.120075  -59.250618  -33.725887  0
7.619894  -59.221191  -33.771400  0
7.068087  -58.921257  -33.965527  0
7.263331  -59.130268  -33.751438  0
9.298551  -54.316414  -33.157799  0
8.879769  -54.356079  -33.288689  0
10.204558  -54.474148  -32.992432  0
9.624452  -54.567337  -33.397911  0
9.954165  -54.746262  -33.370033  0
9.846644  -54.481098  -33.173824  0
8.528243  -54.428486  -33.156879  0
8.372062  -54.659927  -33.495323  0
10.627548  -54.808128  -32.967564  0
10.151982  -55.037006  -33.410152  0
10.403779  -55.258514  -33.306358  0
10.290742  -54.855450  -33.197491  0
7.966136  -54.897453  -33.222618  0
7.759955  -55.112720  -33.450020  0
7.433852  -55.338852  -33.411526  0
10.528269  -55.664494  -33.292858  0
10.711242  -55.316582  -33.075718  0
7.159520  -55.491386  -33.329041  0
7.234257  -55.492470  -33.075695  0
6.905077  -55.693050  -33.409653  0
10.524533  -56.139790  -33.286888  0
10.811384  -55.891972  -33.060963  0
6.549273  -55.927372  -33.360790  0
6.700651  -55.936867  -33.067287  0
6.328923  -56.214447  -33.365997  0
10.413020  -56.523731  -33.289986  0
10.748024  -56.459854  -33.053318  0
10.110960  -56.766773  -33.422024  0
6.089080  -56.666336  -33.396156  0
6.316723  -56.514679  -33.040142  0
10.744397  -57.005108  -32.984032  0
10.091789  -57.165073  -33.343819  0
10.429370  -56.877197  -33.186069  0
6.047190  -57.094772  -33.410553  0
6.208381  -56.894722  -33.049328  0
10.717325  -57.529373  -32.979717  0
10.063153  -57.636581  -33.342049  0
10.403374  -57.347034  -33.145367  0
6.100173  -57.437939  -33.425549  0
6.231206  -57.650520  -33.280430  0
6.192116  -57.325401  -33.108067  0
10.700937  -58.036758  -32.982521  0
10.035473  -58.133717  -33.357250  0
10.372211  -57.866005  -33.149349  0
6.412363  -58.025391  -33.401787  0
10.753689  -58.388577  -32.919712  0
9.968560  -58.456913  -33.361374  0
10.323984  -58.428864  -33.115223  0
9.789861  -58.754906  -33.338444  0
6.609590  -58.474335  -33.380959  0
6.749148  -58.731205  -33.409466  0
6.796923  -58.611233  -33.059948  0
9.591681  -59.033894  -33.232986  0
9.865921  -59.001282  -33.060364  0
9.250417  -59.172989  -33.295376  0
8.680161  -59.335052  -33.378468  0
8.140205  -59.422596  -33.249210  0
7.789963  -59.323040  -33.414131  0
6.983578  -58.938934  -33.467339  0
7.389431  -59.181656  -33.309010  0
7.097300  -58.898354  -32.970787  0
8.813281  -59.545082  -32.992214  0
8.454666  -59.565437  -33.017670  0
10.164356  -54.252838  -32.830158  0
10.209814  -54.061237  -32.566166  0
9.722726  -54.179913  -32.818352  0
9.712336  -53.967434  -32.454678  0
9.162507  -54.172768  -32.767284  0
8.816166  -54.277668  -32.930462  0
11.164028  -54.391747  -32.458206  0
10.501108  -54.422180  -32.819679  0
10.865412  -54.696747  -32.780876  0
10.813121  -54.339348  -32.596561  0
8.488119  -54.429180  -32.701977  0
8.216712  -54.647018  -32.940403  0
11.013447  -55.118542  -32.818058  0
11.211995  -54.799152  -32.575428  0
7.964175  -54.927410  -32.690907  0
7.628953  -55.210461  -32.961102  0
11.084534  -55.633198  -32.841953  0
11.385164  -55.432869  -32.591335  0
7.412465  -55.549206  -32.626011  0
7.028341  -55.737316  -32.897148  0
11.619244  -55.925140  -32.477711  0
11.092375  -56.138275  -32.840042  0
11.331379  -55.889801  -32.673931  0
6.883009  -55.930279  -32.802925  0
7.118651  -55.885899  -32.603989  0
6.720514  -56.208370  -32.778133  0
11.700633  -56.463100  -32.482334  0
11.080321  -56.650436  -32.821648  0
11.382913  -56.313725  -32.650982  0
6.512866  -56.663708  -32.747204  0
6.848215  -56.485909  -32.500710  0
11.737843  -56.993851  -32.509731  0
11.063584  -57.178349  -32.820515  0
11.400764  -56.823860  -32.658146  0
6.430379  -57.118114  -32.774963  0
6.744858  -56.865452  -32.491161  0
11.745235  -57.499569  -32.520931  0
11.045125  -57.700665  -32.836422  0
11.400091  -57.348728  -32.678757  0
6.434902  -57.652782  -32.916191  0
6.695615  -57.345867  -32.522881  0
11.747890  -57.938931  -32.479145  0
11.028724  -58.162113  -32.825855  0
11.388128  -57.855614  -32.675949  0
6.595546  -58.168896  -32.977402  0
6.792347  -58.277096  -32.698284  0
6.723490  -57.859715  -32.592609  0
10.970345  -58.439728  -32.801678  0
11.346498  -58.357590  -32.590549  0
10.779417  -58.687706  -32.746281  0
10.207808  -58.854782  -32.962414  0
6.981622  -58.560055  -32.651043  0
7.203683  -58.809566  -32.580887  0
10.873728  -58.959995  -32.438400  0
10.070356  -59.069176  -32.818760  0
10.456499  -59.012230  -32.626690  0
9.696483  -59.192333  -32.913906  0
9.221416  -59.409039  -32.938782  0
7.366043  -59.072182  -32.825756  0
7.742003  -59.316963  -32.882858  0
9.048512  -59.608112  -32.731289  0
9.351609  -59.560341  -32.565212  0
8.718390  -59.691006  -32.659306  0
8.125085  -59.527687  -32.884785  0
8.342178  -59.636257  -32.692852  0
10.321295  -53.800701  -32.139439  0
9.906285  -53.851051  -32.247398  0
11.233778  -54.243580  -32.324146  0
11.242793  -54.034702  -32.073967  0
10.619257  -54.000023  -32.396786  0
10.989077  -54.119434  -32.366150  0
10.775296  -53.886753  -32.176735  0
9.569641  -53.911449  -32.125809  0
9.336514  -54.068481  -32.423420  0
8.853806  -54.257172  -32.450745  0
11.446982  -54.514992  -32.292633  0
11.687440  -54.311024  -32.018810  0
8.544734  -54.441540  -32.390255  0
8.731369  -54.444328  -32.101379  0
8.323359  -54.683739  -32.370239  0
11.597557  -55.097618  -32.356449  0
11.817505  -54.821308  -32.099045  0
8.060510  -54.948799  -32.359722  0
8.251855  -54.963043  -32.073318  0
7.865600  -55.229839  -32.344131  0
11.680703  -55.539860  -32.378941  0
11.805395  -55.755455  -32.318851  0
11.930915  -55.479023  -32.157917  0
7.648195  -55.568222  -32.273434  0
7.891020  -55.494221  -32.024323  0
11.950807  -56.076759  -32.269993  0
12.203083  -55.888615  -32.025555  0
7.423107  -55.789951  -32.357693  0
7.673418  -55.844891  -32.028934  0
7.231275  -56.177017  -32.303276  0
12.032537  -56.659164  -32.313766  0
12.283255  -56.372295  -32.083195  0
7.079456  -56.630997  -32.261806  0
7.358913  -56.484142  -32.059250  0
12.062976  -57.178059  -32.336010  0
12.343397  -56.902527  -32.105312  0
6.996177  -57.075714  -32.248573  0
7.294635  -56.845112  -32.021027  0
12.044761  -57.643826  -32.330349  0
12.329018  -57.404392  -32.102474  0
6.968090  -57.584835  -32.270924  0
7.243417  -57.315067  -32.003418  0
11.997997  -57.937939  -32.320080  0
12.224042  -57.895649  -32.089962  0
11.867193  -58.233761  -32.298935  0
7.006521  -58.159824  -32.363987  0
7.246580  -57.861526  -32.027790  0
11.613928  -58.507614  -32.360096  0
11.840963  -58.549614  -32.140507  0
11.362487  -58.765205  -32.315483  0
7.142323  -58.546013  -32.385345  0
7.274092  -58.711319  -32.353695  0
7.357575  -58.497284  -32.127857  0
11.113330  -59.033031  -32.174824  0
11.444133  -58.984386  -31.998201  0
10.700881  -59.162312  -32.210125  0
10.164350  -59.209431  -32.507919  0
9.749303  -59.412567  -32.470078  0
7.472078  -58.973854  -32.446156  0
7.731019  -59.229919  -32.451035  0
7.743998  -59.019962  -32.085354  0
9.573701  -59.603035  -32.247963  0
9.897925  -59.545879  -32.045677  0
9.171776  -59.717545  -32.283779  0
8.809418  -59.755341  -32.310364  0
8.025913  -59.449158  -32.471867  0
8.470074  -59.650875  -32.286903  0
8.129896  -59.372829  -32.028271  0
11.327812  -53.787281  -31.591848  0
10.719712  -53.738297  -31.805342  0
10.280704  -53.700390  -31.812134  0
9.914638  -53.778568  -31.879658  0
11.618628  -54.018299  -31.850430  0
11.825154  -54.171322  -31.847429  0
11.849708  -54.030972  -31.603584  0
9.577636  -53.902782  -31.854122  0
9.758336  -53.909588  -31.580151  0
9.262924  -54.155209  -31.888744  0
12.004004  -54.484276  -31.811699  0
12.199007  -54.314606  -31.483860  0
8.950123  -54.441948  -31.813156  0
9.213760  -54.445705  -31.534294  0
8.712729  -54.710266  -31.806002  0
12.131045  -55.099762  -31.885120  0
12.328555  -54.811184  -31.597418  0
8.467925  -54.971527  -31.805029  0
8.725295  -54.970348  -31.551926  0
8.275997  -55.233898  -31.786148  0
12.207933  -55.545563  -31.923243  0
12.336283  -55.754253  -31.866276  0
12.452318  -55.465218  -31.674707  0
8.066030  -55.666115  -31.661833  0
8.372970  -55.425861  -31.471497  0
12.492592  -56.062706  -31.817722  0
12.733212  -55.860126  -31.514036  0
7.868236  -56.101791  -31.661781  0
7.584449  -56.256863  -31.917721  0
12.582998  -56.631645  -31.848660  0
12.791523  -56.340691  -31.563942  0
7.556718  -56.631805  -31.824842  0
7.762614  -56.442822  -31.659817  0
12.617823  -57.200672  -31.779085  0
12.832904  -56.841305  -31.529650  0
7.516433  -57.067059  -31.772356  0
7.766504  -56.821758  -31.563868  0
12.498174  -57.650829  -31.824251  0
7.492710  -57.577137  -31.755541  0
7.746129  -57.317181  -31.518826  0
12.451788  -58.079338  -31.658667  0
12.148084  -58.311954  -31.978178  0
7.533172  -58.139534  -31.782305  0
7.758603  -57.868683  -31.518364  0
12.057277  -58.552803  -31.928606  0
12.237402  -58.498383  -31.692621  0
11.862147  -58.789490  -31.861576  0
7.629208  -58.594254  -31.837852  0
7.780087  -58.801716  -31.785162  0
7.865555  -58.526939  -31.585079  0
11.630846  -59.040676  -31.724848  0
11.903980  -58.981583  -31.518404  0
11.193308  -59.180885  -31.789682  0
10.785070  -59.282532  -31.867546  0
10.344995  -59.390133  -31.978354  0
7.977584  -59.034958  -31.774742  0
8.189693  -59.278984  -31.781313  0
8.246009  -59.045197  -31.545000  0
10.115367  -59.591511  -31.712971  0
10.438685  -59.543228  -31.516357  0
9.679728  -59.712803  -31.769873  0
9.289465  -59.765900  -31.844217  0
8.426092  -59.466679  -31.841114  0
8.892793  -59.684963  -31.870899  0
8.624148  -59.383236  -31.535851  0
11.664505  -53.790939  -31.194538  0
11.196980  -53.682537  -31.193562  0
10.859558  -53.671726  -31.391289  0
10.293285  -53.742413  -31.452368  0
12.047838  -54.001484  -31.295372  0
12.298479  -54.205597  -31.126976  0
9.985956  -53.903439  -31.300964  0
10.251763  -53.914497  -31.060717  0
9.732576  -54.168083  -31.268507  0
12.441768  -54.552971  -31.311590  0
9.482170  -54.452229  -31.254297  0
9.754602  -54.450882  -31.000462  0
9.236356  -54.716507  -31.281380  0
12.625002  -55.001705  -31.302389  0
12.811957  -54.910080  -30.967945  0
8.988145  -54.967770  -31.304367  0
9.253255  -54.966808  -31.053541  0
8.749496  -55.205608  -31.302340  0
12.727054  -55.470608  -31.390518  0
12.885260  -55.644447  -31.247852  0
12.865575  -55.272781  -31.116066  0
8.528111  -55.427109  -31.287449  0
8.719217  -55.465935  -31.076866  0
8.372675  -55.662815  -31.271046  0
12.954415  -55.997250  -31.233418  0
8.139672  -56.023746  -31.349741  0
8.366991  -55.972908  -31.091192  0
12.999690  -56.474590  -31.204590  0
8.002735  -56.501945  -31.370195  0
8.286139  -56.334641  -31.075981  0
12.988341  -56.992138  -31.094927  0
12.835372  -57.253551  -31.422609  0
7.992550  -57.057514  -31.292706  0
8.242976  -56.819504  -31.053148  0
12.707872  -57.687725  -31.395130  0
12.890878  -57.421669  -31.142370  0
7.992151  -57.591290  -31.273409  0
8.233232  -57.338692  -31.033861  0
12.615546  -58.065216  -31.315191  0
8.044781  -58.152687  -31.298180  0
8.260322  -57.878277  -31.044065  0
12.476799  -58.403084  -31.245512  0
12.183712  -58.770168  -31.417997  0
8.147156  -58.607391  -31.352352  0
8.304269  -58.808521  -31.312601  0
8.379897  -58.518757  -31.111383  0
12.025940  -59.024906  -31.130749  0
11.614940  -59.175968  -31.351278  0
11.270229  -59.289394  -31.406506  0
10.875504  -59.400581  -31.468338  0
8.500673  -59.034237  -31.297892  0
8.709565  -59.272045  -31.301838  0
8.757234  -59.027317  -31.022598  0
10.621200  -59.590248  -31.192076  0
10.909462  -59.536102  -30.998522  0
10.166798  -59.708279  -31.230385  0
9.764340  -59.768276  -31.314318  0
8.923387  -59.469578  -31.348803  0
9.369774  -59.703037  -31.360558  0
9.119115  -59.408985  -30.964815  0
11.697973  -53.800682  -30.840660  0
11.301427  -53.756332  -30.878054  0
10.761908  -53.753078  -31.019409  0
12.011512  -53.923046  -30.967976  0
12.244596  -54.144829  -30.647528  0
11.886769  -53.918251  -30.664242  0
11.501018  -53.899334  -30.570024  0
10.542416  -53.920708  -30.821102  0
10.908446  -53.958454  -30.628048  0
10.268485  -54.187347  -30.771570  0
12.590488  -54.538982  -30.921137  0
12.845259  -54.745731  -30.609640  0
10.020046  -54.452675  -30.751965  0
10.264674  -54.462688  -30.528934  0
9.770765  -54.711201  -30.779163  0
12.952325  -55.076984  -30.811941  0
9.517312  -54.965233  -30.805281  0
9.778947  -54.963684  -30.555632  0
9.245595  -55.235909  -30.817513  0
13.020172  -55.502651  -30.874647  0
8.930856  -55.571331  -30.822021  0
9.260600  -55.573223  -30.575306  0
8.615421  -55.768261  -30.960114  0
13.094078  -55.998138  -30.812208  0
9.210261  -55.912300  -30.457321  0
8.570427  -56.137310  -30.855423  0
8.894882  -55.872009  -30.701271  0
13.101079  -56.489079  -30.752623  0
8.523652  -56.595093  -30.809381  0
8.892599  -56.313042  -30.563871  0
13.058172  -56.880177  -30.642193  0
8.487564  -57.098049  -30.795105  0
8.775087  -56.854080  -30.558186  0
12.953943  -57.328869  -30.727207  0
12.839244  -57.670547  -30.961697  0
8.484518  -57.603516  -30.792738  0
8.735143  -57.352982  -30.551142  0
12.698880  -58.025654  -30.929619  0
8.526668  -58.114258  -30.812672  0
8.734002  -57.848667  -30.552731  0
12.546252  -58.441425  -30.670921  0
12.327419  -58.781532  -30.940229  0
8.633697  -58.543079  -30.836826  0
8.820986  -58.731857  -30.688692  0
8.768776  -58.333202  -30.586760  0
12.104019  -59.048645  -30.634151  0
11.741188  -59.228119  -30.801022  0
11.288047  -59.378757  -30.996758  0
9.005919  -59.063354  -30.661093  0
9.239021  -59.345463  -30.585354  0
11.010998  -59.553669  -30.608526  0
10.604151  -59.680431  -30.767847  0
10.197824  -59.753792  -30.703440  0
9.407990  -59.585449  -30.831608  0
9.779876  -59.725964  -30.879223  0
12.230594  -54.244904  -30.117960  0
11.847325  -54.066006  -30.340961  0
11.293214  -54.157768  -30.227160  0
10.690748  -54.269955  -30.390623  0
12.587536  -54.430733  -30.361423  0
12.839059  -54.703876  -30.128117  0
11.383336  -54.357647  -29.878489  0
10.532645  -54.469139  -30.299519  0
10.885966  -54.458317  -30.061657  0
10.290524  -54.710258  -30.292494  0
13.006310  -55.055008  -30.453251  0
10.038345  -54.959496  -30.306276  0
10.288183  -54.961262  -30.049219  0
9.791910  -55.247875  -30.312561  0
13.091374  -55.487083  -30.378281  0
9.534005  -55.658306  -30.303942  0
9.873860  -55.509014  -30.037165  0
13.113503  -55.981037  -30.329552  0
9.423380  -55.898144  -30.282948  0
9.655223  -55.851978  -30.034754  0
9.303590  -56.181068  -30.242994  0
13.074965  -56.471825  -30.292366  0
9.086105  -56.628979  -30.307491  0
9.339684  -56.472786  -30.060007  0
12.977695  -56.958698  -30.252043  0
12.842645  -57.203815  -30.006483  0
9.005179  -57.099819  -30.307093  0
9.271024  -56.837368  -30.043715  0
12.901477  -57.390820  -30.346123  0
12.833824  -57.704765  -30.574989  0
12.804772  -57.583706  -30.196064  0
8.979129  -57.596020  -30.298292  0
9.238081  -57.320728  -30.035803  0
12.689343  -57.985855  -30.294270  0
8.982131  -58.115990  -30.306547  0
9.227206  -57.856289  -30.034979  0
12.514011  -58.425056  -30.102760  0
12.350097  -58.788582  -30.400150  0
9.027064  -58.682701  -30.382444  0
9.247841  -58.415161  -30.049782  0
12.094769  -59.029747  -30.140005  0
11.807889  -59.210651  -30.292559  0
11.355342  -59.378918  -30.371485  0
9.161455  -59.089222  -30.395338  0
9.297873  -59.258701  -30.350994  0
9.368584  -59.024101  -30.122898  0
10.965231  -59.531948  -30.235130  0
10.746212  -59.650433  -30.382847  0
10.621652  -59.561626  -30.070837  0
10.399136  -59.699345  -30.356947  0
10.179096  -59.535229  -30.019381  0
9.528993  -59.472523  -30.424625  0
9.969212  -59.658424  -30.371771  0
9.753375  -59.380772  -30.043074  0
12.191523  -54.331928  -29.759859  0
11.813075  -54.259361  -29.910112  0
12.507762  -54.500244  -29.771656  0
12.801042  -54.781723  -29.729025  0
12.263827  -54.435604  -29.575314  0
11.640616  -54.433372  -29.646049  0
11.994909  -54.430237  -29.564913  0
11.260214  -54.561325  -29.671822  0
10.748135  -54.756634  -29.820332  0
12.985080  -55.052582  -29.989506  0
12.851167  -55.116665  -29.578316  0
10.536642  -54.956707  -29.791353  0
10.782172  -54.956146  -29.546852  0
10.324783  -55.213898  -29.766020  0
13.025684  -55.498100  -29.906305  0
12.849111  -55.588173  -29.514793  0
10.073729  -55.616806  -29.663605  0
10.437149  -55.390938  -29.424950  0
13.006630  -55.999058  -29.885664  0
12.820985  -56.104553  -29.542704  0
9.830488  -55.940479  -29.682753  0
9.572109  -56.194641  -29.875000  0
12.950752  -56.473175  -29.895361  0
12.875919  -56.813469  -29.871490  0
12.807067  -56.525562  -29.630869  0
9.520278  -56.544842  -29.764000  0
12.733254  -56.900063  -29.642103  0
9.503333  -57.001728  -29.723475  0
9.696878  -56.919651  -29.449646  0
12.685655  -57.474625  -29.792459  0
9.488026  -57.587421  -29.771164  0
9.721487  -57.330482  -29.507931  0
12.579309  -57.989498  -29.753933  0
9.488669  -58.149178  -29.786232  0
9.798674  -57.954716  -29.532146  0
12.438346  -58.351475  -29.610830  0
12.244435  -58.730835  -29.781408  0
12.303123  -58.512653  -29.466639  0
10.110651  -58.526028  -29.443096  0
9.526258  -58.668056  -29.804909  0
9.732894  -58.437393  -29.617710  0
11.971760  -58.996174  -29.769327  0
11.835095  -59.140713  -29.930180  0
11.645905  -59.046501  -29.612896  0
11.487997  -59.226421  -29.910259  0
11.177714  -59.052212  -29.528877  0
10.958346  -59.327190  -29.877758  0
10.598484  -58.957035  -29.490808  0
10.409041  -59.319088  -29.761776  0
10.166622  -59.013962  -29.583735  0
9.656520  -59.063557  -29.827459  0
9.974161  -59.238693  -29.765373  0
9.834102  -58.850170  -29.636055  0
12.230638  -54.658020  -29.356236  0
11.685183  -54.669689  -29.355894  0
11.166315  -54.791969  -29.434975  0
12.599283  -54.835747  -29.415457  0
12.373623  -55.002338  -29.140640  0
11.966139  -55.025265  -29.008335  0
11.053164  -54.954617  -29.304615  0
11.377488  -54.995522  -29.098131  0
10.821027  -55.182106  -29.256580  0
12.622688  -55.252968  -29.247881  0
12.299058  -55.435783  -28.956236  0
10.599198  -55.390533  -29.212427  0
10.755267  -55.439362  -28.990889  0
10.382585  -55.610729  -29.216093  0
12.606513  -55.774109  -29.212727  0
12.341690  -56.031010  -28.949381  0
10.056393  -55.855911  -29.398518  0
10.221885  -55.937668  -29.061317  0
9.847471  -56.229168  -29.401291  0
12.606834  -56.402637  -29.304787  0
12.337164  -56.611778  -28.982889  0
9.686213  -56.642700  -29.458645  0
9.775616  -56.764038  -29.315258  0
9.931801  -56.611305  -29.140896  0
12.544374  -57.008450  -29.333933  0
12.326937  -57.169395  -29.007044  0
9.908637  -57.055874  -29.244589  0
10.206224  -56.969669  -28.928961  0
12.510137  -57.551605  -29.363640  0
12.322634  -57.661060  -29.032722  0
10.488287  -57.446095  -28.844482  0
10.008305  -57.617928  -29.298277  0
10.184711  -57.400730  -29.080006  0
12.447433  -57.979427  -29.328474  0
12.262639  -58.249157  -29.198284  0
12.318329  -57.960815  -29.072893  0
10.106819  -58.074116  -29.322224  0
10.265615  -58.280903  -29.262918  0
10.397792  -57.964016  -29.069872  0
12.071081  -58.565990  -29.289547  0
11.859609  -58.827190  -29.439451  0
11.654795  -58.583469  -29.065401  0
11.412629  -58.826378  -29.266712  0
11.194812  -58.528919  -28.965967  0
10.496272  -58.495029  -29.229446  0
10.928453  -58.733818  -29.213388  0
10.775096  -58.360905  -28.985176  0
11.607229  -55.283119  -28.766922  0
11.155851  -55.302998  -28.862970  0
11.955757  -55.399708  -28.755754  0
11.683573  -55.653091  -28.595535  0
10.940204  -55.560730  -28.730824  0
11.283237  -55.576733  -28.616129  0
10.590981  -55.727985  -28.849421  0
12.037056  -55.794266  -28.711391  0
11.709574  -56.110279  -28.546425  0
11.313177  -55.973515  -28.499619  0
10.440449  -56.025341  -28.765751  0
10.856530  -55.909832  -28.599619  0
10.154202  -56.269955  -28.935610  0
12.054907  -56.316227  -28.712303  0
11.715176  -56.615543  -28.548136  0
11.321739  -56.441719  -28.478891  0
10.960046  -56.291492  -28.503529  0
10.201904  -56.574085  -28.839636  0
10.424516  -56.749416  -28.711496  0
10.520930  -56.365116  -28.652151  0
12.052692  -56.859695  -28.727587  0
11.689404  -57.134968  -28.570097  0
11.356431  -56.887280  -28.500118  0
10.523707  -57.055012  -28.724222  0
10.757257  -57.276943  -28.655804  0
10.861432  -56.814266  -28.560799  0
12.051134  -57.391258  -28.754351  0
11.679972  -57.643013  -28.613306  0
10.794132  -57.583496  -28.687481  0
11.173060  -57.408783  -28.565907  0
10.656336  -57.808998  -28.806381  0
12.062705  -57.900356  -28.848213  0
11.887384  -58.292114  -28.926390  0
11.691113  -58.028667  -28.688808  0
11.457947  -58.286980  -28.776039  0
11.322783  -57.929485  -28.618137  0
10.738472  -58.068764  -28.833635  0
11.046337  -58.203449  -28.761076  0
10.938721  -57.862545  -28.674002  0
7 12 0 0
1 9 0 0
0 9 7 0
1 15 9 0
12 14 0 0
0 14 1 0
1 14 16 0
1 16 15 0
34 39 2 0
3 36 2 0
2 36 34 0
3 41 36 0
2 39 4 0
4 39 46 0
2 5 3 0
2 4 5 0
41 3 42 0
3 6 42 0
3 5 6 0
8 44 6 0
6 44 42 0
10 45 8 0
8 45 44 0
10 49 45 0
46 48 4 0
53 11 48 0
11 4 48 0
11 5 4 0
5 13 6 0
5 11 13 0
13 12 7 0
8 13 7 0
6 13 8 0
8 7 9 0
8 9 10 0
17 50 15 0
15 50 9 0
50 49 9 0
49 10 9 0
17 55 50 0
11 53 18 0
18 53 57 0
11 19 13 0
11 18 19 0
20 14 12 0
13 20 12 0
19 20 13 0
21 16 14 0
21 14 20 0
21 60 16 0
16 60 15 0
60 56 15 0
56 17 15 0
17 56 55 0
58 62 22 0
58 22 57 0
22 18 57 0
22 23 18 0
18 24 19 0
18 23 24 0
19 25 20 0
19 24 25 0
20 26 21 0
20 25 26 0
60 21 65 0
65 21 26 0
62 64 22 0
69 27 64 0
27 22 64 0
27 23 22 0
23 28 24 0
23 27 28 0
24 29 25 0
24 28 29 0
66 26 71 0
26 29 71 0
26 25 29 0
26 66 65 0
27 69 30 0
30 69 74 0
27 31 28 0
27 30 31 0
28 32 29 0
28 31 32 0
71 29 78 0
78 29 32 0
74 76 30 0
30 76 31 0
31 76 77 0
31 77 32 0
32 77 79 0
32 79 78 0
84 89 33 0
35 86 33 0
33 86 84 0
37 88 35 0
35 88 86 0
37 92 88 0
90 94 38 0
90 38 89 0
38 33 89 0
38 40 33 0
40 39 34 0
35 40 34 0
33 40 35 0
35 34 36 0
35 36 37 0
43 93 41 0
41 93 36 0
93 92 36 0
92 37 36 0
43 97 93 0
94 96 38 0
102 47 96 0
47 38 96 0
47 40 38 0
47 46 39 0
47 39 40 0
42 43 41 0
98 97 43 0
42 98 43 0
44 98 42 0
100 44 45 0
100 98 44 0
45 49 100 0
100 49 105 0
103 107 51 0
103 51 102 0
51 47 102 0
51 52 47 0
54 48 46 0
47 54 46 0
52 54 47 0
54 53 48 0
106 105 49 0
106 49 50 0
50 55 106 0
106 55 111 0
107 109 51 0
51 109 52 0
52 109 110 0
113 59 110 0
59 52 110 0
59 54 52 0
59 57 53 0
59 53 54 0
60 61 56 0
61 116 56 0
116 55 56 0
116 111 55 0
114 117 63 0
114 63 113 0
113 63 59 0
63 62 59 0
62 58 59 0
59 58 57 0
65 67 61 0
65 61 60 0
116 61 119 0
119 61 67 0
63 117 68 0
68 117 121 0
70 64 62 0
63 70 62 0
68 70 63 0
70 69 64 0
71 72 66 0
72 123 66 0
66 123 65 0
123 120 65 0
120 67 65 0
67 120 119 0
68 121 73 0
73 121 124 0
68 75 70 0
68 73 75 0
75 74 69 0
75 69 70 0
78 80 72 0
78 72 71 0
123 72 128 0
128 72 80 0
124 126 73 0
73 126 75 0
75 126 127 0
127 131 81 0
127 81 76 0
75 127 76 0
74 75 76 0
82 77 76 0
82 76 81 0
83 79 77 0
83 77 82 0
83 135 79 0
79 135 78 0
135 129 78 0
129 80 78 0
80 129 128 0
131 133 81 0
81 133 82 0
82 133 134 0
82 134 83 0
83 134 136 0
83 136 135 0
137 140 85 0
87 138 85 0
85 138 137 0
87 143 138 0
141 146 91 0
141 91 140 0
140 91 85 0
91 89 85 0
89 84 85 0
85 84 86 0
85 86 87 0
144 143 87 0
86 144 87 0
88 144 86 0
88 92 144 0
144 92 149 0
147 152 95 0
147 95 146 0
146 95 91 0
95 94 91 0
94 90 91 0
91 90 89 0
150 149 92 0
150 92 93 0
99 151 97 0
151 93 97 0
151 150 93 0
99 154 151 0
95 152 101 0
101 152 157 0
104 96 94 0
95 104 94 0
101 104 95 0
104 102 96 0
98 99 97 0
156 154 99 0
98 156 99 0
100 156 98 0
100 105 156 0
156 105 159 0
101 157 108 0
108 157 162 0
108 107 103 0
104 108 103 0
101 108 104 0
104 103 102 0
161 159 105 0
161 105 106 0
106 111 161 0
161 111 165 0
162 164 108 0
164 168 112 0
164 112 109 0
108 164 109 0
107 108 109 0
115 110 109 0
115 109 112 0
115 113 110 0
116 165 111 0
116 170 165 0
112 168 118 0
118 168 173 0
118 117 114 0
115 118 114 0
112 118 115 0
115 114 113 0
119 170 116 0
119 175 170 0
118 173 122 0
122 173 179 0
122 121 117 0
122 117 118 0
181 176 120 0
181 120 123 0
119 120 175 0
175 120 176 0
122 179 125 0
125 179 183 0
125 124 121 0
125 121 122 0
128 181 123 0
128 186 181 0
183 185 125 0
185 189 130 0
185 130 126 0
125 185 126 0
124 125 126 0
132 127 126 0
132 126 130 0
132 131 127 0
195 187 129 0
195 129 135 0
128 129 186 0
186 129 187 0
189 191 130 0
130 191 132 0
132 191 192 0
132 192 131 0
192 133 131 0
192 193 133 0
133 194 134 0
193 194 133 0
134 196 136 0
194 196 134 0
135 136 195 0
195 136 196 0
200 207 139 0
142 202 139 0
139 202 200 0
140 137 142 0
137 202 142 0
137 204 202 0
205 137 138 0
205 204 137 0
138 143 205 0
205 143 210 0
208 212 145 0
208 145 207 0
145 139 207 0
145 148 139 0
148 146 141 0
142 148 141 0
139 148 142 0
142 141 140 0
211 210 143 0
211 143 144 0
144 149 211 0
211 149 214 0
145 212 153 0
153 212 216 0
153 152 147 0
148 153 147 0
145 153 148 0
148 147 146 0
215 214 149 0
215 149 150 0
218 215 155 0
215 151 155 0
215 150 151 0
154 155 151 0
153 216 158 0
158 216 221 0
158 157 152 0
158 152 153 0
219 218 155 0
223 219 160 0
160 219 156 0
219 155 156 0
155 154 156 0
159 160 156 0
158 221 163 0
163 221 227 0
163 162 157 0
163 157 158 0
225 223 160 0
229 225 166 0
166 225 161 0
225 160 161 0
160 159 161 0
165 166 161 0
163 227 167 0
167 227 232 0
169 164 162 0
163 169 162 0
167 169 163 0
169 168 164 0
229 166 171 0
229 171 234 0
170 171 165 0
165 171 166 0
167 232 172 0
172 232 237 0
167 174 169 0
167 172 174 0
174 173 168 0
174 168 169 0
234 171 177 0
234 177 239 0
175 177 170 0
170 177 171 0
172 237 178 0
178 237 242 0
172 180 174 0
172 178 180 0
180 179 173 0
180 173 174 0
239 177 176 0
181 239 176 0
244 239 181 0
176 177 175 0
178 242 182 0
182 242 247 0
178 184 180 0
178 182 184 0
184 183 179 0
184 179 180 0
251 245 188 0
245 244 188 0
244 186 188 0
244 181 186 0
247 249 182 0
182 249 184 0
184 249 250 0
250 254 190 0
250 190 185 0
184 250 185 0
183 184 185 0
190 189 185 0
258 252 197 0
197 252 251 0
197 251 188 0
195 197 188 0
187 195 188 0
187 188 186 0
254 256 190 0
190 256 189 0
256 191 189 0
256 257 191 0
257 260 198 0
192 257 198 0
191 257 192 0
199 193 192 0
199 192 198 0
193 199 263 0
259 193 263 0
194 193 259 0
197 196 258 0
196 259 258 0
196 194 259 0
196 197 195 0
260 262 198 0
198 262 199 0
199 262 264 0
199 264 263 0
265 269 201 0
203 266 201 0
201 266 265 0
203 272 266 0
267 275 206 0
209 270 206 0
206 270 267 0
270 209 269 0
269 209 201 0
209 207 201 0
207 200 201 0
201 200 202 0
201 202 203 0
273 272 203 0
202 273 203 0
204 273 202 0
274 204 205 0
274 273 204 0
205 210 274 0
274 210 277 0
206 275 213 0
213 275 280 0
213 212 208 0
209 213 208 0
206 213 209 0
209 208 207 0
279 277 210 0
279 210 211 0
211 214 279 0
279 214 282 0
213 280 217 0
217 280 285 0
217 216 212 0
217 212 213 0
284 282 214 0
284 214 215 0
215 218 284 0
284 218 288 0
286 290 220 0
286 220 285 0
220 217 285 0
220 222 217 0
222 221 216 0
222 216 217 0
218 219 224 0
292 218 224 0
288 218 292 0
223 224 219 0
220 290 226 0
226 290 295 0
220 228 222 0
220 226 228 0
228 227 221 0
228 221 222 0
294 292 224 0
297 294 230 0
230 294 225 0
294 224 225 0
224 223 225 0
229 230 225 0
226 295 231 0
231 295 299 0
226 233 228 0
226 231 233 0
233 232 227 0
233 227 228 0
297 230 235 0
297 235 301 0
234 235 229 0
229 235 230 0
231 299 236 0
236 299 303 0
231 238 233 0
231 236 238 0
238 237 232 0
238 232 233 0
301 235 240 0
301 240 305 0
239 240 234 0
234 240 235 0
236 303 241 0
241 303 307 0
236 243 238 0
236 241 243 0
243 242 237 0
243 237 238 0
305 240 246 0
305 246 310 0
244 246 239 0
239 246 240 0
307 309 241 0
312 248 309 0
248 241 309 0
248 243 241 0
248 247 242 0
248 242 243 0
310 246 245 0
251 310 245 0
315 310 251 0
245 246 244 0
312 314 248 0
314 318 253 0
314 253 249 0
248 314 249 0
247 248 249 0
255 250 249 0
255 249 253 0
255 254 250 0
323 316 252 0
323 252 258 0
251 252 315 0
315 252 316 0
318 320 253 0
253 320 255 0
255 320 321 0
255 321 254 0
321 256 254 0
321 322 256 0
322 326 261 0
257 322 261 0
256 322 257 0
261 260 257 0
330 324 259 0
330 259 263 0
258 259 323 0
323 259 324 0
326 328 261 0
261 328 260 0
328 262 260 0
328 329 262 0
262 331 264 0
329 331 262 0
263 264 330 0
330 264 331 0
333 337 268 0
271 334 268 0
268 334 333 0
269 265 271 0
265 334 271 0
265 335 334 0
336 265 266 0
336 335 265 0
266 272 336 0
336 272 340 0
338 343 276 0
338 276 337 0
337 276 268 0
276 275 268 0
275 267 268 0
268 267 270 0
268 270 271 0
271 270 269 0
342 340 272 0
342 272 273 0
345 342 278 0
342 274 278 0
342 273 274 0
277 278 274 0
276 343 281 0
281 343 348 0
281 280 275 0
281 275 276 0
347 345 278 0
350 347 283 0
283 347 279 0
347 278 279 0
278 277 279 0
282 283 279 0
281 348 287 0
287 348 353 0
287 285 280 0
287 280 281 0
352 350 283 0
356 352 289 0
289 352 284 0
352 283 284 0
283 282 284 0
288 289 284 0
354 358 291 0
354 291 353 0
353 291 287 0
291 290 287 0
290 286 287 0
287 286 285 0
356 289 293 0
356 293 360 0
292 293 288 0
288 293 289 0
291 358 296 0
296 358 362 0
296 295 290 0
296 290 291 0
361 360 293 0
364 361 298 0
298 361 294 0
361 293 294 0
293 292 294 0
297 298 294 0
296 362 300 0
300 362 366 0
300 299 295 0
300 295 296 0
364 298 302 0
364 302 368 0
301 302 297 0
297 302 298 0
300 366 304 0
304 366 370 0
304 303 299 0
304 299 300 0
368 302 306 0
368 306 371 0
305 306 301 0
301 306 302 0
304 370 308 0
308 370 373 0
308 307 303 0
308 303 304 0
371 306 311 0
371 311 375 0
310 311 305 0
305 311 306 0
373 374 308 0
374 377 313 0
374 313 309 0
308 374 309 0
307 308 309 0
313 312 309 0
375 311 317 0
375 317 380 0
315 317 310 0
310 317 311 0
377 379 313 0
379 383 319 0
379 319 314 0
313 379 314 0
312 313 314 0
319 318 314 0
388 381 325 0
325 381 380 0
325 380 317 0
323 325 317 0
316 323 317 0
316 317 315 0
383 385 319 0
319 385 318 0
385 320 318 0
385 386 320 0
320 387 321 0
386 387 320 0
387 391 327 0
322 387 327 0
321 387 322 0
327 326 322 0
395 389 332 0
332 389 388 0
332 388 325 0
330 332 325 0
324 330 325 0
324 325 323 0
391 393 327 0
327 393 326 0
393 328 326 0
393 394 328 0
328 396 329 0
394 396 328 0
332 331 395 0
331 396 395 0
331 329 396 0
331 332 330 0
398 402 339 0
337 333 339 0
333 398 339 0
333 399 398 0
400 333 334 0
400 399 333 0
401 334 335 0
401 400 334 0
404 401 341 0
401 336 341 0
401 335 336 0
340 341 336 0
403 407 344 0
403 344 402 0
402 344 339 0
344 343 339 0
343 338 339 0
339 338 337 0
406 404 341 0
408 406 346 0
346 406 342 0
406 341 342 0
341 340 342 0
345 346 342 0
344 407 349 0
349 407 411 0
349 348 343 0
349 343 344 0
410 408 346 0
413 410 351 0
351 410 347 0
410 346 347 0
346 345 347 0
350 351 347 0
349 411 355 0
355 411 416 0
355 353 348 0
355 348 349 0
415 413 351 0
419 415 357 0
357 415 352 0
415 351 352 0
351 350 352 0
356 357 352 0
417 422 359 0
417 359 416 0
416 359 355 0
359 358 355 0
358 354 355 0
355 354 353 0
421 419 357 0
357 356 421 0
356 423 421 0
356 360 423 0
359 422 363 0
363 422 425 0
363 362 358 0
363 358 359 0
360 361 365 0
426 360 365 0
423 360 426 0
364 365 361 0
363 425 367 0
367 425 428 0
367 366 362 0
367 362 363 0
426 365 369 0
426 369 430 0
368 369 364 0
364 369 365 0
428 429 367 0
366 367 429 0
432 366 429 0
370 366 432 0
430 369 372 0
430 372 434 0
371 372 368 0
368 372 369 0
432 373 370 0
436 373 432 0
434 372 376 0
434 376 437 0
375 376 371 0
371 376 372 0
374 373 378 0
373 439 378 0
373 436 439 0
378 377 374 0
437 376 382 0
437 382 441 0
380 382 375 0
375 382 376 0
439 440 378 0
440 444 384 0
440 384 379 0
378 440 379 0
377 378 379 0
384 383 379 0
448 442 390 0
390 442 441 0
390 441 382 0
388 390 382 0
381 388 382 0
381 382 380 0
444 445 384 0
384 445 383 0
445 385 383 0
445 446 385 0
385 447 386 0
446 447 385 0
447 451 392 0
387 447 392 0
386 447 387 0
392 391 387 0
455 449 397 0
397 449 448 0
397 448 390 0
395 397 390 0
389 395 390 0
389 390 388 0
451 453 392 0
392 453 391 0
453 393 391 0
453 454 393 0
393 456 394 0
454 456 393 0
397 396 455 0
396 456 455 0
396 394 456 0
396 397 395 0
458 461 398 0
398 461 402 0
459 398 399 0
459 458 398 0
460 399 400 0
460 459 399 0
465 460 405 0
460 401 405 0
460 400 401 0
404 405 401 0
462 468 403 0
403 468 407 0
403 402 461 0
403 461 462 0
467 465 405 0
470 467 409 0
409 467 406 0
467 405 406 0
405 404 406 0
408 409 406 0
469 473 412 0
468 469 412 0
411 468 412 0
407 468 411 0
472 470 409 0
474 472 414 0
414 472 410 0
472 409 410 0
409 408 410 0
413 414 410 0
412 473 418 0
418 473 477 0
418 416 411 0
418 411 412 0
476 474 414 0
478 476 420 0
420 476 415 0
476 414 415 0
414 413 415 0
419 420 415 0
418 477 417 0
477 422 417 0
477 481 422 0
418 417 416 0
480 478 420 0
483 480 424 0
424 480 421 0
480 420 421 0
420 419 421 0
423 424 421 0
481 425 422 0
485 425 481 0
483 424 427 0
483 427 486 0
426 427 423 0
423 427 424 0
485 428 425 0
488 428 485 0
486 427 431 0
486 431 489 0
430 431 426 0
426 431 427 0
429 428 433 0
428 491 433 0
428 488 491 0
433 432 429 0
489 431 435 0
489 435 493 0
434 435 430 0
430 435 431 0
491 492 433 0
432 433 492 0
495 432 492 0
436 432 495 0
493 435 438 0
493 438 496 0
437 438 434 0
434 438 435 0
495 439 436 0
498 439 495 0
496 438 443 0
496 443 500 0
441 443 437 0
437 443 438 0
498 499 439 0
439 499 440 0
444 440 499 0
444 499 503 0
506 501 450 0
450 501 500 0
450 500 443 0
448 450 443 0
442 448 443 0
442 443 441 0
503 504 444 0
444 504 445 0
445 505 446 0
504 505 445 0
505 508 452 0
447 505 452 0
446 505 447 0
452 451 447 0
511 507 457 0
457 507 506 0
457 506 450 0
455 457 450 0
449 455 450 0
449 450 448 0
508 509 452 0
452 509 451 0
509 453 451 0
509 510 453 0
453 512 454 0
510 512 453 0
457 456 511 0
456 512 511 0
456 454 512 0
456 457 455 0
463 461 458 0
459 464 458 0
458 464 463 0
460 466 459 0
459 466 464 0
465 466 460 0
513 517 462 0
462 517 468 0
462 461 463 0
514 462 463 0
513 462 514 0
514 463 464 0
514 464 515 0
515 464 466 0
515 466 516 0
520 516 471 0
471 516 467 0
516 466 467 0
466 465 467 0
470 471 467 0
518 523 469 0
469 523 473 0
469 468 517 0
469 517 518 0
522 520 471 0
524 522 475 0
475 522 472 0
522 471 472 0
471 470 472 0
474 475 472 0
523 477 473 0
527 477 523 0
526 524 475 0
528 526 479 0
479 526 476 0
526 475 476 0
475 474 476 0
478 479 476 0
527 481 477 0
530 481 527 0
528 479 482 0
528 482 531 0
480 484 478 0
484 479 478 0
484 482 479 0
483 484 480 0
530 485 481 0
534 485 530 0
533 531 482 0
487 535 533 0
482 487 533 0
484 487 482 0
486 487 483 0
483 487 484 0
534 488 485 0
537 488 534 0
535 487 490 0
535 490 539 0
489 490 486 0
486 490 487 0
537 491 488 0
541 491 537 0
539 490 494 0
539 494 544 0
493 494 489 0
489 494 490 0
541 542 491 0
491 542 492 0
495 492 542 0
495 542 546 0
544 494 497 0
544 497 547 0
496 497 493 0
493 497 494 0
546 498 495 0
549 498 546 0
547 497 502 0
547 502 551 0
500 502 496 0
496 502 497 0
549 550 498 0
498 550 499 0
503 499 550 0
503 550 553 0
551 502 501 0
506 551 501 0
556 551 506 0
501 502 500 0
553 554 503 0
503 554 504 0
504 555 505 0
554 555 504 0
508 505 555 0
508 555 559 0
564 557 507 0
564 507 511 0
506 507 556 0
556 507 557 0
559 560 508 0
508 560 509 0
509 562 510 0
560 562 509 0
510 565 512 0
562 565 510 0
511 512 564 0
564 512 565 0
567 569 513 0
513 569 517 0
568 513 514 0
568 567 513 0
572 568 519 0
568 515 519 0
568 514 515 0
516 521 515 0
515 521 519 0
520 521 516 0
570 576 518 0
518 576 523 0
518 517 569 0
518 569 570 0
574 572 519 0
574 519 521 0
574 521 575 0
578 575 525 0
525 575 522 0
575 521 522 0
521 520 522 0
524 525 522 0
576 527 523 0
581 527 576 0
580 578 525 0
583 580 529 0
529 580 526 0
580 525 526 0
525 524 526 0
528 529 526 0
581 530 527 0
585 530 581 0
583 529 532 0
583 532 587 0
531 532 528 0
528 532 529 0
585 534 530 0
589 534 585 0
588 587 532 0
592 588 536 0
536 588 533 0
588 532 533 0
532 531 533 0
535 536 533 0
538 537 590 0
537 589 590 0
537 534 589 0
593 538 590 0
592 536 540 0
592 540 594 0
539 540 535 0
535 540 536 0
543 541 538 0
538 541 537 0
538 593 596 0
538 596 543 0
594 540 545 0
594 545 597 0
544 545 539 0
539 545 540 0
543 542 541 0
546 542 543 0
596 546 543 0
599 546 596 0
597 545 548 0
597 548 600 0
547 548 544 0
544 548 545 0
599 549 546 0
602 549 599 0
600 548 552 0
600 552 606 0
551 552 547 0
547 552 548 0
602 603 549 0
549 603 550 0
553 550 603 0
553 603 608 0
606 552 558 0
606 558 617 0
556 558 551 0
551 558 552 0
608 609 553 0
553 609 554 0
554 611 555 0
609 611 554 0
613 561 559 0
555 613 559 0
611 613 555 0
615 563 561 0
615 561 613 0
618 566 563 0
618 563 615 0
566 618 617 0
566 617 558 0
564 566 558 0
557 564 558 0
557 558 556 0
561 560 559 0
560 561 562 0
562 561 563 0
562 563 565 0
565 563 566 0
565 566 564 0
571 569 567 0
568 573 567 0
567 573 571 0
572 573 568 0
577 576 570 0
623 577 570 0
623 570 569 0
620 623 569 0
571 620 569 0
620 571 573 0
620 573 621 0
621 573 572 0
574 621 572 0
622 621 574 0
626 622 579 0
622 575 579 0
622 574 575 0
578 579 575 0
582 581 577 0
577 581 576 0
577 623 629 0
577 629 582 0
628 626 579 0
631 628 584 0
584 628 580 0
628 579 580 0
579 578 580 0
583 584 580 0
586 585 582 0
582 585 581 0
582 629 634 0
582 634 586 0
633 631 584 0
584 583 633 0
583 636 633 0
583 587 636 0
591 589 586 0
586 589 585 0
586 634 639 0
586 639 591 0
638 636 587 0
638 587 588 0
588 592 638 0
638 592 641 0
591 590 589 0
593 590 591 0
639 593 591 0
644 593 639 0
646 642 595 0
642 641 595 0
641 594 595 0
641 592 594 0
644 596 593 0
648 596 644 0
646 595 598 0
646 598 651 0
597 598 594 0
594 598 595 0
648 599 596 0
653 599 648 0
651 598 601 0
651 601 656 0
600 601 597 0
597 601 598 0
604 602 654 0
602 653 654 0
602 599 653 0
659 604 654 0
664 657 605 0
605 657 656 0
601 605 656 0
607 605 601 0
606 607 600 0
600 607 601 0
604 603 602 0
660 610 608 0
660 608 603 0
659 660 603 0
604 659 603 0
662 612 610 0
662 610 660 0
665 614 612 0
665 612 662 0
614 665 664 0
605 614 664 0
616 614 605 0
619 605 607 0
616 605 619 0
617 619 606 0
606 619 607 0
610 609 608 0
609 610 611 0
611 610 612 0
611 612 613 0
613 612 614 0
613 614 615 0
615 614 616 0
615 616 618 0
618 616 619 0
618 619 617 0
624 623 620 0
621 625 620 0
620 625 624 0
622 627 621 0
621 627 625 0
626 627 622 0
630 629 624 0
624 629 623 0
625 667 669 0
630 625 669 0
624 625 630 0
667 625 627 0
667 627 668 0
671 668 632 0
632 668 628 0
668 627 628 0
627 626 628 0
631 632 628 0
635 634 630 0
630 634 629 0
630 669 674 0
630 674 635 0
673 671 632 0
677 673 637 0
637 673 633 0
673 632 633 0
632 631 633 0
636 637 633 0
640 639 635 0
635 639 634 0
635 674 680 0
635 680 640 0
679 677 637 0
684 679 643 0
643 679 638 0
679 637 638 0
637 636 638 0
641 643 638 0
645 644 640 0
640 644 639 0
640 680 687 0
640 687 645 0
690 685 647 0
647 685 684 0
647 684 643 0
646 647 643 0
642 646 643 0
642 643 641 0
649 648 645 0
645 648 644 0
645 687 693 0
645 693 649 0
695 691 650 0
650 691 690 0
647 650 690 0
652 650 647 0
651 652 646 0
646 652 647 0
655 653 649 0
649 653 648 0
649 693 698 0
649 698 655 0
697 695 650 0
658 703 697 0
650 658 697 0
652 658 650 0
656 658 651 0
651 658 652 0
655 654 653 0
699 661 659 0
699 659 654 0
698 699 654 0
655 698 654 0
701 663 661 0
701 661 699 0
704 666 663 0
704 663 701 0
666 704 703 0
666 703 658 0
664 666 658 0
657 664 658 0
657 658 656 0
661 660 659 0
660 661 662 0
662 661 663 0
662 663 665 0
665 663 666 0
665 666 664 0
670 669 667 0
668 672 667 0
667 672 670 0
671 672 668 0
675 674 670 0
670 674 669 0
676 670 672 0
675 670 676 0
673 678 671 0
678 672 671 0
678 676 672 0
677 678 673 0
681 680 675 0
675 680 674 0
682 675 676 0
681 675 682 0
683 676 678 0
682 676 683 0
679 686 677 0
686 678 677 0
686 683 678 0
684 686 679 0
688 687 681 0
681 687 680 0
689 681 682 0
688 681 689 0
692 682 683 0
689 682 692 0
690 692 685 0
692 686 685 0
692 683 686 0
685 686 684 0
694 693 688 0
688 693 687 0
696 688 689 0
694 688 696 0
695 696 691 0
696 692 691 0
696 689 692 0
691 692 690 0
700 698 694 0
694 698 693 0
702 694 696 0
700 694 702 0
697 705 695 0
705 696 695 0
705 702 696 0
703 705 697 0
700 699 698 0
699 700 701 0
701 700 702 0
701 702 704 0
704 702 705 0
704 705 703 0
