#!ascii version in FreeSurfer format (SUMA)
654 1306
-4.717339  -57.985680  -35.562706  0
-4.717339  -58.985680  -35.562706  0
-4.717339  -56.985680  -35.062706  0
-5.217339  -56.985680  -35.062706  0
-5.717339  -56.985680  -35.062706  0
-6.217339  -56.985680  -35.062706  0
-4.717339  -57.735680  -35.312706  0
-4.717339  -57.485680  -35.062706  0
-5.217339  -57.485680  -35.062706  0
-5.717339  -57.485680  -35.062706  0
-6.217339  -57.485680  -35.062706  0
-4.467339  -57.985680  -35.312706  0
-4.967339  -57.985680  -35.312706  0
-4.717339  -58.235680  -35.312706  0
-5.217339  -57.985680  -35.062706  0
-5.717339  -57.985680  -35.062706  0
-6.217339  -57.985680  -35.062706  0
-6.717339  -57.985680  -35.062706  0
-4.217339  -58.485680  -35.062706  0
-4.717339  -58.735680  -35.312706  0
-4.717339  -58.485680  -35.062706  0
-5.217339  -58.485680  -35.062706  0
-5.717339  -58.485680  -35.062706  0
-4.467339  -58.985680  -35.312706  0
-4.967339  -58.985680  -35.312706  0
-4.717339  -59.235680  -35.312706  0
-5.217339  -58.985680  -35.062706  0
-5.717339  -58.985680  -35.062706  0
-5.217339  -55.485680  -34.562706  0
-5.717339  -55.485680  -34.562706  0
-6.217339  -55.485680  -34.562706  0
-6.717339  -55.485680  -34.562706  0
-5.217339  -55.985680  -34.562706  0
-5.717339  -55.985680  -34.562706  0
-6.217339  -55.985680  -34.562706  0
-6.717339  -55.985680  -34.562706  0
-4.717339  -56.735680  -34.812706  0
-5.217339  -56.735680  -34.812706  0
-5.217339  -56.485680  -34.562706  0
-5.717339  -56.735680  -34.812706  0
-5.717339  -56.485680  -34.562706  0
-6.217339  -56.735680  -34.812706  0
-6.217339  -56.485680  -34.562706  0
-4.467339  -56.985680  -34.812706  0
-6.467339  -56.985680  -34.812706  0
-6.717339  -56.985680  -34.562706  0
-7.217339  -56.985680  -34.562706  0
-4.467339  -57.485680  -34.812706  0
-6.467339  -57.485680  -34.812706  0
-6.717339  -57.735680  -34.812706  0
-6.717339  -57.485680  -34.562706  0
-4.467339  -57.985680  -34.812706  0
-4.217339  -58.235680  -34.812706  0
-6.217339  -58.235680  -34.812706  0
-6.967339  -57.985680  -34.812706  0
-6.717339  -58.235680  -34.812706  0
-3.967339  -58.485680  -34.812706  0
-4.217339  -58.735680  -34.812706  0
-4.217339  -58.485680  -34.562706  0
-5.967339  -58.485680  -34.812706  0
-6.217339  -58.485680  -34.562706  0
-6.717339  -58.485680  -34.562706  0
-4.467339  -58.985680  -34.812706  0
-4.717339  -59.235680  -34.812706  0
-5.217339  -59.235680  -34.812706  0
-5.967339  -58.985680  -34.812706  0
-5.717339  -59.235680  -34.812706  0
-6.217339  -58.985680  -34.562706  0
-6.717339  -58.985680  -34.562706  0
-5.717339  -54.485680  -34.062706  0
-6.217339  -54.485680  -34.062706  0
-6.717339  -54.485680  -34.062706  0
-7.217339  -54.485680  -34.062706  0
-5.217339  -55.235680  -34.312706  0
-5.217339  -54.985680  -34.062706  0
-5.717339  -55.235680  -34.312706  0
-5.717339  -54.985680  -34.062706  0
-6.217339  -55.235680  -34.312706  0
-6.217339  -54.985680  -34.062706  0
-6.717339  -55.235680  -34.312706  0
-6.717339  -54.985680  -34.062706  0
-7.217339  -54.985680  -34.062706  0
-7.717339  -54.985680  -34.062706  0
-4.967339  -55.485680  -34.312706  0
-6.967339  -55.485680  -34.312706  0
-7.217339  -55.485680  -34.062706  0
-7.717339  -55.485680  -34.062706  0
-4.967339  -55.985680  -34.312706  0
-6.967339  -55.985680  -34.312706  0
-6.717339  -56.235680  -34.312706  0
-7.217339  -55.985680  -34.062706  0
-4.967339  -56.485680  -34.312706  0
-4.717339  -56.735680  -34.312706  0
-4.717339  -56.485680  -34.062706  0
-6.467339  -56.485680  -34.312706  0
-6.717339  -56.735680  -34.312706  0
-6.717339  -56.485680  -34.062706  0
-7.217339  -56.735680  -34.312706  0
-7.217339  -56.485680  -34.062706  0
-4.467339  -56.985680  -34.312706  0
-7.467339  -56.985680  -34.312706  0
-7.217339  -57.235680  -34.312706  0
-7.717339  -56.985680  -34.062706  0
-4.467339  -57.485680  -34.312706  0
-6.967339  -57.485680  -34.312706  0
-7.217339  -57.485680  -34.062706  0
-7.717339  -57.485680  -34.062706  0
-4.467339  -57.985680  -34.312706  0
-6.967339  -57.985680  -34.312706  0
-7.217339  -57.985680  -34.062706  0
-4.467339  -58.485680  -34.312706  0
-6.967339  -58.485680  -34.312706  0
-7.217339  -58.485680  -34.062706  0
-4.467339  -58.985680  -34.312706  0
-4.717339  -59.235680  -34.312706  0
-4.717339  -58.985680  -34.062706  0
-5.217339  -59.235680  -34.312706  0
-5.717339  -59.235680  -34.312706  0
-6.217339  -59.235680  -34.312706  0
-6.967339  -58.985680  -34.312706  0
-6.717339  -59.235680  -34.312706  0
-6.717339  -53.485680  -33.562706  0
-7.217339  -53.485680  -33.562706  0
-5.717339  -54.235680  -33.812706  0
-6.217339  -54.235680  -33.812706  0
-6.217339  -53.985680  -33.562706  0
-6.717339  -54.235680  -33.812706  0
-6.717339  -53.985680  -33.562706  0
-7.217339  -54.235680  -33.812706  0
-7.217339  -53.985680  -33.562706  0
-7.717339  -53.985680  -33.562706  0
-5.467339  -54.485680  -33.812706  0
-5.217339  -54.735680  -33.812706  0
-7.467339  -54.485680  -33.812706  0
-7.717339  -54.735680  -33.812706  0
-7.717339  -54.485680  -33.562706  0
-4.967339  -54.985680  -33.812706  0
-5.217339  -54.985680  -33.562706  0
-7.967339  -54.985680  -33.812706  0
-4.967339  -55.485680  -33.812706  0
-7.967339  -55.485680  -33.812706  0
-7.717339  -55.735680  -33.812706  0
-4.967339  -55.985680  -33.812706  0
-4.717339  -56.235680  -33.812706  0
-7.467339  -55.985680  -33.812706  0
-7.717339  -55.985680  -33.562706  0
-4.467339  -56.485680  -33.812706  0
-4.717339  -56.485680  -33.562706  0
-7.467339  -56.485680  -33.812706  0
-7.717339  -56.735680  -33.812706  0
-7.717339  -56.485680  -33.562706  0
-8.217339  -56.485680  -33.562706  0
-4.467339  -56.985680  -33.812706  0
-4.717339  -56.985680  -33.562706  0
-7.967339  -56.985680  -33.812706  0
-4.467339  -57.485680  -33.812706  0
-4.717339  -57.485680  -33.562706  0
-7.967339  -57.485680  -33.812706  0
-7.717339  -57.735680  -33.812706  0
-4.467339  -57.985680  -33.812706  0
-4.717339  -57.985680  -33.562706  0
-7.467339  -57.985680  -33.812706  0
-7.717339  -57.985680  -33.562706  0
-4.467339  -58.485680  -33.812706  0
-4.717339  -58.735680  -33.812706  0
-4.717339  -58.485680  -33.562706  0
-7.467339  -58.485680  -33.812706  0
-7.217339  -58.735680  -33.812706  0
-7.717339  -58.485680  -33.562706  0
-4.967339  -58.985680  -33.812706  0
-5.217339  -59.235680  -33.812706  0
-5.217339  -58.985680  -33.562706  0
-5.717339  -59.235680  -33.812706  0
-6.217339  -59.235680  -33.812706  0
-6.967339  -58.985680  -33.812706  0
-6.717339  -59.235680  -33.812706  0
-7.217339  -58.985680  -33.562706  0
-6.717339  -53.235680  -33.312706  0
-7.217339  -53.235680  -33.312706  0
-7.217339  -52.985680  -33.062706  0
-7.717339  -52.985680  -33.062706  0
-6.467339  -53.485680  -33.312706  0
-6.217339  -53.735680  -33.312706  0
-7.467339  -53.485680  -33.312706  0
-7.717339  -53.735680  -33.312706  0
-7.717339  -53.485680  -33.062706  0
-8.217339  -53.485680  -33.062706  0
-8.717339  -53.485680  -33.062706  0
-5.967339  -53.985680  -33.312706  0
-5.717339  -54.235680  -33.312706  0
-7.967339  -53.985680  -33.312706  0
-8.217339  -53.985680  -33.062706  0
-8.717339  -53.985680  -33.062706  0
-5.467339  -54.485680  -33.312706  0
-5.717339  -54.485680  -33.062706  0
-7.967339  -54.485680  -33.312706  0
-8.217339  -54.485680  -33.062706  0
-5.467339  -54.985680  -33.312706  0
-5.217339  -55.235680  -33.312706  0
-7.967339  -54.985680  -33.312706  0
-8.217339  -54.985680  -33.062706  0
-8.717339  -54.985680  -33.062706  0
-4.967339  -55.485680  -33.312706  0
-5.217339  -55.485680  -33.062706  0
-7.967339  -55.485680  -33.312706  0
-8.217339  -55.485680  -33.062706  0
-8.717339  -55.485680  -33.062706  0
-4.967339  -55.985680  -33.312706  0
-7.967339  -55.985680  -33.312706  0
-8.217339  -56.235680  -33.312706  0
-8.217339  -55.985680  -33.062706  0
-8.717339  -55.985680  -33.062706  0
-4.967339  -56.485680  -33.312706  0
-8.467339  -56.485680  -33.312706  0
-8.217339  -56.735680  -33.312706  0
-8.717339  -56.485680  -33.062706  0
-4.967339  -56.985680  -33.312706  0
-7.967339  -56.985680  -33.312706  0
-8.217339  -56.985680  -33.062706  0
-4.967339  -57.485680  -33.312706  0
-7.967339  -57.485680  -33.312706  0
-8.217339  -57.485680  -33.062706  0
-4.967339  -57.985680  -33.312706  0
-5.217339  -57.985680  -33.062706  0
-7.967339  -57.985680  -33.312706  0
-8.217339  -57.985680  -33.062706  0
-4.967339  -58.485680  -33.312706  0
-5.217339  -58.735680  -33.312706  0
-5.217339  -58.485680  -33.062706  0
-7.967339  -58.485680  -33.312706  0
-7.717339  -58.735680  -33.312706  0
-5.467339  -58.985680  -33.312706  0
-5.717339  -59.235680  -33.312706  0
-5.717339  -58.985680  -33.062706  0
-6.217339  -59.235680  -33.312706  0
-6.717339  -59.235680  -33.312706  0
-7.467339  -58.985680  -33.312706  0
-7.217339  -59.235680  -33.312706  0
-7.217339  -52.735680  -32.812706  0
-7.717339  -52.735680  -32.812706  0
-8.717339  -52.485680  -32.562706  0
-6.967339  -52.985680  -32.812706  0
-6.717339  -53.235680  -32.812706  0
-7.217339  -52.985680  -32.562706  0
-7.967339  -52.985680  -32.812706  0
-8.217339  -53.235680  -32.812706  0
-8.217339  -52.985680  -32.562706  0
-8.717339  -53.235680  -32.812706  0
-8.717339  -52.985680  -32.562706  0
-9.217339  -52.985680  -32.562706  0
-6.467339  -53.485680  -32.812706  0
-6.217339  -53.735680  -32.812706  0
-6.717339  -53.485680  -32.562706  0
-8.967339  -53.485680  -32.812706  0
-9.217339  -53.485680  -32.562706  0
-5.967339  -53.985680  -32.812706  0
-6.217339  -53.985680  -32.562706  0
-8.967339  -53.985680  -32.812706  0
-8.717339  -54.235680  -32.812706  0
-9.217339  -53.985680  -32.562706  0
-5.967339  -54.485680  -32.812706  0
-5.717339  -54.735680  -32.812706  0
-6.217339  -54.485680  -32.562706  0
-8.467339  -54.485680  -32.812706  0
-8.717339  -54.735680  -32.812706  0
-8.717339  -54.485680  -32.562706  0
-9.217339  -54.485680  -32.562706  0
-5.467339  -54.985680  -32.812706  0
-5.717339  -54.985680  -32.562706  0
-8.967339  -54.985680  -32.812706  0
-9.217339  -54.985680  -32.562706  0
-5.467339  -55.485680  -32.812706  0
-5.217339  -55.735680  -32.812706  0
-8.967339  -55.485680  -32.812706  0
-9.217339  -55.485680  -32.562706  0
-9.717339  -55.485680  -32.562706  0
-4.967339  -55.985680  -32.812706  0
-5.217339  -55.985680  -32.562706  0
-8.967339  -55.985680  -32.812706  0
-9.217339  -55.985680  -32.562706  0
-4.967339  -56.485680  -32.812706  0
-5.217339  -56.485680  -32.562706  0
-8.967339  -56.485680  -32.812706  0
-8.717339  -56.735680  -32.812706  0
-9.217339  -56.485680  -32.562706  0
-4.967339  -56.985680  -32.812706  0
-5.217339  -56.985680  -32.562706  0
-8.467339  -56.985680  -32.812706  0
-8.717339  -56.985680  -32.562706  0
-9.217339  -56.985680  -32.562706  0
-4.967339  -57.485680  -32.812706  0
-5.217339  -57.735680  -32.812706  0
-5.217339  -57.485680  -32.562706  0
-8.467339  -57.485680  -32.812706  0
-8.717339  -57.485680  -32.562706  0
-5.467339  -57.985680  -32.812706  0
-5.717339  -57.985680  -32.562706  0
-8.467339  -57.985680  -32.812706  0
-8.217339  -58.235680  -32.812706  0
-5.467339  -58.485680  -32.812706  0
-5.717339  -58.735680  -32.812706  0
-5.717339  -58.485680  -32.562706  0
-7.967339  -58.485680  -32.812706  0
-7.717339  -58.735680  -32.812706  0
-5.967339  -58.985680  -32.812706  0
-6.217339  -59.235680  -32.812706  0
-6.217339  -58.985680  -32.562706  0
-6.717339  -59.235680  -32.812706  0
-7.467339  -58.985680  -32.812706  0
-7.217339  -59.235680  -32.812706  0
-7.717339  -58.985680  -32.562706  0
-8.717339  -52.235680  -32.312706  0
-7.717339  -52.735680  -32.312706  0
-8.467339  -52.485680  -32.312706  0
-8.217339  -52.735680  -32.312706  0
-8.967339  -52.485680  -32.312706  0
-9.217339  -52.735680  -32.312706  0
-7.467339  -52.985680  -32.312706  0
-7.217339  -53.235680  -32.312706  0
-9.467339  -52.985680  -32.312706  0
-6.967339  -53.485680  -32.312706  0
-6.717339  -53.735680  -32.312706  0
-9.467339  -53.485680  -32.312706  0
-6.467339  -53.985680  -32.312706  0
-6.717339  -53.985680  -32.062706  0
-9.467339  -53.985680  -32.312706  0
-6.467339  -54.485680  -32.312706  0
-6.217339  -54.735680  -32.312706  0
-9.467339  -54.485680  -32.312706  0
-5.967339  -54.985680  -32.312706  0
-5.717339  -55.235680  -32.312706  0
-6.217339  -54.985680  -32.062706  0
-9.467339  -54.985680  -32.312706  0
-9.717339  -55.235680  -32.312706  0
-9.717339  -54.985680  -32.062706  0
-5.467339  -55.485680  -32.312706  0
-5.717339  -55.485680  -32.062706  0
-9.967339  -55.485680  -32.312706  0
-9.717339  -55.735680  -32.312706  0
-5.467339  -55.985680  -32.312706  0
-5.717339  -55.985680  -32.062706  0
-9.467339  -55.985680  -32.312706  0
-9.717339  -55.985680  -32.062706  0
-5.467339  -56.485680  -32.312706  0
-5.717339  -56.485680  -32.062706  0
-9.467339  -56.485680  -32.312706  0
-5.467339  -56.985680  -32.312706  0
-5.717339  -56.985680  -32.062706  0
-9.467339  -56.985680  -32.312706  0
-9.217339  -57.235680  -32.312706  0
-5.467339  -57.485680  -32.312706  0
-5.717339  -57.735680  -32.312706  0
-5.717339  -57.485680  -32.062706  0
-8.967339  -57.485680  -32.312706  0
-8.717339  -57.735680  -32.312706  0
-5.967339  -57.985680  -32.312706  0
-6.217339  -57.985680  -32.062706  0
-8.467339  -57.985680  -32.312706  0
-8.217339  -58.235680  -32.312706  0
-8.717339  -57.985680  -32.062706  0
-5.967339  -58.485680  -32.312706  0
-6.217339  -58.735680  -32.312706  0
-6.217339  -58.485680  -32.062706  0
-6.717339  -58.485680  -32.062706  0
-7.967339  -58.485680  -32.312706  0
-8.217339  -58.485680  -32.062706  0
-6.467339  -58.985680  -32.312706  0
-6.717339  -59.235680  -32.312706  0
-6.717339  -58.985680  -32.062706  0
-7.217339  -59.235680  -32.312706  0
-7.967339  -58.985680  -32.312706  0
-7.717339  -59.235680  -32.312706  0
-8.717339  -52.235680  -31.812706  0
-7.717339  -52.735680  -31.812706  0
-8.467339  -52.485680  -31.812706  0
-8.217339  -52.735680  -31.812706  0
-8.967339  -52.485680  -31.812706  0
-8.717339  -52.485680  -31.562706  0
-9.217339  -52.735680  -31.812706  0
-7.467339  -52.985680  -31.812706  0
-7.217339  -53.235680  -31.812706  0
-7.717339  -52.985680  -31.562706  0
-9.467339  -52.985680  -31.812706  0
-6.967339  -53.485680  -31.812706  0
-7.217339  -53.485680  -31.562706  0
-9.467339  -53.485680  -31.812706  0
-9.717339  -53.485680  -31.562706  0
-6.967339  -53.985680  -31.812706  0
-6.717339  -54.235680  -31.812706  0
-9.467339  -53.985680  -31.812706  0
-9.717339  -53.985680  -31.562706  0
-6.467339  -54.485680  -31.812706  0
-6.717339  -54.485680  -31.562706  0
-9.467339  -54.485680  -31.812706  0
-9.717339  -54.735680  -31.812706  0
-6.467339  -54.985680  -31.812706  0
-6.217339  -55.235680  -31.812706  0
-9.967339  -54.985680  -31.812706  0
-5.967339  -55.485680  -31.812706  0
-6.217339  -55.485680  -31.562706  0
-9.967339  -55.485680  -31.812706  0
-5.967339  -55.985680  -31.812706  0
-6.217339  -55.985680  -31.562706  0
-9.967339  -55.985680  -31.812706  0
-9.717339  -56.235680  -31.812706  0
-5.967339  -56.485680  -31.812706  0
-6.217339  -56.485680  -31.562706  0
-9.467339  -56.485680  -31.812706  0
-9.717339  -56.485680  -31.562706  0
-5.967339  -56.985680  -31.812706  0
-6.217339  -56.985680  -31.562706  0
-9.467339  -56.985680  -31.812706  0
-9.217339  -57.235680  -31.812706  0
-9.717339  -56.985680  -31.562706  0
-5.967339  -57.485680  -31.812706  0
-6.217339  -57.735680  -31.812706  0
-6.217339  -57.485680  -31.562706  0
-6.717339  -57.485680  -31.562706  0
-8.967339  -57.485680  -31.812706  0
-6.467339  -57.985680  -31.812706  0
-6.717339  -58.235680  -31.812706  0
-6.717339  -57.985680  -31.562706  0
-8.967339  -57.985680  -31.812706  0
-8.717339  -58.235680  -31.812706  0
-9.217339  -57.985680  -31.562706  0
-6.967339  -58.485680  -31.812706  0
-7.217339  -58.485680  -31.562706  0
-8.467339  -58.485680  -31.812706  0
-8.217339  -58.735680  -31.812706  0
-6.967339  -58.985680  -31.812706  0
-7.217339  -59.235680  -31.812706  0
-7.217339  -58.985680  -31.562706  0
-7.967339  -58.985680  -31.812706  0
-7.717339  -59.235680  -31.812706  0
-7.717339  -58.985680  -31.562706  0
-8.217339  -52.735680  -31.312706  0
-8.717339  -52.735680  -31.312706  0
-9.217339  -52.735680  -31.312706  0
-7.967339  -52.985680  -31.312706  0
-7.717339  -53.235680  -31.312706  0
-8.217339  -52.985680  -31.062706  0
-8.717339  -52.985680  -31.062706  0
-9.467339  -52.985680  -31.312706  0
-9.717339  -53.235680  -31.312706  0
-7.467339  -53.485680  -31.312706  0
-7.217339  -53.735680  -31.312706  0
-7.717339  -53.485680  -31.062706  0
-9.967339  -53.485680  -31.312706  0
-6.967339  -53.985680  -31.312706  0
-7.217339  -53.985680  -31.062706  0
-9.967339  -53.985680  -31.312706  0
-9.717339  -54.235680  -31.312706  0
-6.967339  -54.485680  -31.312706  0
-6.717339  -54.735680  -31.312706  0
-7.217339  -54.485680  -31.062706  0
-9.467339  -54.485680  -31.312706  0
-9.717339  -54.735680  -31.312706  0
-6.467339  -54.985680  -31.312706  0
-6.717339  -54.985680  -31.062706  0
-9.967339  -54.985680  -31.312706  0
-10.217339  -54.985680  -31.062706  0
-6.467339  -55.485680  -31.312706  0
-6.717339  -55.485680  -31.062706  0
-7.217339  -55.485680  -31.062706  0
-9.967339  -55.485680  -31.312706  0
-6.467339  -55.985680  -31.312706  0
-6.717339  -55.985680  -31.062706  0
-9.967339  -55.985680  -31.312706  0
-6.467339  -56.485680  -31.312706  0
-6.717339  -56.485680  -31.062706  0
-7.217339  -56.485680  -31.062706  0
-9.967339  -56.485680  -31.312706  0
-6.467339  -56.985680  -31.312706  0
-6.717339  -57.235680  -31.312706  0
-6.717339  -56.985680  -31.062706  0
-7.217339  -56.985680  -31.062706  0
-9.217339  -57.235680  -31.312706  0
-9.967339  -56.985680  -31.312706  0
-9.717339  -57.235680  -31.312706  0
-6.967339  -57.485680  -31.312706  0
-7.217339  -57.485680  -31.062706  0
-7.717339  -57.485680  -31.062706  0
-8.967339  -57.485680  -31.312706  0
-9.217339  -57.735680  -31.312706  0
-9.717339  -57.485680  -31.062706  0
-6.967339  -57.985680  -31.312706  0
-7.217339  -58.235680  -31.312706  0
-7.217339  -57.985680  -31.062706  0
-7.717339  -57.985680  -31.062706  0
-8.217339  -57.985680  -31.062706  0
-8.717339  -58.235680  -31.312706  0
-8.717339  -57.985680  -31.062706  0
-9.467339  -57.985680  -31.312706  0
-9.217339  -58.235680  -31.312706  0
-9.217339  -57.985680  -31.062706  0
-7.467339  -58.485680  -31.312706  0
-7.717339  -58.735680  -31.312706  0
-7.717339  -58.485680  -31.062706  0
-8.467339  -58.485680  -31.312706  0
-8.217339  -58.735680  -31.312706  0
-8.217339  -58.485680  -31.062706  0
-9.217339  -52.735680  -30.812706  0
-8.217339  -53.235680  -30.812706  0
-8.967339  -52.985680  -30.812706  0
-8.717339  -53.235680  -30.812706  0
-9.467339  -52.985680  -30.812706  0
-9.717339  -53.235680  -30.812706  0
-9.717339  -52.985680  -30.562706  0
-7.967339  -53.485680  -30.812706  0
-7.717339  -53.735680  -30.812706  0
-8.217339  -53.485680  -30.562706  0
-8.717339  -53.485680  -30.562706  0
-9.217339  -53.485680  -30.562706  0
-9.967339  -53.485680  -30.812706  0
-7.467339  -53.985680  -30.812706  0
-7.717339  -53.985680  -30.562706  0
-8.217339  -53.985680  -30.562706  0
-8.717339  -53.985680  -30.562706  0
-9.217339  -53.985680  -30.562706  0
-9.967339  -53.985680  -30.812706  0
-9.717339  -54.235680  -30.812706  0
-7.467339  -54.485680  -30.812706  0
-7.217339  -54.735680  -30.812706  0
-7.717339  -54.485680  -30.562706  0
-9.467339  -54.485680  -30.812706  0
-9.717339  -54.735680  -30.812706  0
-10.217339  -54.735680  -30.812706  0
-6.967339  -54.985680  -30.812706  0
-7.217339  -55.235680  -30.812706  0
-7.217339  -54.985680  -30.562706  0
-10.467339  -54.985680  -30.812706  0
-10.217339  -55.235680  -30.812706  0
-7.467339  -55.485680  -30.812706  0
-7.217339  -55.735680  -30.812706  0
-9.967339  -55.485680  -30.812706  0
-6.967339  -55.985680  -30.812706  0
-7.217339  -56.235680  -30.812706  0
-7.217339  -55.985680  -30.562706  0
-9.967339  -55.985680  -30.812706  0
-7.467339  -56.485680  -30.812706  0
-7.717339  -56.485680  -30.562706  0
-9.967339  -56.485680  -30.812706  0
-7.467339  -56.985680  -30.812706  0
-7.717339  -57.235680  -30.812706  0
-7.717339  -56.985680  -30.562706  0
-8.217339  -56.985680  -30.562706  0
-9.217339  -57.235680  -30.812706  0
-9.217339  -56.985680  -30.562706  0
-9.967339  -56.985680  -30.812706  0
-7.967339  -57.485680  -30.812706  0
-8.217339  -57.735680  -30.812706  0
-8.217339  -57.485680  -30.562706  0
-8.967339  -57.485680  -30.812706  0
-8.717339  -57.735680  -30.812706  0
-8.717339  -57.485680  -30.562706  0
-9.467339  -57.485680  -30.812706  0
-9.967339  -57.485680  -30.812706  0
-9.717339  -57.735680  -30.812706  0
-9.717339  -57.485680  -30.562706  0
-9.217339  -52.735680  -30.312706  0
-9.717339  -52.735680  -30.312706  0
-8.967339  -52.985680  -30.312706  0
-9.217339  -53.235680  -30.312706  0
-9.217339  -52.985680  -30.062706  0
-9.967339  -52.985680  -30.312706  0
-9.717339  -52.985680  -30.062706  0
-9.467339  -53.485680  -30.312706  0
-9.967339  -53.485680  -30.312706  0
-8.217339  -54.235680  -30.312706  0
-8.717339  -54.235680  -30.312706  0
-9.467339  -53.985680  -30.312706  0
-9.217339  -54.235680  -30.312706  0
-9.967339  -53.985680  -30.312706  0
-9.717339  -54.235680  -30.312706  0
-7.967339  -54.485680  -30.312706  0
-7.717339  -54.735680  -30.312706  0
-8.217339  -54.485680  -30.062706  0
-8.717339  -54.485680  -30.062706  0
-9.467339  -54.485680  -30.312706  0
-9.217339  -54.485680  -30.062706  0
-9.717339  -54.735680  -30.312706  0
-10.217339  -54.735680  -30.312706  0
-7.467339  -54.985680  -30.312706  0
-7.717339  -54.985680  -30.062706  0
-8.217339  -54.985680  -30.062706  0
-10.467339  -54.985680  -30.312706  0
-10.217339  -55.235680  -30.312706  0
-7.467339  -55.485680  -30.312706  0
-7.717339  -55.485680  -30.062706  0
-8.217339  -55.485680  -30.062706  0
-8.717339  -55.485680  -30.062706  0
-9.967339  -55.485680  -30.312706  0
-7.467339  -55.985680  -30.312706  0
-7.717339  -56.235680  -30.312706  0
-7.717339  -55.985680  -30.062706  0
-8.217339  -55.985680  -30.062706  0
-8.717339  -55.985680  -30.062706  0
-9.217339  -55.985680  -30.062706  0
-9.967339  -55.985680  -30.312706  0
-7.967339  -56.485680  -30.312706  0
-8.217339  -56.735680  -30.312706  0
-8.217339  -56.485680  -30.062706  0
-8.717339  -56.485680  -30.062706  0
-9.217339  -56.735680  -30.312706  0
-9.217339  -56.485680  -30.062706  0
-9.967339  -56.485680  -30.312706  0
-8.467339  -56.985680  -30.312706  0
-8.967339  -56.985680  -30.312706  0
-8.717339  -57.235680  -30.312706  0
-8.717339  -56.985680  -30.062706  0
-9.467339  -56.985680  -30.312706  0
-9.967339  -56.985680  -30.312706  0
-9.717339  -57.235680  -30.312706  0
-9.717339  -56.985680  -30.062706  0
-9.717339  -53.235680  -29.812706  0
-9.467339  -53.485680  -29.812706  0
-9.967339  -53.485680  -29.812706  0
-9.717339  -53.485680  -29.562706  0
-9.467339  -53.985680  -29.812706  0
-9.967339  -53.985680  -29.812706  0
-9.717339  -54.235680  -29.812706  0
-9.717339  -53.985680  -29.562706  0
-8.717339  -54.735680  -29.812706  0
-9.217339  -54.735680  -29.812706  0
-9.717339  -54.735680  -29.812706  0
-10.217339  -54.735680  -29.812706  0
-8.467339  -54.985680  -29.812706  0
-8.717339  -55.235680  -29.812706  0
-8.717339  -54.985680  -29.562706  0
-10.467339  -54.985680  -29.812706  0
-10.217339  -55.235680  -29.812706  0
-8.967339  -55.485680  -29.812706  0
-9.217339  -55.735680  -29.812706  0
-9.217339  -55.485680  -29.562706  0
-9.967339  -55.485680  -29.812706  0
-9.717339  -55.485680  -29.562706  0
-9.467339  -55.985680  -29.812706  0
-9.967339  -55.985680  -29.812706  0
-9.717339  -55.985680  -29.562706  0
-9.467339  -56.485680  -29.812706  0
-9.967339  -56.485680  -29.812706  0
-9.717339  -56.735680  -29.812706  0
-9.717339  -56.485680  -29.562706  0
-9.217339  -54.735680  -29.312706  0
-9.717339  -54.735680  -29.312706  0
-10.217339  -54.735680  -29.312706  0
-8.967339  -54.985680  -29.312706  0
-9.217339  -55.235680  -29.312706  0
-9.217339  -54.985680  -29.062706  0
-9.717339  -55.235680  -29.312706  0
-9.717339  -54.985680  -29.062706  0
-10.467339  -54.985680  -29.312706  0
-10.217339  -55.235680  -29.312706  0
-10.217339  -54.985680  -29.062706  0
6 11 0 0
0 12 6 0
11 13 0 0
0 13 12 0
19 23 1 0
1 24 19 0
23 25 1 0
1 25 24 0
36 43 2 0
3 37 2 0
2 37 36 0
4 39 3 0
3 39 37 0
5 41 4 0
4 41 39 0
5 44 41 0
2 43 7 0
7 43 47 0
2 8 3 0
2 7 8 0
3 9 4 0
3 8 9 0
4 10 5 0
4 9 10 0
44 5 48 0
48 5 10 0
7 47 6 0
47 11 6 0
47 51 11 0
7 6 12 0
14 7 12 0
8 7 14 0
8 15 9 0
8 14 15 0
9 16 10 0
9 15 16 0
48 10 49 0
10 17 49 0
10 16 17 0
17 54 49 0
52 56 18 0
18 20 13 0
51 18 13 0
11 51 13 0
18 51 52 0
14 12 13 0
20 14 13 0
21 14 20 0
14 22 15 0
14 21 22 0
53 16 59 0
16 22 59 0
16 15 22 0
16 53 17 0
17 53 55 0
17 55 54 0
56 57 18 0
62 23 19 0
18 62 19 0
20 18 19 0
57 62 18 0
20 19 24 0
26 20 24 0
21 20 26 0
21 27 22 0
21 26 27 0
59 22 65 0
65 22 27 0
62 63 23 0
23 63 25 0
24 25 26 0
25 64 26 0
25 63 64 0
26 64 27 0
27 64 66 0
27 66 65 0
73 83 28 0
29 75 28 0
28 75 73 0
30 77 29 0
29 77 75 0
31 79 30 0
30 79 77 0
31 84 79 0
28 83 32 0
32 83 87 0
28 33 29 0
28 32 33 0
29 34 30 0
29 33 34 0
30 35 31 0
30 34 35 0
84 31 88 0
88 31 35 0
32 87 38 0
38 87 91 0
32 40 33 0
32 38 40 0
33 42 34 0
33 40 42 0
89 35 94 0
35 42 94 0
35 34 42 0
35 89 88 0
92 99 36 0
36 99 43 0
37 38 91 0
92 37 91 0
36 37 92 0
38 37 39 0
38 39 40 0
40 39 41 0
40 41 42 0
45 95 44 0
44 95 41 0
95 94 41 0
94 42 41 0
46 97 45 0
45 97 95 0
46 100 97 0
99 47 43 0
103 47 99 0
48 50 45 0
48 45 44 0
101 46 104 0
46 50 104 0
46 45 50 0
46 101 100 0
103 51 47 0
107 51 103 0
49 50 48 0
49 54 50 0
54 104 50 0
54 108 104 0
58 56 52 0
110 58 52 0
51 110 52 0
107 110 51 0
59 60 53 0
61 55 53 0
61 53 60 0
61 111 55 0
111 54 55 0
111 108 54 0
58 57 56 0
62 57 58 0
110 62 58 0
113 62 110 0
65 67 60 0
65 60 59 0
60 68 61 0
60 67 68 0
111 61 119 0
119 61 68 0
113 114 62 0
62 114 63 0
63 116 64 0
114 116 63 0
64 117 66 0
116 117 64 0
65 66 67 0
66 118 67 0
66 117 118 0
67 118 68 0
68 118 120 0
68 120 119 0
123 131 69 0
70 124 69 0
69 124 123 0
71 126 70 0
70 126 124 0
72 128 71 0
71 128 126 0
72 133 128 0
132 136 74 0
132 74 131 0
74 69 131 0
74 76 69 0
69 78 70 0
69 76 78 0
70 80 71 0
70 78 80 0
71 81 72 0
71 80 81 0
133 72 134 0
72 82 134 0
72 81 82 0
82 138 134 0
74 136 73 0
136 83 73 0
136 139 83 0
74 73 75 0
74 75 76 0
76 75 77 0
76 77 78 0
78 77 79 0
78 79 80 0
80 79 84 0
85 80 84 0
81 80 85 0
81 86 82 0
81 85 86 0
138 82 140 0
140 82 86 0
139 87 83 0
142 87 139 0
88 90 85 0
88 85 84 0
141 86 144 0
86 90 144 0
86 85 90 0
86 141 140 0
143 146 93 0
142 143 93 0
91 142 93 0
87 142 91 0
94 96 89 0
90 88 89 0
96 90 89 0
98 90 96 0
144 90 148 0
148 90 98 0
93 146 92 0
146 99 92 0
146 152 99 0
93 92 91 0
95 96 94 0
96 95 97 0
96 97 98 0
102 149 100 0
100 149 97 0
149 148 97 0
148 98 97 0
102 154 149 0
152 103 99 0
155 103 152 0
104 105 101 0
102 100 101 0
105 102 101 0
106 102 105 0
154 102 157 0
157 102 106 0
155 107 103 0
159 107 155 0
108 109 105 0
108 105 104 0
158 106 161 0
106 109 161 0
106 105 109 0
106 158 157 0
159 110 107 0
163 110 159 0
111 112 109 0
111 109 108 0
161 109 166 0
166 109 112 0
115 113 164 0
113 163 164 0
113 110 163 0
169 115 164 0
174 167 112 0
111 174 112 0
119 174 111 0
112 167 166 0
115 114 113 0
169 170 115 0
170 114 115 0
170 116 114 0
116 172 117 0
170 172 116 0
117 173 118 0
172 173 117 0
118 175 120 0
173 175 118 0
119 120 174 0
174 120 175 0
177 181 121 0
122 178 121 0
121 178 177 0
122 183 178 0
182 188 125 0
182 125 181 0
125 121 181 0
125 127 121 0
121 129 122 0
121 127 129 0
183 122 184 0
122 130 184 0
122 129 130 0
130 190 184 0
189 193 123 0
123 193 131 0
124 125 188 0
189 124 188 0
123 124 189 0
125 124 126 0
125 126 127 0
127 126 128 0
127 128 129 0
129 128 133 0
135 129 133 0
130 129 135 0
190 130 195 0
195 130 135 0
137 136 132 0
197 137 132 0
131 197 132 0
193 197 131 0
134 135 133 0
134 138 135 0
138 195 135 0
138 199 195 0
198 202 137 0
202 136 137 0
202 139 136 0
198 137 197 0
140 199 138 0
140 204 199 0
202 142 139 0
207 142 202 0
144 145 141 0
145 208 141 0
208 140 141 0
208 204 140 0
147 146 143 0
212 147 143 0
142 212 143 0
207 212 142 0
148 150 145 0
148 145 144 0
208 145 209 0
145 151 209 0
145 150 151 0
151 213 209 0
153 152 147 0
147 152 146 0
147 212 216 0
147 216 153 0
149 150 148 0
151 150 214 0
150 154 214 0
154 217 214 0
154 150 149 0
151 214 213 0
156 155 153 0
153 155 152 0
153 216 219 0
153 219 156 0
157 217 154 0
157 220 217 0
160 159 156 0
156 159 155 0
156 219 222 0
156 222 160 0
161 162 158 0
162 224 158 0
224 157 158 0
224 220 157 0
165 163 160 0
160 163 159 0
160 222 226 0
160 226 165 0
166 168 162 0
166 162 161 0
224 162 229 0
229 162 168 0
165 164 163 0
227 171 169 0
227 169 164 0
226 227 164 0
165 226 164 0
231 171 227 0
174 176 167 0
176 236 167 0
167 236 166 0
236 230 166 0
230 168 166 0
168 230 229 0
171 170 169 0
231 232 171 0
232 170 171 0
232 172 170 0
172 234 173 0
232 234 172 0
173 235 175 0
234 235 173 0
174 175 176 0
175 237 176 0
175 235 237 0
176 237 236 0
238 241 179 0
180 239 179 0
179 239 238 0
180 244 239 0
242 250 177 0
177 250 181 0
178 179 241 0
242 178 241 0
177 178 242 0
179 178 183 0
185 179 183 0
180 179 185 0
244 180 245 0
180 186 245 0
180 185 186 0
187 247 186 0
186 247 245 0
187 253 247 0
251 255 182 0
182 255 188 0
182 181 250 0
182 250 251 0
184 185 183 0
185 184 190 0
191 185 190 0
186 185 191 0
186 192 187 0
186 191 192 0
253 187 257 0
257 187 192 0
194 193 189 0
260 194 189 0
188 260 189 0
255 260 188 0
195 196 191 0
195 191 190 0
258 192 263 0
192 196 263 0
192 191 196 0
192 258 257 0
261 267 194 0
267 193 194 0
267 197 193 0
261 194 260 0
199 200 196 0
199 196 195 0
263 196 264 0
196 201 264 0
196 200 201 0
201 269 264 0
203 202 198 0
271 203 198 0
197 271 198 0
267 271 197 0
204 205 200 0
204 200 199 0
200 206 201 0
200 205 206 0
269 201 273 0
273 201 206 0
272 276 203 0
276 202 203 0
276 207 202 0
272 203 271 0
208 210 205 0
208 205 204 0
205 211 206 0
205 210 211 0
273 206 278 0
278 206 211 0
276 212 207 0
280 212 276 0
209 210 208 0
210 209 213 0
215 210 213 0
211 210 215 0
278 211 282 0
282 211 215 0
280 216 212 0
285 216 280 0
217 218 214 0
218 287 214 0
214 287 213 0
287 283 213 0
283 215 213 0
215 283 282 0
285 219 216 0
290 219 285 0
220 221 218 0
220 218 217 0
287 218 293 0
293 218 221 0
223 222 291 0
222 290 291 0
222 219 290 0
295 223 291 0
224 225 221 0
224 221 220 0
293 221 297 0
297 221 225 0
228 226 223 0
223 226 222 0
223 295 299 0
223 299 228 0
302 298 225 0
224 302 225 0
229 302 224 0
225 298 297 0
228 227 226 0
300 233 231 0
300 231 227 0
299 300 227 0
228 299 227 0
304 233 300 0
308 303 230 0
308 230 236 0
229 230 302 0
302 230 303 0
233 232 231 0
304 305 233 0
305 232 233 0
305 234 232 0
234 307 235 0
305 307 234 0
235 309 237 0
307 309 235 0
236 237 308 0
308 237 309 0
311 313 240 0
240 315 311 0
243 241 238 0
243 238 317 0
238 312 317 0
238 239 312 0
246 314 244 0
314 239 244 0
314 312 239 0
314 246 313 0
246 240 313 0
246 248 240 0
315 240 316 0
240 249 316 0
240 248 249 0
249 319 316 0
252 250 242 0
320 252 242 0
320 242 241 0
318 320 241 0
243 318 241 0
318 243 317 0
245 246 244 0
246 245 247 0
246 247 248 0
248 247 253 0
254 248 253 0
249 248 254 0
319 249 322 0
322 249 254 0
256 255 251 0
323 256 251 0
323 251 250 0
321 323 250 0
252 321 250 0
321 252 320 0
257 259 254 0
257 254 253 0
322 254 325 0
325 254 259 0
262 260 256 0
256 260 255 0
256 323 326 0
256 326 262 0
263 265 258 0
259 257 258 0
265 259 258 0
266 259 265 0
325 259 328 0
328 259 266 0
268 267 261 0
329 268 261 0
329 261 260 0
327 329 260 0
262 327 260 0
327 262 326 0
264 265 263 0
265 264 269 0
270 265 269 0
266 265 270 0
328 266 332 0
332 266 270 0
330 335 268 0
335 267 268 0
335 271 267 0
330 268 329 0
273 274 270 0
273 270 269 0
332 270 333 0
270 275 333 0
270 274 275 0
275 337 333 0
277 276 272 0
339 277 272 0
271 339 272 0
335 339 271 0
278 279 274 0
278 274 273 0
338 275 341 0
275 279 341 0
275 274 279 0
275 338 337 0
281 280 277 0
277 280 276 0
277 339 343 0
277 343 281 0
282 284 279 0
282 279 278 0
341 279 345 0
345 279 284 0
286 285 281 0
281 285 280 0
281 343 346 0
281 346 286 0
287 288 283 0
284 282 283 0
288 284 283 0
289 284 288 0
345 284 348 0
348 284 289 0
292 290 286 0
286 290 285 0
286 346 350 0
286 350 292 0
293 294 288 0
293 288 287 0
349 289 353 0
289 294 353 0
289 288 294 0
289 349 348 0
292 291 290 0
351 296 295 0
351 295 291 0
350 351 291 0
292 350 291 0
355 296 351 0
357 354 294 0
293 357 294 0
297 357 293 0
294 354 353 0
301 299 296 0
296 299 295 0
296 355 360 0
296 360 301 0
364 358 298 0
364 298 302 0
297 298 357 0
357 298 358 0
301 300 299 0
361 306 304 0
361 304 300 0
360 361 300 0
301 360 300 0
366 306 361 0
308 310 303 0
310 370 303 0
370 302 303 0
370 364 302 0
306 305 304 0
366 367 306 0
367 305 306 0
367 307 305 0
307 369 309 0
367 369 307 0
308 309 310 0
309 371 310 0
309 369 371 0
310 371 370 0
372 374 311 0
311 374 313 0
311 315 372 0
372 315 376 0
373 379 312 0
312 379 317 0
375 312 314 0
375 373 312 0
314 313 374 0
314 374 375 0
378 376 315 0
378 315 316 0
316 319 378 0
378 319 382 0
380 383 318 0
318 383 320 0
318 317 379 0
318 379 380 0
322 382 319 0
322 385 382 0
324 323 321 0
387 324 321 0
320 387 321 0
383 387 320 0
325 385 322 0
325 389 385 0
388 391 324 0
391 323 324 0
391 326 323 0
388 324 387 0
328 389 325 0
328 393 389 0
331 329 327 0
395 331 327 0
326 395 327 0
391 395 326 0
332 334 394 0
393 332 394 0
328 332 393 0
334 397 394 0
336 335 330 0
398 336 330 0
398 330 329 0
396 398 329 0
331 396 329 0
396 331 395 0
333 334 332 0
333 337 334 0
337 397 334 0
337 400 397 0
340 339 336 0
336 339 335 0
336 398 401 0
336 401 340 0
341 342 338 0
342 403 338 0
403 337 338 0
403 400 337 0
344 343 340 0
340 343 339 0
340 401 405 0
340 405 344 0
407 404 342 0
341 407 342 0
345 407 341 0
342 404 403 0
347 346 344 0
344 346 343 0
344 405 409 0
344 409 347 0
348 407 345 0
348 411 407 0
352 350 347 0
347 350 346 0
347 409 414 0
347 414 352 0
418 412 349 0
418 349 353 0
348 349 411 0
411 349 412 0
352 351 350 0
415 356 355 0
415 355 351 0
414 415 351 0
352 414 351 0
419 356 415 0
357 359 354 0
359 422 354 0
422 353 354 0
422 418 353 0
362 360 356 0
356 360 355 0
356 419 420 0
363 356 420 0
362 356 363 0
425 363 420 0
364 365 358 0
365 427 358 0
358 427 357 0
427 423 357 0
423 359 357 0
359 423 422 0
362 361 360 0
361 362 366 0
362 368 366 0
362 363 368 0
363 425 429 0
363 429 368 0
432 428 365 0
364 432 365 0
370 432 364 0
365 428 427 0
368 367 366 0
429 430 368 0
430 367 368 0
430 369 367 0
369 433 371 0
430 433 369 0
370 371 432 0
432 371 433 0
377 374 372 0
376 377 372 0
381 379 373 0
381 373 438 0
373 435 438 0
373 375 435 0
375 374 377 0
436 375 377 0
435 375 436 0
436 377 376 0
378 436 376 0
437 436 378 0
378 382 437 0
437 382 442 0
384 383 380 0
444 384 380 0
444 380 379 0
439 444 379 0
381 439 379 0
439 381 438 0
385 386 443 0
442 385 443 0
382 385 442 0
386 447 443 0
445 448 384 0
448 383 384 0
448 387 383 0
445 384 444 0
389 390 386 0
389 386 385 0
447 386 450 0
450 386 390 0
392 391 388 0
452 392 388 0
387 452 388 0
448 452 387 0
455 451 390 0
389 455 390 0
393 455 389 0
390 451 450 0
453 457 392 0
457 391 392 0
457 395 391 0
453 392 452 0
456 455 393 0
456 393 394 0
394 397 456 0
456 397 459 0
399 398 396 0
461 399 396 0
395 461 396 0
457 461 395 0
400 459 397 0
400 464 459 0
402 401 399 0
399 401 398 0
399 461 465 0
399 465 402 0
403 464 400 0
403 467 464 0
406 405 402 0
402 405 401 0
402 465 468 0
402 468 406 0
407 408 404 0
408 471 404 0
471 403 404 0
471 467 403 0
410 409 406 0
406 409 405 0
406 468 472 0
406 472 410 0
411 413 408 0
411 408 407 0
471 408 477 0
477 408 413 0
416 414 410 0
410 414 409 0
410 472 473 0
417 410 473 0
416 410 417 0
479 417 473 0
482 476 412 0
482 412 418 0
411 412 413 0
412 478 413 0
412 476 478 0
413 478 477 0
416 415 414 0
415 416 419 0
416 421 419 0
416 417 421 0
417 479 485 0
417 485 421 0
422 424 483 0
482 422 483 0
418 422 482 0
424 492 483 0
421 420 419 0
486 426 425 0
486 425 420 0
485 486 420 0
421 485 420 0
495 426 486 0
498 490 423 0
498 423 427 0
422 423 424 0
423 493 424 0
423 490 493 0
424 493 492 0
431 429 426 0
426 429 425 0
426 495 496 0
434 426 496 0
431 426 434 0
428 432 434 0
496 428 434 0
499 428 496 0
427 428 498 0
498 428 499 0
431 430 429 0
430 431 433 0
433 431 434 0
433 434 432 0
440 438 435 0
436 441 435 0
435 441 440 0
441 436 503 0
436 501 503 0
436 437 501 0
437 442 501 0
501 442 505 0
446 444 439 0
508 446 439 0
508 439 438 0
502 508 438 0
440 502 438 0
502 440 441 0
502 441 504 0
504 441 503 0
506 505 442 0
506 442 443 0
443 447 506 0
506 447 513 0
449 448 445 0
514 449 445 0
514 445 444 0
509 514 444 0
446 509 444 0
509 446 508 0
450 513 447 0
450 519 513 0
454 452 449 0
449 452 448 0
449 514 521 0
449 521 454 0
524 520 451 0
524 451 455 0
450 451 519 0
519 451 520 0
458 457 453 0
527 458 453 0
527 453 452 0
522 527 452 0
454 522 452 0
522 454 521 0
525 524 455 0
525 455 456 0
460 526 459 0
526 456 459 0
526 525 456 0
460 530 526 0
462 461 458 0
458 461 457 0
458 527 528 0
463 458 528 0
462 458 463 0
532 463 528 0
534 531 460 0
459 534 460 0
464 534 459 0
460 531 530 0
466 465 462 0
462 465 461 0
463 533 535 0
466 463 535 0
462 463 466 0
533 463 532 0
467 534 464 0
467 538 534 0
469 468 466 0
466 468 465 0
466 535 536 0
470 466 536 0
469 466 470 0
539 470 536 0
471 538 467 0
471 541 538 0
474 472 469 0
469 472 468 0
475 469 470 0
474 469 475 0
470 539 542 0
470 542 475 0
477 541 471 0
477 548 541 0
474 473 472 0
473 474 479 0
474 480 479 0
474 475 480 0
475 542 543 0
481 475 543 0
480 475 481 0
549 481 543 0
552 546 476 0
552 476 482 0
546 555 484 0
478 546 484 0
476 546 478 0
484 556 478 0
556 477 478 0
556 548 477 0
487 485 480 0
480 485 479 0
488 480 481 0
487 480 488 0
481 549 550 0
489 481 550 0
488 481 489 0
553 491 489 0
553 489 550 0
494 491 483 0
491 552 483 0
552 482 483 0
552 491 553 0
555 557 484 0
494 483 492 0
484 557 556 0
487 486 485 0
486 487 495 0
487 497 495 0
487 488 497 0
500 488 489 0
497 488 500 0
498 500 490 0
500 491 490 0
500 489 491 0
490 491 493 0
493 491 494 0
493 494 492 0
497 496 495 0
496 497 499 0
499 497 500 0
499 500 498 0
559 561 501 0
501 561 503 0
507 560 505 0
560 501 505 0
560 559 501 0
507 564 560 0
510 508 502 0
504 511 502 0
502 511 510 0
503 561 562 0
511 503 562 0
512 511 562 0
504 503 511 0
507 506 505 0
566 562 512 0
506 513 507 0
513 564 507 0
513 567 564 0
515 514 509 0
508 510 509 0
510 515 509 0
510 516 515 0
517 510 511 0
516 510 517 0
518 511 512 0
517 511 518 0
512 566 570 0
512 570 518 0
519 567 513 0
519 572 567 0
523 521 515 0
515 521 514 0
516 568 574 0
523 516 574 0
515 516 523 0
568 516 517 0
568 517 569 0
569 517 518 0
569 518 571 0
524 571 578 0
518 524 571 0
520 518 524 0
570 520 518 0
573 570 520 0
519 520 572 0
572 520 573 0
529 527 522 0
582 529 522 0
582 522 521 0
575 582 521 0
523 575 521 0
575 523 574 0
580 578 524 0
580 524 525 0
581 525 526 0
581 580 525 0
526 530 581 0
581 530 585 0
529 528 527 0
532 528 529 0
582 532 529 0
587 532 582 0
591 586 531 0
591 531 534 0
530 531 585 0
585 531 586 0
537 535 533 0
592 537 533 0
532 592 533 0
587 592 532 0
538 591 534 0
538 598 591 0
537 536 535 0
593 540 539 0
593 539 536 0
592 593 536 0
537 592 536 0
599 540 593 0
541 598 538 0
541 605 598 0
544 542 540 0
540 542 539 0
540 599 600 0
545 540 600 0
544 540 545 0
606 545 600 0
607 603 547 0
610 547 603 0
548 605 541 0
548 611 605 0
544 543 542 0
543 544 549 0
544 551 549 0
544 545 551 0
545 606 608 0
554 545 608 0
551 545 554 0
554 608 607 0
554 607 547 0
552 554 547 0
546 552 547 0
612 558 555 0
612 555 546 0
610 612 546 0
547 610 546 0
612 611 558 0
611 556 558 0
611 548 556 0
551 550 549 0
550 551 553 0
553 551 554 0
553 554 552 0
558 557 555 0
557 558 556 0
563 561 559 0
560 565 559 0
559 565 563 0
564 565 560 0
563 562 561 0
563 565 614 0
566 563 614 0
615 566 614 0
563 566 562 0
565 564 614 0
564 616 614 0
564 567 616 0
615 570 566 0
618 570 615 0
572 616 567 0
572 619 616 0
576 574 568 0
569 577 568 0
568 577 576 0
571 579 569 0
569 579 577 0
620 578 573 0
579 620 578 0
618 579 620 0
571 618 579 0
570 571 618 0
572 573 619 0
619 573 620 0
583 582 575 0
574 576 575 0
576 583 575 0
576 584 583 0
577 622 626 0
584 577 626 0
576 577 584 0
622 577 579 0
622 579 623 0
623 579 578 0
580 623 578 0
624 623 580 0
625 580 581 0
625 624 580 0
581 585 625 0
625 585 629 0
588 587 583 0
583 587 582 0
589 583 584 0
588 583 589 0
584 626 627 0
590 584 627 0
589 584 590 0
631 590 627 0
634 630 586 0
634 586 591 0
585 586 629 0
629 586 630 0
594 592 588 0
588 592 587 0
595 588 589 0
594 588 595 0
596 589 590 0
595 589 596 0
590 631 632 0
597 590 632 0
596 590 597 0
636 597 632 0
598 634 591 0
598 637 634 0
594 593 592 0
593 594 599 0
594 601 599 0
594 595 601 0
602 595 596 0
601 595 602 0
604 596 597 0
602 596 604 0
597 636 639 0
597 639 604 0
605 637 598 0
605 640 637 0
601 600 599 0
600 601 606 0
601 609 606 0
601 602 609 0
607 609 603 0
609 604 603 0
609 602 604 0
641 613 610 0
641 610 603 0
639 641 603 0
604 639 603 0
641 640 613 0
640 611 613 0
640 605 611 0
609 608 606 0
608 609 607 0
613 612 610 0
612 613 611 0
617 615 614 0
616 617 614 0
621 618 617 0
617 618 615 0
619 621 616 0
616 621 617 0
621 620 618 0
620 621 619 0
628 626 622 0
628 622 646 0
622 643 646 0
622 623 643 0
644 623 624 0
644 643 623 0
645 624 625 0
645 644 624 0
625 629 645 0
645 629 651 0
628 627 626 0
647 633 631 0
647 631 627 0
646 647 627 0
628 646 627 0
649 635 633 0
649 633 647 0
630 634 635 0
649 630 635 0
652 630 649 0
629 630 651 0
651 630 652 0
633 632 631 0
632 633 636 0
633 638 636 0
633 635 638 0
637 638 634 0
634 638 635 0
642 639 638 0
638 639 636 0
640 642 637 0
637 642 638 0
642 641 639 0
641 642 640 0
648 646 643 0
644 650 643 0
643 650 648 0
645 653 644 0
644 653 650 0
651 653 645 0
648 647 646 0
647 648 649 0
649 648 650 0
649 650 652 0
652 650 653 0
652 653 651 0
