#!ascii version in FreeSurfer format (SUMA)
478 952
-3.662704  -51.205566  -25.869724  0
-4.162704  -51.205566  -25.869724  0
-4.662704  -51.205566  -25.869724  0
-3.162704  -51.705566  -25.869724  0
-3.662704  -51.705566  -25.869724  0
-4.162704  -51.705566  -25.869724  0
-4.662704  -51.705566  -25.869724  0
-5.162704  -51.705566  -25.869724  0
-3.162704  -52.205566  -25.869724  0
-3.662704  -52.205566  -25.869724  0
-4.162704  -52.205566  -25.869724  0
-4.662704  -52.205566  -25.869724  0
-5.162704  -52.205566  -25.869724  0
-3.162704  -52.705566  -25.869724  0
-3.662704  -52.705566  -25.869724  0
-4.162704  -52.705566  -25.869724  0
-4.662704  -52.705566  -25.869724  0
-5.162704  -52.705566  -25.869724  0
-3.162704  -53.205566  -25.869724  0
-3.662704  -53.205566  -25.869724  0
-4.162704  -53.205566  -25.869724  0
-4.662704  -53.205566  -25.869724  0
-3.662704  -53.705566  -25.869724  0
-4.162704  -53.705566  -25.869724  0
-3.662704  -49.705566  -25.369720  0
-4.162704  -49.705566  -25.369720  0
-4.662704  -49.705566  -25.369720  0
-3.662704  -50.205566  -25.369720  0
-4.162704  -50.205566  -25.369720  0
-4.662704  -50.205566  -25.369720  0
-5.162704  -50.205566  -25.369720  0
-3.162704  -50.705566  -25.369720  0
-3.662704  -50.955566  -25.619724  0
-3.662704  -50.705566  -25.369720  0
-4.162704  -50.955566  -25.619724  0
-4.162704  -50.705566  -25.369720  0
-4.662704  -50.955566  -25.619724  0
-4.662704  -50.705566  -25.369720  0
-5.162704  -50.705566  -25.369720  0
-3.412704  -51.205566  -25.619724  0
-3.162704  -51.455566  -25.619724  0
-3.162704  -51.205566  -25.369720  0
-4.912704  -51.205566  -25.619724  0
-5.162704  -51.455566  -25.619724  0
-5.162704  -51.205566  -25.369720  0
-2.912704  -51.705566  -25.619724  0
-5.412704  -51.705566  -25.619724  0
-5.662704  -51.705566  -25.369720  0
-6.162704  -51.705566  -25.369720  0
-2.912704  -52.205566  -25.619724  0
-5.412704  -52.205566  -25.619724  0
-5.662704  -52.205566  -25.369720  0
-6.162704  -52.205566  -25.369720  0
-2.912704  -52.705566  -25.619724  0
-5.412704  -52.705566  -25.619724  0
-5.162704  -52.955566  -25.619724  0
-5.662704  -52.705566  -25.369720  0
-2.912704  -53.205566  -25.619724  0
-3.162704  -53.455566  -25.619724  0
-4.912704  -53.205566  -25.619724  0
-4.662704  -53.455566  -25.619724  0
-5.162704  -53.205566  -25.369720  0
-3.412704  -53.705566  -25.619724  0
-3.162704  -53.705566  -25.369720  0
-3.662704  -53.955566  -25.619724  0
-4.412704  -53.705566  -25.619724  0
-4.162704  -53.955566  -25.619724  0
-4.662704  -53.705566  -25.369720  0
-3.162704  -54.205566  -25.369720  0
-3.662704  -54.205566  -25.369720  0
-4.162704  -54.205566  -25.369720  0
-3.662704  -49.455566  -25.119720  0
-4.162704  -49.455566  -25.119720  0
-4.662704  -49.455566  -25.119720  0
-3.412704  -49.705566  -25.119720  0
-4.912704  -49.705566  -25.119720  0
-5.162704  -49.955566  -25.119720  0
-5.162704  -49.705566  -24.869717  0
-5.662704  -49.705566  -24.869717  0
-6.162704  -49.705566  -24.869717  0
-3.412704  -50.205566  -25.119720  0
-3.162704  -50.455566  -25.119720  0
-5.412704  -50.205566  -25.119720  0
-5.662704  -50.205566  -24.869717  0
-6.162704  -50.205566  -24.869717  0
-6.662704  -50.205566  -24.869717  0
-2.912704  -50.705566  -25.119720  0
-3.162704  -50.705566  -24.869717  0
-5.412704  -50.705566  -25.119720  0
-5.662704  -50.705566  -24.869717  0
-6.162704  -50.705566  -24.869717  0
-6.662704  -50.705566  -24.869717  0
-2.912704  -51.205566  -25.119720  0
-5.412704  -51.205566  -25.119720  0
-5.662704  -51.455566  -25.119720  0
-5.662704  -51.205566  -24.869717  0
-6.162704  -51.455566  -25.119720  0
-6.162704  -51.205566  -24.869717  0
-6.662704  -51.205566  -24.869717  0
-2.912704  -51.705566  -25.119720  0
-6.412704  -51.705566  -25.119720  0
-6.662704  -51.705566  -24.869717  0
-2.912704  -52.205566  -25.119720  0
-6.412704  -52.205566  -25.119720  0
-6.162704  -52.455566  -25.119720  0
-6.662704  -52.205566  -24.869717  0
-2.912704  -52.705566  -25.119720  0
-5.912704  -52.705566  -25.119720  0
-5.662704  -52.955566  -25.119720  0
-6.162704  -52.705566  -24.869717  0
-2.912704  -53.205566  -25.119720  0
-5.412704  -53.205566  -25.119720  0
-5.162704  -53.455566  -25.119720  0
-5.662704  -53.205566  -24.869717  0
-2.912704  -53.705566  -25.119720  0
-4.912704  -53.705566  -25.119720  0
-4.662704  -53.955566  -25.119720  0
-2.912704  -54.205566  -25.119720  0
-3.162704  -54.455566  -25.119720  0
-3.662704  -54.455566  -25.119720  0
-4.412704  -54.205566  -25.119720  0
-4.162704  -54.455566  -25.119720  0
-3.662704  -49.455566  -24.619717  0
-4.162704  -49.455566  -24.619717  0
-4.662704  -49.455566  -24.619717  0
-5.162704  -49.455566  -24.619717  0
-5.662704  -49.455566  -24.619717  0
-6.162704  -49.455566  -24.619717  0
-3.412704  -49.705566  -24.619717  0
-3.662704  -49.705566  -24.369713  0
-6.412704  -49.705566  -24.619717  0
-6.662704  -49.955566  -24.619717  0
-6.662704  -49.705566  -24.369713  0
-3.412704  -50.205566  -24.619717  0
-6.912704  -50.205566  -24.619717  0
-7.162704  -50.205566  -24.369713  0
-7.662704  -50.205566  -24.369713  0
-3.412704  -50.705566  -24.619717  0
-3.162704  -50.955566  -24.619717  0
-6.912704  -50.705566  -24.619717  0
-7.162704  -50.705566  -24.369713  0
-7.662704  -50.705566  -24.369713  0
-2.912704  -51.205566  -24.619717  0
-3.162704  -51.205566  -24.369713  0
-6.912704  -51.205566  -24.619717  0
-7.162704  -51.205566  -24.369713  0
-7.662704  -51.205566  -24.369713  0
-2.912704  -51.705566  -24.619717  0
-3.162704  -51.705566  -24.369713  0
-6.912704  -51.705566  -24.619717  0
-7.162704  -51.705566  -24.369713  0
-2.912704  -52.205566  -24.619717  0
-3.162704  -52.205566  -24.369713  0
-6.912704  -52.205566  -24.619717  0
-6.662704  -52.455566  -24.619717  0
-7.162704  -52.205566  -24.369713  0
-2.912704  -52.705566  -24.619717  0
-3.162704  -52.705566  -24.369713  0
-6.412704  -52.705566  -24.619717  0
-6.162704  -52.955566  -24.619717  0
-6.662704  -52.705566  -24.369713  0
-2.912704  -53.205566  -24.619717  0
-3.162704  -53.205566  -24.369713  0
-5.162704  -53.455566  -24.619717  0
-5.912704  -53.205566  -24.619717  0
-5.662704  -53.455566  -24.619717  0
-6.162704  -53.205566  -24.369713  0
-2.912704  -53.705566  -24.619717  0
-3.162704  -53.705566  -24.369713  0
-4.912704  -53.705566  -24.619717  0
-4.662704  -53.955566  -24.619717  0
-5.162704  -53.705566  -24.369713  0
-5.662704  -53.705566  -24.369713  0
-2.912704  -54.205566  -24.619717  0
-3.162704  -54.455566  -24.619717  0
-3.162704  -54.205566  -24.369713  0
-3.662704  -54.455566  -24.619717  0
-4.412704  -54.205566  -24.619717  0
-4.162704  -54.455566  -24.619717  0
-4.662704  -54.205566  -24.369713  0
-4.162704  -49.455566  -24.119713  0
-4.662704  -49.455566  -24.119713  0
-5.162704  -49.455566  -24.119713  0
-5.662704  -49.455566  -24.119713  0
-6.162704  -49.455566  -24.119713  0
-6.662704  -49.455566  -24.119713  0
-3.912704  -49.705566  -24.119713  0
-3.662704  -49.955566  -24.119713  0
-4.162704  -49.705566  -23.869713  0
-6.912704  -49.705566  -24.119713  0
-7.162704  -49.955566  -24.119713  0
-7.162704  -49.705566  -23.869713  0
-7.662704  -49.955566  -24.119713  0
-7.662704  -49.705566  -23.869713  0
-3.412704  -50.205566  -24.119713  0
-3.662704  -50.205566  -23.869713  0
-4.162704  -50.205566  -23.869713  0
-7.912704  -50.205566  -24.119713  0
-8.162704  -50.205566  -23.869713  0
-3.412704  -50.705566  -24.119713  0
-3.662704  -50.705566  -23.869713  0
-7.912704  -50.705566  -24.119713  0
-8.162704  -50.705566  -23.869713  0
-3.412704  -51.205566  -24.119713  0
-3.662704  -51.205566  -23.869713  0
-7.912704  -51.205566  -24.119713  0
-7.662704  -51.455566  -24.119713  0
-8.162704  -51.205566  -23.869713  0
-3.412704  -51.705566  -24.119713  0
-3.662704  -51.705566  -23.869713  0
-7.412704  -51.705566  -24.119713  0
-7.662704  -51.705566  -23.869713  0
-3.412704  -52.205566  -24.119713  0
-3.662704  -52.205566  -23.869713  0
-7.412704  -52.205566  -24.119713  0
-7.162704  -52.455566  -24.119713  0
-7.662704  -52.205566  -23.869713  0
-3.412704  -52.705566  -24.119713  0
-3.662704  -52.705566  -23.869713  0
-6.912704  -52.705566  -24.119713  0
-6.662704  -52.955566  -24.119713  0
-7.162704  -52.705566  -23.869713  0
-3.412704  -53.205566  -24.119713  0
-3.662704  -53.205566  -23.869713  0
-6.412704  -53.205566  -24.119713  0
-6.162704  -53.455566  -24.119713  0
-6.662704  -53.205566  -23.869713  0
-3.412704  -53.705566  -24.119713  0
-3.662704  -53.705566  -23.869713  0
-5.162704  -53.955566  -24.119713  0
-5.912704  -53.705566  -24.119713  0
-5.662704  -53.955566  -24.119713  0
-6.162704  -53.705566  -23.869713  0
-3.412704  -54.205566  -24.119713  0
-3.662704  -54.455566  -24.119713  0
-3.662704  -54.205566  -23.869713  0
-4.162704  -54.455566  -24.119713  0
-4.912704  -54.205566  -24.119713  0
-4.662704  -54.455566  -24.119713  0
-5.162704  -54.205566  -23.869713  0
-4.662704  -49.455566  -23.619709  0
-5.162704  -49.455566  -23.619709  0
-5.662704  -49.455566  -23.619709  0
-6.162704  -49.455566  -23.619709  0
-6.662704  -49.455566  -23.619709  0
-7.162704  -49.455566  -23.619709  0
-7.662704  -49.455566  -23.619709  0
-4.412704  -49.705566  -23.619709  0
-4.662704  -49.705566  -23.369709  0
-7.912704  -49.705566  -23.619709  0
-8.162704  -49.955566  -23.619709  0
-4.412704  -50.205566  -23.619709  0
-4.162704  -50.455566  -23.619709  0
-8.412704  -50.205566  -23.619709  0
-3.912704  -50.705566  -23.619709  0
-4.162704  -50.705566  -23.369709  0
-8.412704  -50.705566  -23.619709  0
-3.912704  -51.205566  -23.619709  0
-4.162704  -51.205566  -23.369709  0
-8.412704  -51.205566  -23.619709  0
-8.162704  -51.455566  -23.619709  0
-3.912704  -51.705566  -23.619709  0
-4.162704  -51.705566  -23.369709  0
-7.912704  -51.705566  -23.619709  0
-8.162704  -51.705566  -23.369709  0
-3.912704  -52.205566  -23.619709  0
-4.162704  -52.205566  -23.369709  0
-7.912704  -52.205566  -23.619709  0
-7.662704  -52.455566  -23.619709  0
-3.912704  -52.705566  -23.619709  0
-4.162704  -52.705566  -23.369709  0
-7.412704  -52.705566  -23.619709  0
-7.162704  -52.955566  -23.619709  0
-3.912704  -53.205566  -23.619709  0
-4.162704  -53.205566  -23.369709  0
-6.912704  -53.205566  -23.619709  0
-6.662704  -53.455566  -23.619709  0
-7.162704  -53.205566  -23.369709  0
-3.912704  -53.705566  -23.619709  0
-4.162704  -53.705566  -23.369709  0
-5.662704  -53.955566  -23.619709  0
-6.412704  -53.705566  -23.619709  0
-6.162704  -53.955566  -23.619709  0
-3.912704  -54.205566  -23.619709  0
-4.162704  -54.455566  -23.619709  0
-4.162704  -54.205566  -23.369709  0
-4.662704  -54.455566  -23.619709  0
-5.412704  -54.205566  -23.619709  0
-5.162704  -54.455566  -23.619709  0
-5.162704  -49.455566  -23.119705  0
-5.662704  -49.455566  -23.119705  0
-6.162704  -49.455566  -23.119705  0
-6.662704  -49.455566  -23.119705  0
-7.162704  -49.455566  -23.119705  0
-7.662704  -49.455566  -23.119705  0
-4.912704  -49.705566  -23.119705  0
-4.662704  -49.955566  -23.119705  0
-5.162704  -49.705566  -22.869705  0
-5.662704  -49.705566  -22.869705  0
-7.912704  -49.705566  -23.119705  0
-8.162704  -49.955566  -23.119705  0
-4.412704  -50.205566  -23.119705  0
-4.662704  -50.205566  -22.869705  0
-5.162704  -50.205566  -22.869705  0
-8.412704  -50.205566  -23.119705  0
-4.412704  -50.705566  -23.119705  0
-4.662704  -50.705566  -22.869705  0
-8.412704  -50.705566  -23.119705  0
-4.412704  -51.205566  -23.119705  0
-4.662704  -51.205566  -22.869705  0
-8.412704  -51.205566  -23.119705  0
-8.662704  -51.205566  -22.869705  0
-4.412704  -51.705566  -23.119705  0
-4.662704  -51.705566  -22.869705  0
-8.412704  -51.705566  -23.119705  0
-8.162704  -51.955566  -23.119705  0
-4.412704  -52.205566  -23.119705  0
-4.662704  -52.205566  -22.869705  0
-7.912704  -52.205566  -23.119705  0
-7.662704  -52.455566  -23.119705  0
-4.412704  -52.705566  -23.119705  0
-4.662704  -52.705566  -22.869705  0
-7.412704  -52.705566  -23.119705  0
-7.662704  -52.705566  -22.869705  0
-4.412704  -53.205566  -23.119705  0
-4.662704  -53.205566  -22.869705  0
-6.662704  -53.455566  -23.119705  0
-7.412704  -53.205566  -23.119705  0
-7.162704  -53.455566  -23.119705  0
-4.412704  -53.705566  -23.119705  0
-4.662704  -53.705566  -22.869705  0
-5.662704  -53.955566  -23.119705  0
-6.412704  -53.705566  -23.119705  0
-6.162704  -53.955566  -23.119705  0
-4.412704  -54.205566  -23.119705  0
-4.662704  -54.455566  -23.119705  0
-4.662704  -54.205566  -22.869705  0
-5.412704  -54.205566  -23.119705  0
-5.162704  -54.455566  -23.119705  0
-5.162704  -54.205566  -22.869705  0
-6.162704  -49.455566  -22.619701  0
-6.662704  -49.455566  -22.619701  0
-7.162704  -49.455566  -22.619701  0
-7.662704  -49.455566  -22.619701  0
-5.912704  -49.705566  -22.619701  0
-5.662704  -49.955566  -22.619701  0
-6.162704  -49.705566  -22.369701  0
-7.912704  -49.705566  -22.619701  0
-8.162704  -49.955566  -22.619701  0
-5.412704  -50.205566  -22.619701  0
-5.162704  -50.455566  -22.619701  0
-5.662704  -50.205566  -22.369701  0
-8.412704  -50.205566  -22.619701  0
-8.162704  -50.205566  -22.369701  0
-4.912704  -50.705566  -22.619701  0
-5.162704  -50.705566  -22.369701  0
-8.412704  -50.705566  -22.619701  0
-8.662704  -50.955566  -22.619701  0
-4.912704  -51.205566  -22.619701  0
-5.162704  -51.205566  -22.369701  0
-8.912704  -51.205566  -22.619701  0
-8.662704  -51.455566  -22.619701  0
-4.912704  -51.705566  -22.619701  0
-5.162704  -51.705566  -22.369701  0
-8.412704  -51.705566  -22.619701  0
-8.162704  -51.955566  -22.619701  0
-4.912704  -52.205566  -22.619701  0
-5.162704  -52.205566  -22.369701  0
-7.912704  -52.205566  -22.619701  0
-4.912704  -52.705566  -22.619701  0
-5.162704  -52.705566  -22.369701  0
-7.912704  -52.705566  -22.619701  0
-7.662704  -52.955566  -22.619701  0
-4.912704  -53.205566  -22.619701  0
-5.162704  -53.205566  -22.369701  0
-6.662704  -53.455566  -22.619701  0
-7.412704  -53.205566  -22.619701  0
-7.162704  -53.455566  -22.619701  0
-4.912704  -53.705566  -22.619701  0
-5.162704  -53.955566  -22.619701  0
-5.162704  -53.705566  -22.369701  0
-5.662704  -53.955566  -22.619701  0
-5.662704  -53.705566  -22.369701  0
-6.412704  -53.705566  -22.619701  0
-6.162704  -53.955566  -22.619701  0
-6.662704  -49.455566  -22.119698  0
-7.162704  -49.455566  -22.119698  0
-7.662704  -49.455566  -22.119698  0
-6.412704  -49.705566  -22.119698  0
-6.162704  -49.955566  -22.119698  0
-6.662704  -49.705566  -21.869698  0
-7.162704  -49.705566  -21.869698  0
-7.912704  -49.705566  -22.119698  0
-7.662704  -49.705566  -21.869698  0
-5.912704  -50.205566  -22.119698  0
-5.662704  -50.455566  -22.119698  0
-6.162704  -50.205566  -21.869698  0
-6.662704  -50.205566  -21.869698  0
-7.162704  -50.205566  -21.869698  0
-7.912704  -50.205566  -22.119698  0
-7.662704  -50.205566  -21.869698  0
-8.162704  -50.455566  -22.119698  0
-5.412704  -50.705566  -22.119698  0
-5.662704  -50.705566  -21.869698  0
-6.162704  -50.705566  -21.869698  0
-7.662704  -50.705566  -21.869698  0
-8.412704  -50.705566  -22.119698  0
-8.162704  -50.705566  -21.869698  0
-8.662704  -50.955566  -22.119698  0
-5.412704  -51.205566  -22.119698  0
-5.662704  -51.205566  -21.869698  0
-6.162704  -51.205566  -21.869698  0
-7.662704  -51.205566  -21.869698  0
-8.162704  -51.205566  -21.869698  0
-8.912704  -51.205566  -22.119698  0
-8.662704  -51.455566  -22.119698  0
-8.662704  -51.205566  -21.869698  0
-5.412704  -51.705566  -22.119698  0
-5.662704  -51.705566  -21.869698  0
-8.412704  -51.705566  -22.119698  0
-8.162704  -51.955566  -22.119698  0
-8.162704  -51.705566  -21.869698  0
-5.412704  -52.205566  -22.119698  0
-5.662704  -52.205566  -21.869698  0
-7.912704  -52.205566  -22.119698  0
-5.412704  -52.705566  -22.119698  0
-5.662704  -52.705566  -21.869698  0
-7.912704  -52.705566  -22.119698  0
-7.662704  -52.955566  -22.119698  0
-5.412704  -53.205566  -22.119698  0
-5.662704  -53.455566  -22.119698  0
-5.662704  -53.205566  -21.869698  0
-6.162704  -53.205566  -21.869698  0
-6.662704  -53.455566  -22.119698  0
-7.412704  -53.205566  -22.119698  0
-7.162704  -53.455566  -22.119698  0
-5.912704  -53.705566  -22.119698  0
-6.412704  -53.705566  -22.119698  0
-6.162704  -53.955566  -22.119698  0
-6.162704  -53.705566  -21.869698  0
-6.662704  -50.455566  -21.619698  0
-7.162704  -50.455566  -21.619698  0
-6.412704  -50.705566  -21.619698  0
-6.662704  -50.705566  -21.369694  0
-7.412704  -50.705566  -21.619698  0
-7.162704  -50.705566  -21.369694  0
-6.412704  -51.205566  -21.619698  0
-6.162704  -51.455566  -21.619698  0
-6.662704  -51.205566  -21.369694  0
-7.412704  -51.205566  -21.619698  0
-7.162704  -51.205566  -21.369694  0
-7.662704  -51.455566  -21.619698  0
-5.912704  -51.705566  -21.619698  0
-6.162704  -51.705566  -21.369694  0
-6.662704  -51.705566  -21.369694  0
-7.162704  -51.705566  -21.369694  0
-7.912704  -51.705566  -21.619698  0
-7.662704  -51.705566  -21.369694  0
-5.912704  -52.205566  -21.619698  0
-6.162704  -52.205566  -21.369694  0
-6.662704  -52.205566  -21.369694  0
-7.162704  -52.205566  -21.369694  0
-7.912704  -52.205566  -21.619698  0
-7.662704  -52.205566  -21.369694  0
-5.912704  -52.705566  -21.619698  0
-6.162704  -52.955566  -21.619698  0
-6.162704  -52.705566  -21.369694  0
-6.662704  -52.705566  -21.369694  0
-7.162704  -52.705566  -21.369694  0
-7.912704  -52.705566  -21.619698  0
-7.662704  -52.955566  -21.619698  0
-7.662704  -52.705566  -21.369694  0
-6.412704  -53.205566  -21.619698  0
-6.662704  -53.455566  -21.619698  0
-6.662704  -53.205566  -21.369694  0
-7.412704  -53.205566  -21.619698  0
-7.162704  -53.455566  -21.619698  0
-7.162704  -53.205566  -21.369694  0
32 39 0 0
1 34 0 0
0 34 32 0
2 36 1 0
1 36 34 0
2 42 36 0
40 45 3 0
40 3 39 0
3 0 39 0
3 4 0 0
0 5 1 0
0 4 5 0
1 6 2 0
1 5 6 0
42 2 43 0
2 7 43 0
2 6 7 0
7 46 43 0
3 45 8 0
8 45 49 0
3 9 4 0
3 8 9 0
4 10 5 0
4 9 10 0
5 11 6 0
5 10 11 0
6 12 7 0
6 11 12 0
46 7 50 0
50 7 12 0
8 49 13 0
13 49 53 0
8 14 9 0
8 13 14 0
9 15 10 0
9 14 15 0
10 16 11 0
10 15 16 0
11 17 12 0
11 16 17 0
50 12 54 0
54 12 17 0
13 53 18 0
18 53 57 0
13 19 14 0
13 18 19 0
14 20 15 0
14 19 20 0
15 21 16 0
15 20 21 0
55 17 59 0
17 21 59 0
17 16 21 0
17 55 54 0
57 58 18 0
62 22 58 0
22 18 58 0
22 19 18 0
19 23 20 0
19 22 23 0
60 21 65 0
21 23 65 0
21 20 23 0
21 60 59 0
62 64 22 0
22 64 23 0
23 64 66 0
23 66 65 0
71 74 24 0
25 72 24 0
24 72 71 0
26 73 25 0
25 73 72 0
26 75 73 0
24 74 27 0
27 74 80 0
24 28 25 0
24 27 28 0
25 29 26 0
25 28 29 0
75 26 76 0
26 30 76 0
26 29 30 0
30 82 76 0
81 86 31 0
81 31 80 0
31 27 80 0
31 33 27 0
27 35 28 0
27 33 35 0
28 37 29 0
28 35 37 0
29 38 30 0
29 37 38 0
82 30 88 0
88 30 38 0
31 86 41 0
41 86 92 0
41 39 32 0
33 41 32 0
31 41 33 0
33 32 34 0
33 34 35 0
35 34 36 0
35 36 37 0
37 36 42 0
44 37 42 0
38 37 44 0
88 38 93 0
93 38 44 0
41 92 40 0
92 45 40 0
92 99 45 0
41 40 39 0
43 44 42 0
47 94 46 0
46 94 43 0
94 93 43 0
93 44 43 0
48 96 47 0
47 96 94 0
48 100 96 0
99 49 45 0
102 49 99 0
50 51 47 0
50 47 46 0
47 52 48 0
47 51 52 0
100 48 103 0
103 48 52 0
102 53 49 0
106 53 102 0
54 56 51 0
54 51 50 0
104 52 107 0
52 56 107 0
52 51 56 0
52 104 103 0
106 57 53 0
110 57 106 0
59 61 55 0
61 111 55 0
55 111 54 0
111 108 54 0
108 56 54 0
56 108 107 0
58 57 63 0
57 114 63 0
57 110 114 0
63 62 58 0
65 67 60 0
67 115 60 0
60 115 59 0
115 112 59 0
112 61 59 0
61 112 111 0
63 114 68 0
68 114 117 0
69 64 62 0
63 69 62 0
68 69 63 0
70 66 64 0
70 64 69 0
70 120 66 0
66 120 65 0
120 116 65 0
116 67 65 0
67 116 115 0
117 118 68 0
68 118 69 0
69 118 119 0
69 119 70 0
70 119 121 0
70 121 120 0
122 128 71 0
71 128 74 0
123 71 72 0
123 122 71 0
124 72 73 0
124 123 72 0
77 125 75 0
125 73 75 0
125 124 73 0
78 126 77 0
77 126 125 0
79 127 78 0
78 127 126 0
79 130 127 0
128 80 74 0
133 80 128 0
76 77 75 0
77 76 82 0
83 77 82 0
78 77 83 0
78 84 79 0
78 83 84 0
130 79 131 0
79 85 131 0
79 84 85 0
85 134 131 0
87 86 81 0
137 87 81 0
80 137 81 0
133 137 80 0
88 89 83 0
88 83 82 0
83 90 84 0
83 89 90 0
84 91 85 0
84 90 91 0
134 85 139 0
139 85 91 0
138 142 87 0
142 86 87 0
142 92 86 0
138 87 137 0
93 95 89 0
93 89 88 0
89 97 90 0
89 95 97 0
90 98 91 0
90 97 98 0
139 91 144 0
144 91 98 0
142 99 92 0
147 99 142 0
94 95 93 0
95 94 96 0
95 96 97 0
97 96 100 0
101 97 100 0
98 97 101 0
144 98 149 0
149 98 101 0
147 102 99 0
151 102 147 0
103 105 101 0
103 101 100 0
149 101 153 0
153 101 105 0
151 106 102 0
156 106 151 0
107 109 104 0
109 158 104 0
104 158 103 0
158 154 103 0
154 105 103 0
105 154 153 0
156 110 106 0
161 110 156 0
111 113 108 0
113 164 108 0
108 164 107 0
164 159 107 0
159 109 107 0
109 159 158 0
161 114 110 0
167 114 161 0
169 163 112 0
169 112 115 0
111 112 113 0
112 165 113 0
112 163 165 0
113 165 164 0
167 117 114 0
173 117 167 0
177 170 116 0
177 116 120 0
115 116 169 0
169 116 170 0
173 174 117 0
117 174 118 0
118 176 119 0
174 176 118 0
119 178 121 0
176 178 119 0
120 121 177 0
177 121 178 0
129 128 122 0
129 122 186 0
122 180 186 0
122 123 180 0
181 123 124 0
181 180 123 0
182 124 125 0
182 181 124 0
183 125 126 0
183 182 125 0
184 126 127 0
184 183 126 0
132 185 130 0
185 127 130 0
185 184 127 0
132 189 185 0
187 194 129 0
194 128 129 0
194 133 128 0
187 129 186 0
131 132 130 0
135 190 134 0
134 190 131 0
190 189 131 0
189 132 131 0
136 192 135 0
135 192 190 0
136 197 192 0
194 137 133 0
199 137 194 0
139 140 135 0
139 135 134 0
135 141 136 0
135 140 141 0
197 136 201 0
201 136 141 0
143 142 138 0
203 143 138 0
137 203 138 0
199 203 137 0
144 145 140 0
144 140 139 0
140 146 141 0
140 145 146 0
201 141 205 0
205 141 146 0
148 147 143 0
143 147 142 0
143 203 208 0
143 208 148 0
149 150 145 0
149 145 144 0
206 146 210 0
146 150 210 0
146 145 150 0
146 206 205 0
152 151 148 0
148 151 147 0
148 208 212 0
148 212 152 0
153 155 150 0
153 150 149 0
210 150 214 0
214 150 155 0
157 156 152 0
152 156 151 0
152 212 217 0
152 217 157 0
158 160 154 0
160 219 154 0
154 219 153 0
219 215 153 0
215 155 153 0
155 215 214 0
162 161 157 0
157 161 156 0
157 217 222 0
157 222 162 0
164 166 159 0
166 224 159 0
159 224 158 0
224 220 158 0
220 160 158 0
160 220 219 0
168 167 162 0
162 167 161 0
162 222 227 0
162 227 168 0
169 171 163 0
172 165 163 0
172 163 171 0
172 230 165 0
165 230 164 0
230 225 164 0
225 166 164 0
166 225 224 0
175 173 168 0
168 173 167 0
168 227 233 0
168 233 175 0
177 179 170 0
179 237 170 0
170 237 169 0
237 229 169 0
229 171 169 0
171 229 172 0
172 229 231 0
172 231 230 0
175 174 173 0
233 234 175 0
234 174 175 0
234 176 174 0
176 236 178 0
234 236 176 0
177 178 179 0
178 238 179 0
178 236 238 0
179 238 237 0
188 186 180 0
188 180 247 0
180 240 247 0
180 181 240 0
241 181 182 0
241 240 181 0
242 182 183 0
242 241 182 0
243 183 184 0
243 242 183 0
244 184 185 0
244 243 184 0
191 245 189 0
245 185 189 0
245 244 185 0
193 246 191 0
191 246 245 0
193 249 246 0
195 194 187 0
186 188 187 0
188 195 187 0
188 196 195 0
188 247 251 0
188 251 196 0
190 191 189 0
191 190 192 0
191 192 193 0
198 250 197 0
197 250 192 0
250 249 192 0
249 193 192 0
198 253 250 0
200 199 195 0
195 199 194 0
196 252 254 0
200 196 254 0
195 196 200 0
252 196 251 0
201 202 198 0
201 198 197 0
253 198 256 0
256 198 202 0
204 203 200 0
200 203 199 0
200 254 257 0
200 257 204 0
205 207 202 0
205 202 201 0
256 202 259 0
259 202 207 0
209 208 204 0
204 208 203 0
204 257 261 0
204 261 209 0
210 211 206 0
211 263 206 0
206 263 205 0
263 260 205 0
260 207 205 0
207 260 259 0
213 212 209 0
209 212 208 0
209 261 265 0
209 265 213 0
214 216 211 0
214 211 210 0
263 211 267 0
267 211 216 0
218 217 213 0
213 217 212 0
213 265 269 0
213 269 218 0
219 221 215 0
221 271 215 0
215 271 214 0
271 268 214 0
268 216 214 0
216 268 267 0
223 222 218 0
218 222 217 0
218 269 273 0
218 273 223 0
224 226 220 0
226 275 220 0
220 275 219 0
275 272 219 0
272 221 219 0
221 272 271 0
228 227 223 0
223 227 222 0
223 273 278 0
223 278 228 0
230 232 225 0
232 281 225 0
225 281 224 0
281 276 224 0
276 226 224 0
226 276 275 0
235 233 228 0
228 233 227 0
228 278 283 0
228 283 235 0
237 239 229 0
229 239 287 0
280 229 287 0
231 229 280 0
230 231 232 0
231 282 232 0
231 280 282 0
232 282 281 0
235 234 233 0
283 284 235 0
284 234 235 0
284 236 234 0
236 286 238 0
284 286 236 0
237 238 239 0
238 288 239 0
238 286 288 0
239 288 287 0
248 247 240 0
248 240 295 0
240 289 295 0
240 241 289 0
290 241 242 0
290 289 241 0
291 242 243 0
291 290 242 0
292 243 244 0
292 291 243 0
293 244 245 0
293 292 244 0
294 245 246 0
294 293 245 0
246 249 294 0
294 249 299 0
296 301 248 0
301 247 248 0
301 251 247 0
296 248 295 0
300 299 249 0
300 249 250 0
250 253 300 0
300 253 304 0
255 254 252 0
305 255 252 0
251 305 252 0
301 305 251 0
256 304 253 0
256 307 304 0
258 257 255 0
255 257 254 0
255 305 308 0
255 308 258 0
259 307 256 0
259 310 307 0
262 261 258 0
258 261 257 0
258 308 312 0
258 312 262 0
263 264 260 0
264 314 260 0
314 259 260 0
314 310 259 0
266 265 262 0
262 265 261 0
262 312 316 0
262 316 266 0
318 315 264 0
263 318 264 0
267 318 263 0
264 315 314 0
270 269 266 0
266 269 265 0
266 316 320 0
266 320 270 0
322 319 268 0
322 268 271 0
267 268 318 0
318 268 319 0
274 273 270 0
270 273 269 0
270 320 324 0
270 324 274 0
275 277 272 0
277 327 272 0
327 271 272 0
327 322 271 0
279 278 274 0
274 278 273 0
274 324 329 0
274 329 279 0
332 326 276 0
332 276 281 0
275 276 277 0
276 328 277 0
276 326 328 0
277 328 327 0
285 283 279 0
279 283 278 0
279 329 334 0
279 334 285 0
337 331 280 0
337 280 287 0
280 333 282 0
331 333 280 0
281 282 332 0
332 282 333 0
285 284 283 0
334 335 285 0
335 284 285 0
335 286 284 0
286 338 288 0
335 338 286 0
287 288 337 0
337 288 338 0
297 295 289 0
290 298 289 0
289 298 297 0
298 290 344 0
290 340 344 0
290 291 340 0
341 291 292 0
341 340 291 0
342 292 293 0
342 341 292 0
343 293 294 0
343 342 293 0
294 299 343 0
343 299 347 0
302 301 296 0
295 297 296 0
297 302 296 0
297 303 302 0
298 345 349 0
303 298 349 0
297 298 303 0
345 298 344 0
348 347 299 0
348 299 300 0
300 304 348 0
348 304 352 0
306 305 302 0
302 305 301 0
303 350 354 0
306 303 354 0
302 303 306 0
350 303 349 0
307 352 304 0
307 356 352 0
309 308 306 0
306 308 305 0
306 354 358 0
306 358 309 0
310 311 357 0
356 310 357 0
307 310 356 0
311 360 357 0
313 312 309 0
309 312 308 0
309 358 362 0
309 362 313 0
364 361 311 0
310 364 311 0
314 364 310 0
311 361 360 0
317 316 313 0
313 316 312 0
313 362 366 0
313 366 317 0
368 365 315 0
368 315 318 0
314 315 364 0
364 315 365 0
321 320 317 0
317 320 316 0
317 366 369 0
317 369 321 0
322 323 319 0
323 371 319 0
371 318 319 0
371 368 318 0
325 324 321 0
321 324 320 0
321 369 373 0
321 373 325 0
376 372 323 0
322 376 323 0
327 376 322 0
323 372 371 0
330 329 325 0
325 329 324 0
325 373 378 0
325 378 330 0
383 375 326 0
383 326 332 0
326 377 328 0
375 377 326 0
327 328 376 0
376 328 377 0
336 334 330 0
330 334 329 0
330 378 379 0
339 330 379 0
336 330 339 0
331 337 339 0
379 331 339 0
381 331 379 0
331 384 333 0
381 384 331 0
332 333 383 0
383 333 384 0
336 335 334 0
335 336 338 0
338 336 339 0
338 339 337 0
346 344 340 0
346 340 388 0
340 385 388 0
340 341 385 0
386 341 342 0
386 385 341 0
387 342 343 0
387 386 342 0
343 347 387 0
387 347 392 0
351 349 345 0
394 351 345 0
394 345 344 0
389 394 344 0
346 389 344 0
389 346 388 0
347 348 353 0
399 347 353 0
392 347 399 0
352 353 348 0
355 354 350 0
402 355 350 0
402 350 349 0
395 402 349 0
351 395 349 0
395 351 394 0
401 399 353 0
353 352 401 0
352 406 401 0
352 356 406 0
359 358 355 0
355 358 354 0
355 402 409 0
355 409 359 0
408 406 356 0
408 356 357 0
357 360 408 0
408 360 414 0
363 362 359 0
359 362 358 0
359 409 417 0
359 417 363 0
419 415 361 0
419 361 364 0
360 361 414 0
414 361 415 0
367 366 363 0
363 366 362 0
363 417 422 0
363 422 367 0
424 420 365 0
424 365 368 0
364 365 419 0
419 365 420 0
370 369 367 0
367 369 366 0
367 422 425 0
367 425 370 0
371 424 368 0
371 427 424 0
374 373 370 0
370 373 369 0
370 425 429 0
370 429 374 0
434 428 372 0
434 372 376 0
371 372 427 0
427 372 428 0
380 378 374 0
374 378 373 0
374 429 430 0
382 374 430 0
380 374 382 0
436 382 430 0
437 433 375 0
437 375 383 0
375 435 377 0
433 435 375 0
376 377 434 0
434 377 435 0
380 379 378 0
379 380 381 0
381 380 382 0
436 438 382 0
438 381 382 0
438 384 381 0
383 384 437 0
437 384 438 0
390 388 385 0
386 391 385 0
385 391 390 0
387 393 386 0
386 393 391 0
392 393 387 0
396 394 389 0
388 390 389 0
390 396 389 0
390 397 396 0
398 390 391 0
397 390 398 0
400 391 393 0
398 391 400 0
399 400 392 0
392 400 393 0
403 402 395 0
394 396 395 0
396 403 395 0
396 404 403 0
397 440 442 0
404 397 442 0
396 397 404 0
440 397 398 0
440 398 441 0
405 444 441 0
398 405 441 0
400 405 398 0
401 407 399 0
407 400 399 0
407 405 400 0
406 407 401 0
410 409 403 0
403 409 402 0
411 403 404 0
410 403 411 0
404 442 446 0
404 446 411 0
444 405 412 0
444 412 449 0
413 405 407 0
412 405 413 0
408 416 406 0
416 407 406 0
416 413 407 0
414 416 408 0
418 417 410 0
410 417 409 0
411 447 452 0
418 411 452 0
410 411 418 0
447 411 446 0
451 449 412 0
421 456 451 0
412 421 451 0
413 421 412 0
419 421 415 0
421 416 415 0
421 413 416 0
415 416 414 0
423 422 418 0
418 422 417 0
418 452 458 0
418 458 423 0
456 421 420 0
424 456 420 0
462 456 424 0
420 421 419 0
426 425 423 0
423 425 422 0
423 458 464 0
423 464 426 0
427 462 424 0
427 469 462 0
431 429 426 0
426 429 425 0
426 464 465 0
432 426 465 0
431 426 432 0
472 432 465 0
475 470 428 0
475 428 434 0
427 428 469 0
469 428 470 0
431 430 429 0
430 431 436 0
431 439 436 0
431 432 439 0
473 433 437 0
432 473 437 0
439 432 437 0
473 432 472 0
433 476 435 0
473 476 433 0
434 435 475 0
475 435 476 0
439 438 436 0
438 439 437 0
443 442 440 0
441 445 440 0
440 445 443 0
444 445 441 0
448 446 443 0
443 446 442 0
450 443 445 0
448 443 450 0
449 450 444 0
444 450 445 0
453 452 447 0
446 448 447 0
448 453 447 0
448 454 453 0
455 448 450 0
454 448 455 0
451 457 449 0
457 450 449 0
457 455 450 0
456 457 451 0
459 458 453 0
453 458 452 0
460 453 454 0
459 453 460 0
461 454 455 0
460 454 461 0
463 455 457 0
461 455 463 0
462 463 456 0
456 463 457 0
466 464 459 0
459 464 458 0
467 459 460 0
466 459 467 0
468 460 461 0
467 460 468 0
471 461 463 0
468 461 471 0
469 471 462 0
462 471 463 0
466 465 464 0
465 466 472 0
466 474 472 0
466 467 474 0
477 467 468 0
474 467 477 0
475 477 470 0
477 471 470 0
477 468 471 0
470 471 469 0
474 473 472 0
473 474 476 0
476 474 477 0
476 477 475 0
