#!ascii version in FreeSurfer format (SUMA)
676 1348
-3.770996  -51.360172  -26.315067  0
-4.319645  -51.319965  -26.321968  0
-4.798343  -51.353848  -26.243868  0
-3.380902  -51.698444  -26.318094  0
-3.823727  -51.794239  -26.438009  0
-4.227242  -51.724571  -26.443180  0
-4.705564  -51.727139  -26.389975  0
-5.136302  -51.721043  -26.251379  0
-3.251993  -52.252911  -26.354885  0
-3.705110  -52.199570  -26.464987  0
-4.159730  -52.174393  -26.503868  0
-4.611929  -52.174648  -26.461126  0
-5.063660  -52.168285  -26.330828  0
-3.215823  -52.782429  -26.370249  0
-3.643747  -52.703789  -26.474960  0
-4.098359  -52.662090  -26.498131  0
-4.485665  -52.587528  -26.472834  0
-4.926582  -52.727776  -26.307476  0
-3.200049  -53.203880  -26.322048  0
-3.622749  -53.175514  -26.430807  0
-4.009842  -53.081112  -26.464502  0
-4.510194  -53.176670  -26.329853  0
-3.553559  -53.564159  -26.310535  0
-4.065939  -53.561352  -26.318878  0
-3.851487  -49.754684  -25.810411  0
-4.318471  -49.761810  -25.797438  0
-4.749355  -49.827847  -25.731266  0
-3.643201  -50.217712  -25.878609  0
-4.190502  -50.180531  -25.924068  0
-4.661886  -50.203716  -25.860174  0
-5.031534  -50.199619  -25.739317  0
-3.234129  -50.538372  -25.827620  0
-3.521663  -51.052208  -26.148848  0
-3.574181  -50.722065  -26.018658  0
-3.949706  -50.968277  -26.185015  0
-4.077597  -50.600777  -26.043518  0
-4.452763  -50.981888  -26.168295  0
-4.635021  -50.663048  -25.995584  0
-5.049201  -50.609615  -25.831127  0
-3.339493  -51.294456  -26.199457  0
-3.138270  -51.443905  -26.169836  0
-3.081041  -51.120644  -25.969921  0
-4.854874  -51.070126  -26.096115  0
-5.221582  -51.334770  -26.048056  0
-5.061385  -50.960163  -25.949869  0
-2.944833  -51.774944  -26.119894  0
-2.670368  -51.535316  -25.808550  0
-5.468484  -51.688065  -26.078737  0
-5.792904  -51.871758  -25.938435  0
-6.121918  -51.894527  -25.733257  0
-2.859240  -52.388470  -26.172203  0
-2.592085  -52.030304  -25.871838  0
-5.450541  -52.053490  -26.163397  0
-5.706941  -52.266647  -26.019028  0
-6.013862  -52.269848  -25.786032  0
-2.872022  -52.885098  -26.189873  0
-2.579114  -52.550728  -25.900301  0
-5.427504  -52.619160  -26.064184  0
-5.218319  -53.028549  -26.047621  0
-5.780504  -52.557297  -25.871189  0
-2.930845  -53.189617  -26.188334  0
-2.680788  -53.099510  -25.919931  0
-3.081483  -53.500729  -26.140200  0
-4.988561  -53.290142  -26.041420  0
-4.762134  -53.566410  -26.041502  0
-5.222631  -53.256664  -25.902588  0
-3.427018  -53.840450  -26.154049  0
-3.103288  -53.892246  -25.968843  0
-3.823828  -53.935928  -26.170179  0
-4.513926  -53.783813  -26.048422  0
-4.202793  -53.995304  -26.071142  0
-4.747474  -53.780537  -25.896076  0
-3.078769  -54.162811  -25.815968  0
-3.485709  -54.186581  -25.941912  0
-3.996923  -54.277424  -25.900393  0
-3.698095  -49.478077  -25.692684  0
-3.673803  -49.242352  -25.429092  0
-4.015347  -49.404659  -25.666828  0
-4.210532  -49.124622  -25.416704  0
-4.563404  -49.382004  -25.554667  0
-4.524441  -49.107967  -25.359755  0
-3.438107  -49.740433  -25.659275  0
-3.217988  -49.526535  -25.345432  0
-4.937078  -49.626286  -25.587782  0
-5.056050  -49.897255  -25.654621  0
-5.332067  -49.770908  -25.483614  0
-5.836935  -49.811584  -25.319597  0
-6.281634  -49.850662  -25.205690  0
-3.254807  -50.174549  -25.720570  0
-3.073751  -50.369808  -25.675480  0
-3.010034  -50.100639  -25.454987  0
-5.293510  -50.128727  -25.615036  0
-5.703808  -50.284889  -25.494167  0
-6.172401  -50.246353  -25.359600  0
-6.570961  -50.214050  -25.239885  0
-2.888594  -50.692436  -25.631245  0
-2.708774  -50.562603  -25.269804  0
-5.389996  -50.520348  -25.661400  0
-5.799704  -50.842873  -25.568092  0
-6.170328  -50.736382  -25.432058  0
-6.550933  -50.646484  -25.315773  0
-2.716092  -51.154167  -25.690870  0
-2.528564  -51.358791  -25.557432  0
-2.596795  -51.004452  -25.427574  0
-5.445252  -51.007622  -25.779474  0
-5.648205  -51.449318  -25.864952  0
-5.838235  -51.225464  -25.662672  0
-6.005637  -51.557022  -25.714722  0
-6.200294  -51.272049  -25.516991  0
-6.570519  -51.152122  -25.348692  0
-2.444964  -51.699116  -25.544842  0
-6.288137  -51.707325  -25.583273  0
-6.588445  -51.721340  -25.377056  0
-2.395440  -52.151340  -25.534567  0
-6.392204  -52.160145  -25.495428  0
-6.213090  -52.506313  -25.531218  0
-6.665662  -52.112129  -25.305561  0
-2.405378  -52.658455  -25.518244  0
-6.006526  -52.731937  -25.553518  0
-5.714916  -52.927528  -25.661907  0
-6.205974  -52.720142  -25.397367  0
-2.446255  -53.222546  -25.444477  0
-2.750198  -53.583046  -25.816467  0
-5.441672  -53.203522  -25.688278  0
-5.199193  -53.466312  -25.693407  0
-5.685801  -53.212502  -25.435804  0
-2.818424  -53.966797  -25.730627  0
-2.572443  -53.723267  -25.526930  0
-4.963605  -53.733162  -25.656729  0
-4.706756  -53.993179  -25.682234  0
-5.187264  -53.681892  -25.432806  0
-2.899853  -54.200676  -25.672249  0
-2.681347  -54.116230  -25.424498  0
-3.128388  -54.445438  -25.592060  0
-3.711018  -54.542999  -25.677523  0
-4.420873  -54.261459  -25.665121  0
-4.109828  -54.537540  -25.609745  0
-4.669425  -54.215569  -25.431400  0
-3.080100  -54.745667  -25.285477  0
-3.481258  -54.786152  -25.385466  0
-3.942327  -54.769478  -25.369539  0
-3.704931  -49.016838  -24.970978  0
-4.110259  -48.955872  -25.094879  0
-4.545565  -48.972851  -25.116318  0
-3.376538  -49.217663  -25.130821  0
-3.133760  -49.443546  -24.970346  0
-4.842221  -49.117645  -25.213648  0
-5.074354  -49.378155  -25.367323  0
-5.328261  -49.135117  -25.014107  0
-5.558264  -49.418606  -25.203384  0
-5.798627  -49.163563  -24.880272  0
-6.108701  -49.425549  -24.997826  0
-6.084157  -49.169022  -24.789560  0
-2.979234  -49.761402  -25.131115  0
-6.453637  -49.621422  -25.008329  0
-6.683428  -49.861790  -25.048223  0
-6.657611  -49.625000  -24.904566  0
-2.804015  -50.173344  -24.978539  0
-2.636502  -50.570290  -24.941769  0
-6.906347  -50.172359  -25.091541  0
-7.297286  -50.340092  -24.937977  0
-7.684277  -50.320515  -24.745199  0
-2.529043  -50.904316  -25.091076  0
-2.565783  -50.810947  -24.784704  0
-6.908803  -50.535862  -25.174736  0
-7.228817  -50.853882  -25.044769  0
-7.590008  -50.724060  -24.837303  0
-2.441395  -51.321198  -25.271498  0
-6.901002  -51.002342  -25.211157  0
-7.163357  -51.282585  -25.067003  0
-7.482220  -51.272491  -24.851625  0
-2.366443  -51.718678  -25.170834  0
-6.915025  -51.514519  -25.183159  0
-7.241660  -51.750904  -24.914728  0
-2.337377  -52.191135  -25.123388  0
-6.935225  -52.117958  -25.036348  0
-6.680288  -52.428890  -25.139072  0
-7.203833  -52.136826  -24.811392  0
-2.338828  -52.684509  -25.084419  0
-6.433329  -52.711880  -25.157288  0
-6.192692  -52.972450  -25.159475  0
-6.680254  -52.717335  -24.934788  0
-2.348460  -53.102936  -25.011507  0
-5.936853  -53.225780  -25.154652  0
-5.648287  -53.461723  -25.194052  0
-6.181563  -53.235329  -24.898396  0
-2.423434  -53.631432  -25.119106  0
-5.373783  -53.587662  -25.328922  0
-5.229676  -53.923973  -25.046263  0
-5.543982  -53.748028  -24.946972  0
-2.513443  -54.128395  -24.964411  0
-2.777165  -54.492245  -25.182697  0
-4.874136  -54.115536  -25.257875  0
-4.649491  -54.443348  -25.097708  0
-2.940406  -54.777798  -24.948418  0
-3.319606  -54.932961  -25.045589  0
-3.787643  -54.946842  -25.043394  0
-4.309440  -54.642776  -25.277979  0
-4.151183  -54.864254  -25.033735  0
-3.791509  -49.013336  -24.519646  0
-4.138631  -48.889568  -24.640923  0
-4.587139  -48.862274  -24.690155  0
-5.097064  -48.935429  -24.724813  0
-5.682587  -48.979660  -24.583067  0
-6.109006  -49.037933  -24.542425  0
-3.424227  -49.227268  -24.646063  0
-3.151178  -49.517239  -24.585108  0
-3.635828  -49.140659  -24.385439  0
-6.359082  -49.172394  -24.620213  0
-6.646155  -49.385326  -24.675812  0
-6.637638  -49.160282  -24.423088  0
-2.955285  -49.796539  -24.729433  0
-3.088721  -49.764511  -24.360674  0
-6.925867  -49.635715  -24.742365  0
-7.127711  -49.926113  -24.843956  0
-7.362855  -49.641781  -24.485359  0
-7.655389  -49.931789  -24.550362  0
-7.660686  -49.634964  -24.311419  0
-2.837225  -50.117516  -24.649786  0
-7.946815  -50.182922  -24.538759  0
-8.224609  -50.344723  -24.383572  0
-2.752965  -50.509369  -24.555723  0
-2.622233  -50.955818  -24.536253  0
-7.931781  -50.553234  -24.630007  0
-8.215385  -50.794754  -24.411757  0
-2.468427  -51.238209  -24.845087  0
-2.614995  -51.360542  -24.433689  0
-7.911821  -51.123486  -24.566614  0
-7.709993  -51.523781  -24.608488  0
-8.206950  -51.121780  -24.356272  0
-2.427552  -51.742970  -24.753044  0
-2.609810  -51.852970  -24.379139  0
-7.515955  -51.717728  -24.700668  0
-7.704488  -51.902489  -24.444761  0
-2.414814  -52.236668  -24.714720  0
-2.606430  -52.357071  -24.367361  0
-7.454734  -52.175308  -24.531769  0
-7.190117  -52.456989  -24.620512  0
-7.690003  -52.182713  -24.303518  0
-2.410660  -52.733040  -24.697281  0
-2.597125  -52.880463  -24.370766  0
-6.934706  -52.727982  -24.653517  0
-6.679467  -52.987438  -24.663746  0
-7.187599  -52.753822  -24.397341  0
-2.415751  -53.248692  -24.704433  0
-2.582097  -53.413666  -24.378180  0
-6.433401  -53.240303  -24.641058  0
-6.183367  -53.499634  -24.622818  0
-6.681907  -53.250286  -24.385847  0
-2.437838  -53.755917  -24.694031  0
-2.574028  -53.890434  -24.399801  0
-5.330878  -54.166161  -24.578041  0
-5.893615  -53.735397  -24.643314  0
-5.567135  -53.994461  -24.607393  0
-6.184169  -53.757935  -24.359821  0
-2.493036  -54.113316  -24.632166  0
-2.704431  -54.433571  -24.653761  0
-2.585594  -54.178116  -24.465967  0
-5.045677  -54.355656  -24.643246  0
-4.734835  -54.633816  -24.630890  0
-5.312169  -54.322105  -24.374382  0
-5.539423  -54.252094  -24.281519  0
-2.963897  -54.756470  -24.579275  0
-3.222850  -54.942215  -24.665209  0
-3.201906  -54.842110  -24.341919  0
-3.681655  -55.020058  -24.637417  0
-4.450849  -54.761772  -24.833998  0
-4.210646  -54.957397  -24.592749  0
-4.602673  -54.825005  -24.447126  0
-4.213227  -49.004852  -24.088631  0
-4.634459  -48.868496  -24.175022  0
-5.117375  -48.842712  -24.188959  0
-5.643123  -48.866684  -24.147867  0
-6.150951  -48.910046  -24.112062  0
-6.588232  -49.015682  -24.168722  0
-3.879669  -49.201958  -24.055893  0
-3.599353  -49.362652  -24.134796  0
-4.128585  -49.172554  -23.839867  0
-6.940213  -49.160278  -24.196999  0
-7.155926  -49.383640  -24.343889  0
-7.380049  -49.165966  -23.917521  0
-7.657807  -49.389782  -24.018904  0
-7.651641  -49.172199  -23.742834  0
-3.354629  -49.640011  -24.126017  0
-3.169507  -49.963982  -24.070065  0
-3.594611  -49.602898  -23.868650  0
-7.930729  -49.639763  -24.128658  0
-8.203263  -49.923382  -24.154400  0
-8.191194  -49.645245  -23.914139  0
-2.963743  -50.117645  -24.328371  0
-3.156788  -50.334366  -23.917759  0
-8.472738  -50.213833  -24.111250  0
-8.698980  -50.368267  -23.874542  0
-2.959122  -50.533897  -24.134645  0
-3.144123  -50.792294  -23.837900  0
-8.490819  -50.591728  -24.169476  0
-8.719898  -50.805851  -23.877970  0
-2.855276  -50.983120  -24.175924  0
-3.133327  -51.287479  -23.827702  0
-8.473708  -51.142300  -24.079300  0
-8.196822  -51.453804  -24.209284  0
-8.714797  -51.130482  -23.830719  0
-2.861655  -51.538826  -24.096170  0
-3.140541  -51.794849  -23.828316  0
-7.940217  -51.674286  -24.331543  0
-8.165351  -51.900654  -23.984529  0
-2.866952  -52.047092  -24.080744  0
-3.146569  -52.298962  -23.834536  0
-7.925464  -52.184101  -24.034986  0
-7.678151  -52.467216  -24.106760  0
-8.145471  -52.170704  -23.809967  0
-2.864941  -52.561050  -24.082724  0
-3.143163  -52.817291  -23.831865  0
-7.438053  -52.750984  -24.125166  0
-7.191627  -53.021423  -24.129662  0
-7.671531  -52.747215  -23.889372  0
-2.849471  -53.095036  -24.086182  0
-3.123612  -53.349800  -23.834057  0
-6.934251  -53.252533  -24.141222  0
-6.689586  -53.491432  -24.127831  0
-7.192267  -53.280029  -23.863083  0
-2.822687  -53.627968  -24.111488  0
-3.091477  -53.855652  -23.879837  0
-6.447391  -53.741173  -24.102623  0
-6.157442  -53.973820  -24.146982  0
-6.711526  -53.728359  -23.845512  0
-2.813654  -54.127323  -24.214634  0
-3.101499  -54.511574  -24.131184  0
-3.072091  -54.185131  -23.960892  0
-5.355445  -54.523384  -24.038477  0
-5.854724  -54.109108  -24.237467  0
-5.795892  -54.363018  -23.906162  0
-6.082383  -54.217220  -23.905123  0
-3.409352  -54.778198  -24.014311  0
-3.601112  -54.964748  -24.189548  0
-3.713570  -54.837063  -23.776499  0
-4.136677  -55.017101  -24.116381  0
-4.922531  -54.692669  -24.254902  0
-4.669984  -54.917423  -24.042833  0
-5.087945  -54.780075  -23.879465  0
-4.727571  -49.019081  -23.594913  0
-5.157966  -48.890198  -23.659687  0
-5.656347  -48.850262  -23.631277  0
-6.174846  -48.843105  -23.605389  0
-6.679951  -48.883301  -23.613308  0
-7.165738  -48.990868  -23.674377  0
-7.571896  -49.067463  -23.593111  0
-4.398095  -49.230446  -23.523113  0
-4.118597  -49.401363  -23.579241  0
-4.666814  -49.183849  -23.321875  0
-7.869372  -49.195503  -23.483803  0
-8.086275  -49.459846  -23.728897  0
-3.861880  -49.628567  -23.611580  0
-3.613951  -49.891907  -23.640377  0
-4.126352  -49.646374  -23.329773  0
-8.407268  -49.682503  -23.592964  0
-8.592937  -50.015160  -23.786819  0
-3.379448  -50.107597  -23.755566  0
-3.638193  -50.348377  -23.402449  0
-8.801441  -50.195393  -23.553978  0
-3.393113  -50.574444  -23.595547  0
-3.651631  -50.831726  -23.313597  0
-8.872723  -50.552647  -23.541222  0
-3.399440  -51.064030  -23.560411  0
-3.659539  -51.327003  -23.323004  0
-8.878428  -51.062706  -23.501026  0
-8.685737  -51.437378  -23.676306  0
-3.405900  -51.563309  -23.579777  0
-3.666716  -51.826229  -23.355469  0
-8.425600  -51.750492  -23.770807  0
-8.640942  -51.815544  -23.403353  0
-3.413859  -52.063633  -23.599899  0
-3.672348  -52.327885  -23.367525  0
-8.279975  -52.114971  -23.669947  0
-8.149863  -52.428577  -23.523636  0
-3.418133  -52.569962  -23.600355  0
-3.672230  -52.839050  -23.353821  0
-7.866226  -52.700947  -23.662603  0
-7.665806  -52.990910  -23.644846  0
-3.411873  -53.091343  -23.588013  0
-3.660385  -53.358849  -23.338783  0
-7.429668  -53.257389  -23.612328  0
-7.162837  -53.498695  -23.642607  0
-7.664397  -53.225990  -23.369629  0
-3.388471  -53.616550  -23.599014  0
-3.636436  -53.853714  -23.363825  0
-6.902670  -53.637936  -23.752182  0
-6.758855  -53.938808  -23.483202  0
-7.077210  -53.756493  -23.404102  0
-3.356281  -54.127880  -23.687626  0
-3.628610  -54.512295  -23.576563  0
-3.620633  -54.179337  -23.426157  0
-5.703693  -54.572964  -23.462492  0
-6.362683  -54.115116  -23.726402  0
-6.116118  -54.361912  -23.546646  0
-3.952536  -54.762974  -23.446657  0
-4.104010  -54.944988  -23.646339  0
-4.240552  -54.812740  -23.247160  0
-4.593730  -54.974995  -23.606962  0
-5.340240  -54.737434  -23.617851  0
-5.035093  -54.886017  -23.569235  0
-5.198580  -49.032585  -23.203375  0
-5.687511  -48.973206  -23.061975  0
-6.195963  -48.871765  -23.071955  0
-6.704707  -48.843533  -23.078981  0
-7.196989  -48.888798  -23.126717  0
-7.612729  -49.000252  -23.231045  0
-4.937379  -49.219746  -23.083822  0
-4.649871  -49.386993  -23.093994  0
-5.219659  -49.173813  -22.947540  0
-5.480428  -49.174324  -22.813253  0
-7.978689  -49.138813  -22.932276  0
-8.235701  -49.385551  -23.220921  0
-4.397101  -49.638092  -23.095318  0
-4.142214  -49.920990  -23.122358  0
-4.653248  -49.597034  -22.881153  0
-8.518923  -49.655636  -22.991047  0
-8.707378  -49.934151  -23.317616  0
-3.886583  -50.123577  -23.255606  0
-4.157262  -50.361366  -22.902018  0
-8.880829  -50.269516  -23.163179  0
-3.901011  -50.598232  -23.090954  0
-4.158923  -50.834492  -22.819420  0
-8.988516  -50.703747  -23.090082  0
-3.906743  -51.084461  -23.064463  0
-4.156882  -51.328918  -22.831207  0
-9.073537  -51.170475  -22.951252  0
-9.204343  -51.304077  -22.650602  0
-3.911802  -51.580917  -23.096251  0
-4.158648  -51.830696  -22.863316  0
-8.860428  -51.536362  -23.241552  0
-8.731142  -51.930046  -22.978142  0
-3.916811  -52.080940  -23.121492  0
-4.158649  -52.333450  -22.872280  0
-8.437362  -52.215454  -23.224438  0
-8.247721  -52.613602  -23.066723  0
-3.917109  -52.586094  -23.116955  0
-4.150422  -52.842999  -22.854044  0
-8.052786  -52.841343  -23.169847  0
-8.176716  -52.859322  -22.789534  0
-3.908820  -53.101448  -23.094040  0
-4.137792  -53.359337  -22.832613  0
-7.828753  -53.092506  -23.258183  0
-7.647174  -53.417534  -23.036732  0
-3.891717  -53.617096  -23.089615  0
-4.127315  -53.851612  -22.850649  0
-6.819686  -54.121044  -22.894794  0
-7.334294  -53.633404  -23.221708  0
-7.118495  -53.899044  -23.030222  0
-3.875790  -54.120712  -23.157761  0
-4.153161  -54.503998  -23.064484  0
-4.125656  -54.174538  -22.906471  0
-5.638474  -54.595318  -22.892506  0
-6.467965  -54.249554  -23.237120  0
-6.111217  -54.451199  -23.071573  0
-4.479013  -54.738895  -22.999027  0
-4.546719  -54.899784  -23.231676  0
-4.841898  -54.761341  -22.915159  0
-5.353555  -54.774738  -23.251511  0
-4.961275  -54.885605  -23.210238  0
-5.216283  -54.748516  -22.940893  0
-6.257713  -49.020275  -22.504143  0
-6.710194  -48.897251  -22.567181  0
-7.195042  -48.886379  -22.616222  0
-7.635428  -48.965794  -22.728201  0
-5.234499  -49.429050  -22.683010  0
-5.895055  -49.230145  -22.468966  0
-5.598835  -49.433308  -22.459484  0
-6.184671  -49.181652  -22.261106  0
-7.950467  -49.135277  -22.425060  0
-8.255966  -49.380451  -22.654751  0
-4.869196  -49.538086  -22.792048  0
-4.685730  -49.824280  -22.708437  0
-5.014524  -49.841064  -22.492968  0
-5.432937  -49.817348  -22.249655  0
-8.476762  -49.734497  -22.413954  0
-8.735682  -49.987534  -22.806036  0
-4.424124  -50.095127  -22.773878  0
-4.729578  -50.221443  -22.483841  0
-5.084208  -50.281696  -22.206472  0
-8.888709  -50.387745  -22.621178  0
-8.682346  -50.072620  -22.385761  0
-4.433077  -50.555317  -22.611784  0
-4.740738  -50.735916  -22.327269  0
-9.076062  -50.824245  -22.625126  0
-9.197068  -51.099468  -22.589691  0
-4.418278  -51.057709  -22.574873  0
-4.660230  -51.307781  -22.341303  0
-9.252217  -51.214405  -22.428711  0
-9.209909  -51.409145  -22.418661  0
-4.403349  -51.574295  -22.600323  0
-4.642446  -51.828751  -22.361486  0
-9.016500  -51.586765  -22.726847  0
-8.790867  -51.949917  -22.471712  0
-4.400402  -52.082237  -22.619814  0
-4.636163  -52.337536  -22.365746  0
-8.580521  -52.221729  -22.693771  0
-4.393242  -52.588741  -22.613277  0
-4.631547  -52.846153  -22.351158  0
-8.371385  -52.570633  -22.620302  0
-8.192777  -52.945004  -22.370945  0
-4.384948  -53.102810  -22.590723  0
-4.655654  -53.357662  -22.335960  0
-7.962802  -53.168835  -22.738218  0
-7.730272  -53.521061  -22.456852  0
-4.397109  -53.623135  -22.587929  0
-4.782082  -53.882450  -22.349434  0
-6.797853  -54.159313  -22.396875  0
-7.429854  -53.745171  -22.733377  0
-7.148626  -53.980446  -22.539917  0
-4.412027  -54.139153  -22.683657  0
-4.632004  -54.523438  -22.757353  0
-4.826293  -54.281784  -22.506704  0
-5.155146  -54.537537  -22.639706  0
-5.255592  -54.208755  -22.281771  0
-5.658549  -54.426880  -22.445681  0
-5.709897  -54.264824  -22.160189  0
-6.477024  -54.312012  -22.741560  0
-6.082713  -54.431587  -22.600290  0
-6.726517  -49.023598  -22.118692  0
-7.160538  -48.976475  -22.167637  0
-7.601583  -49.003212  -22.274464  0
-6.457608  -49.207954  -22.005575  0
-6.157694  -49.377796  -22.062717  0
-6.753407  -49.150997  -21.853851  0
-7.062261  -49.142441  -21.824358  0
-7.846425  -49.142769  -22.120312  0
-7.577474  -49.182789  -21.905268  0
-8.073494  -49.414108  -22.084724  0
-5.879453  -49.644608  -22.059874  0
-5.676269  -49.966511  -21.958124  0
-6.151911  -49.581280  -21.874454  0
-8.311385  -49.762489  -22.007690  0
-8.093270  -49.697388  -21.784706  0
-5.463726  -50.232643  -21.938690  0
-5.220646  -50.525715  -21.968376  0
-5.686370  -50.138149  -21.822134  0
-8.505059  -49.980965  -22.108603  0
-8.295152  -50.034550  -21.782190  0
-8.663308  -50.318748  -22.070625  0
-5.011692  -50.685535  -22.090754  0
-5.169102  -50.874588  -21.895878  0
-8.935875  -50.636379  -22.257280  0
-8.778564  -50.701969  -21.877745  0
-9.097413  -51.005352  -22.199064  0
-4.918998  -51.078053  -22.097916  0
-5.127926  -51.326653  -21.861614  0
-9.227197  -51.270439  -22.234379  0
-9.188859  -51.410374  -22.199636  0
-9.054162  -51.325916  -21.976175  0
-4.883949  -51.576118  -22.103771  0
-5.111640  -51.825230  -21.849298  0
-9.019482  -51.614273  -22.223686  0
-8.767973  -51.890720  -22.044426  0
-8.834700  -51.607086  -21.810678  0
-4.875257  -52.085175  -22.108940  0
-5.112675  -52.335781  -21.843496  0
-8.553102  -52.260040  -22.162386  0
-4.874772  -52.592613  -22.103441  0
-5.140152  -52.846165  -21.839825  0
-8.352470  -52.675583  -22.060598  0
-8.200648  -52.980644  -21.917637  0
-4.897752  -53.097256  -22.092581  0
-5.226008  -53.355469  -21.846375  0
-7.996902  -53.254055  -22.168365  0
-7.765871  -53.521347  -21.953432  0
-4.969057  -53.561790  -22.100121  0
-5.149268  -53.892006  -22.105228  0
-5.261266  -53.710926  -21.940983  0
-5.593605  -53.987778  -21.940998  0
-5.470055  -53.664188  -21.786207  0
-6.649034  -54.100033  -21.938749  0
-7.466759  -53.777893  -22.219419  0
-7.116515  -53.968342  -22.047617  0
-5.972436  -54.200157  -22.003305  0
-6.414517  -54.290638  -22.305305  0
-6.039346  -54.338501  -22.236313  0
-6.274027  -54.223003  -22.026257  0
-6.817417  -49.396347  -21.646202  0
-7.336384  -49.400394  -21.592312  0
-7.779454  -49.506607  -21.679079  0
-6.388569  -49.521950  -21.756392  0
-6.171307  -49.806000  -21.698059  0
-6.607052  -49.863186  -21.442780  0
-7.175252  -49.740955  -21.400270  0
-7.919490  -49.855602  -21.553677  0
-7.576382  -49.689053  -21.462397  0
-5.878082  -50.021133  -21.762014  0
-5.717629  -50.334064  -21.681509  0
-6.115167  -50.239906  -21.465355  0
-6.544366  -50.310566  -21.213572  0
-7.082878  -50.203075  -21.216328  0
-8.086940  -50.207031  -21.511869  0
-7.654859  -50.110695  -21.350939  0
-8.426703  -50.445480  -21.662775  0
-5.439968  -50.624916  -21.753286  0
-5.752924  -50.761116  -21.463770  0
-6.181436  -50.657902  -21.214760  0
-7.616356  -50.617718  -21.189976  0
-8.551785  -50.787422  -21.578127  0
-8.134135  -50.612415  -21.394232  0
-8.834560  -51.042767  -21.742241  0
-5.392934  -51.063828  -21.654631  0
-5.597238  -51.256332  -21.431900  0
-5.928931  -51.184742  -21.201200  0
-7.788010  -51.111362  -21.126333  0
-8.062523  -51.000217  -21.264046  0
-8.804208  -51.324280  -21.653152  0
-8.607966  -51.507496  -21.528704  0
-8.485373  -51.120010  -21.449221  0
-5.357637  -51.545918  -21.606092  0
-5.648434  -51.722130  -21.315304  0
-8.539213  -51.922440  -21.659691  0
-8.210627  -51.525043  -21.280886  0
-5.354379  -52.059322  -21.578785  0
-5.630208  -52.321014  -21.311964  0
-8.379477  -52.433685  -21.690788  0
-8.224896  -52.158291  -21.324844  0
-5.382710  -52.593109  -21.574226  0
-5.755748  -52.904949  -21.311821  0
-8.287627  -52.767372  -21.713556  0
-8.194963  -52.939713  -21.647846  0
-8.123079  -52.766579  -21.404285  0
-5.453032  -53.092949  -21.598522  0
-5.537093  -53.455009  -21.647202  0
-5.814965  -53.384941  -21.455446  0
-6.210259  -53.342514  -21.210930  0
-8.005739  -53.198208  -21.689678  0
-7.778932  -53.460686  -21.634398  0
-7.734811  -53.283863  -21.323885  0
-5.798478  -53.724419  -21.651222  0
-6.171096  -54.014072  -21.772394  0
-6.221951  -53.705860  -21.463249  0
-6.575718  -53.913147  -21.584801  0
-6.717625  -53.656029  -21.294874  0
-7.477565  -53.685513  -21.699944  0
-6.997479  -53.869312  -21.615520  0
-7.262432  -53.596943  -21.308048  0
-6.839468  -50.491993  -21.068064  0
-7.188957  -50.541721  -21.083420  0
-6.510754  -50.613403  -21.074308  0
-6.738031  -50.842793  -20.976456  0
-7.389067  -50.869083  -21.041609  0
-7.050291  -50.733746  -21.000231  0
-6.342908  -50.974117  -21.036350  0
-6.205371  -51.375095  -21.002777  0
-6.645856  -51.359306  -20.899189  0
-7.548368  -51.220192  -21.004160  0
-7.147531  -51.152622  -20.932734  0
-7.825505  -51.459084  -21.062193  0
-5.964210  -51.626812  -21.083471  0
-6.318854  -51.835007  -20.910748  0
-6.778026  -51.851021  -20.807446  0
-7.144747  -51.680332  -20.838177  0
-7.921468  -51.864719  -21.060724  0
-7.545822  -51.565567  -20.936537  0
-5.918687  -52.073704  -21.082205  0
-6.276909  -52.392128  -20.909323  0
-6.700219  -52.265179  -20.798784  0
-7.146860  -52.179340  -20.788885  0
-7.921453  -52.396317  -21.065746  0
-7.570160  -52.054432  -20.887684  0
-5.949309  -52.588249  -21.083000  0
-6.081681  -52.985226  -21.083862  0
-6.311620  -52.852806  -20.941700  0
-6.696644  -52.733772  -20.835875  0
-7.067020  -52.585983  -20.793091  0
-7.840376  -52.850445  -21.090649  0
-7.593248  -53.063534  -21.007217  0
-7.522225  -52.617001  -20.884464  0
-6.361264  -53.173725  -21.012691  0
-6.602836  -53.393349  -21.065487  0
-6.693816  -53.141338  -20.928974  0
-7.403793  -53.332699  -21.075554  0
-7.005888  -53.415901  -21.055735  0
-7.174838  -53.027977  -20.895004  0
32 39 0 0
1 34 0 0
0 34 32 0
2 36 1 0
1 36 34 0
2 42 36 0
40 45 3 0
40 3 39 0
3 0 39 0
3 4 0 0
0 5 1 0
0 4 5 0
1 6 2 0
1 5 6 0
42 2 43 0
2 7 43 0
2 6 7 0
7 47 43 0
3 45 8 0
8 45 50 0
3 9 4 0
3 8 9 0
4 10 5 0
4 9 10 0
5 11 6 0
5 10 11 0
6 12 7 0
6 11 12 0
47 7 52 0
52 7 12 0
8 50 13 0
13 50 55 0
8 14 9 0
8 13 14 0
9 15 10 0
9 14 15 0
10 16 11 0
10 15 16 0
11 17 12 0
11 16 17 0
52 12 57 0
57 12 17 0
13 55 18 0
18 55 60 0
13 19 14 0
13 18 19 0
14 20 15 0
14 19 20 0
15 21 16 0
15 20 21 0
58 17 63 0
17 21 63 0
17 16 21 0
17 58 57 0
60 62 18 0
66 22 62 0
22 18 62 0
22 19 18 0
19 23 20 0
19 22 23 0
64 21 69 0
21 23 69 0
21 20 23 0
21 64 63 0
66 68 22 0
22 68 23 0
23 68 70 0
23 70 69 0
75 81 24 0
25 77 24 0
24 77 75 0
26 79 25 0
25 79 77 0
26 83 79 0
24 81 27 0
27 81 88 0
24 28 25 0
24 27 28 0
25 29 26 0
25 28 29 0
83 26 84 0
26 30 84 0
26 29 30 0
30 91 84 0
89 95 31 0
89 31 88 0
31 27 88 0
31 33 27 0
27 35 28 0
27 33 35 0
28 37 29 0
28 35 37 0
29 38 30 0
29 37 38 0
91 30 97 0
97 30 38 0
31 95 41 0
41 95 101 0
41 39 32 0
33 41 32 0
31 41 33 0
33 32 34 0
33 34 35 0
35 34 36 0
35 36 37 0
37 36 42 0
44 37 42 0
38 37 44 0
97 38 104 0
104 38 44 0
102 110 46 0
102 46 101 0
101 46 41 0
46 45 41 0
45 40 41 0
41 40 39 0
43 44 42 0
48 105 47 0
47 105 43 0
105 104 43 0
104 44 43 0
49 107 48 0
48 107 105 0
49 111 107 0
46 110 51 0
51 110 113 0
51 50 45 0
51 45 46 0
52 53 48 0
52 48 47 0
48 54 49 0
48 53 54 0
111 49 114 0
114 49 54 0
51 113 56 0
56 113 117 0
56 55 50 0
56 50 51 0
57 59 53 0
57 53 52 0
115 54 118 0
54 59 118 0
54 53 59 0
54 115 114 0
56 117 61 0
61 117 121 0
61 60 55 0
61 55 56 0
63 65 58 0
65 123 58 0
58 123 57 0
123 119 57 0
119 59 57 0
59 119 118 0
121 122 61 0
122 126 67 0
122 67 62 0
61 122 62 0
60 61 62 0
67 66 62 0
69 71 64 0
71 128 64 0
64 128 63 0
128 124 63 0
124 65 63 0
65 124 123 0
67 126 72 0
72 126 131 0
73 68 66 0
67 73 66 0
72 73 67 0
74 70 68 0
74 68 73 0
74 135 70 0
70 135 69 0
135 129 69 0
129 71 69 0
71 129 128 0
131 133 72 0
72 133 73 0
73 133 134 0
73 134 74 0
74 134 136 0
74 136 135 0
141 144 76 0
78 142 76 0
76 142 141 0
80 143 78 0
78 143 142 0
80 146 143 0
145 153 82 0
145 82 144 0
144 82 76 0
82 81 76 0
81 75 76 0
76 75 77 0
76 77 78 0
78 77 79 0
78 79 80 0
85 147 83 0
83 147 79 0
147 146 79 0
146 80 79 0
86 149 85 0
85 149 147 0
87 151 86 0
86 151 149 0
87 154 151 0
82 153 90 0
90 153 157 0
90 88 81 0
90 81 82 0
84 85 83 0
85 84 91 0
92 85 91 0
86 85 92 0
86 93 87 0
86 92 93 0
154 87 155 0
87 94 155 0
87 93 94 0
94 159 155 0
158 162 96 0
158 96 157 0
157 96 90 0
96 95 90 0
95 89 90 0
90 89 88 0
97 98 92 0
97 92 91 0
92 99 93 0
92 98 99 0
93 100 94 0
93 99 100 0
159 94 164 0
164 94 100 0
96 162 103 0
103 162 167 0
103 101 95 0
103 95 96 0
104 106 98 0
104 98 97 0
98 108 99 0
98 106 108 0
99 109 100 0
99 108 109 0
164 100 168 0
168 100 109 0
103 167 102 0
167 110 102 0
167 171 110 0
103 102 101 0
105 106 104 0
106 105 107 0
106 107 108 0
108 107 111 0
112 108 111 0
109 108 112 0
168 109 172 0
172 109 112 0
171 113 110 0
174 113 171 0
114 116 112 0
114 112 111 0
172 112 175 0
175 112 116 0
174 117 113 0
178 117 174 0
118 120 115 0
120 179 115 0
115 179 114 0
179 176 114 0
176 116 114 0
116 176 175 0
178 121 117 0
182 121 178 0
123 125 119 0
125 183 119 0
119 183 118 0
183 180 118 0
180 120 118 0
120 180 179 0
122 121 127 0
121 186 127 0
121 182 186 0
127 126 122 0
128 130 124 0
130 187 124 0
124 187 123 0
187 184 123 0
184 125 123 0
125 184 183 0
127 186 132 0
132 186 190 0
132 131 126 0
132 126 127 0
135 137 129 0
137 192 129 0
129 192 128 0
192 188 128 0
188 130 128 0
130 188 187 0
190 191 132 0
191 194 138 0
191 138 133 0
132 191 133 0
131 132 133 0
139 134 133 0
139 133 138 0
140 136 134 0
140 134 139 0
140 197 136 0
136 197 135 0
197 193 135 0
193 137 135 0
137 193 192 0
194 195 138 0
138 195 139 0
139 195 196 0
139 196 140 0
140 196 198 0
140 198 197 0
199 205 141 0
141 205 144 0
200 141 142 0
200 199 141 0
201 142 143 0
201 200 142 0
148 202 146 0
202 143 146 0
202 201 143 0
150 203 148 0
148 203 202 0
152 204 150 0
150 204 203 0
152 208 204 0
206 211 145 0
145 211 153 0
145 144 205 0
145 205 206 0
147 148 146 0
148 147 149 0
148 149 150 0
150 149 151 0
150 151 152 0
156 209 154 0
154 209 151 0
209 208 151 0
208 152 151 0
156 213 209 0
211 157 153 0
218 157 211 0
155 156 154 0
160 214 159 0
159 214 155 0
214 213 155 0
213 156 155 0
161 216 160 0
160 216 214 0
161 219 216 0
163 162 158 0
221 163 158 0
157 221 158 0
218 221 157 0
164 165 160 0
164 160 159 0
160 166 161 0
160 165 166 0
219 161 223 0
223 161 166 0
222 225 163 0
225 162 163 0
225 167 162 0
222 163 221 0
168 169 165 0
168 165 164 0
165 170 166 0
165 169 170 0
223 166 227 0
227 166 170 0
225 171 167 0
230 171 225 0
172 173 169 0
172 169 168 0
228 170 232 0
170 173 232 0
170 169 173 0
170 228 227 0
230 174 171 0
234 174 230 0
175 177 173 0
175 173 172 0
232 173 236 0
236 173 177 0
234 178 174 0
239 178 234 0
179 181 176 0
181 241 176 0
176 241 175 0
241 237 175 0
237 177 175 0
177 237 236 0
239 182 178 0
244 182 239 0
183 185 180 0
185 246 180 0
180 246 179 0
246 242 179 0
242 181 179 0
181 242 241 0
244 186 182 0
249 186 244 0
187 189 184 0
189 252 184 0
184 252 183 0
252 247 183 0
247 185 183 0
185 247 246 0
249 190 186 0
255 190 249 0
258 251 188 0
258 188 192 0
187 188 189 0
188 253 189 0
188 251 253 0
189 253 252 0
255 256 190 0
190 256 191 0
194 191 256 0
194 256 262 0
266 259 193 0
266 193 197 0
192 193 258 0
258 193 259 0
262 263 194 0
194 263 195 0
195 265 196 0
263 265 195 0
196 267 198 0
265 267 196 0
197 198 266 0
266 198 267 0
207 205 199 0
207 199 275 0
199 269 275 0
199 200 269 0
270 200 201 0
270 269 200 0
271 201 202 0
271 270 201 0
272 202 203 0
272 271 202 0
273 203 204 0
273 272 203 0
210 274 208 0
274 204 208 0
274 273 204 0
210 278 274 0
212 211 206 0
283 212 206 0
283 206 205 0
276 283 205 0
207 276 205 0
276 207 275 0
209 210 208 0
215 279 213 0
213 279 209 0
279 278 209 0
278 210 209 0
217 281 215 0
215 281 279 0
217 286 281 0
284 289 212 0
289 211 212 0
289 218 211 0
284 212 283 0
214 215 213 0
215 214 216 0
215 216 217 0
220 287 219 0
219 287 216 0
287 286 216 0
286 217 216 0
220 291 287 0
289 221 218 0
293 221 289 0
223 224 220 0
223 220 219 0
291 220 295 0
295 220 224 0
226 225 222 0
297 226 222 0
221 297 222 0
293 297 221 0
227 229 224 0
227 224 223 0
295 224 299 0
299 224 229 0
231 230 226 0
226 230 225 0
226 297 302 0
226 302 231 0
232 233 228 0
233 304 228 0
228 304 227 0
304 300 227 0
300 229 227 0
229 300 299 0
235 234 231 0
231 234 230 0
231 302 306 0
231 306 235 0
236 238 233 0
236 233 232 0
304 233 308 0
308 233 238 0
240 239 235 0
235 239 234 0
235 306 311 0
235 311 240 0
241 243 237 0
243 313 237 0
237 313 236 0
313 309 236 0
309 238 236 0
238 309 308 0
245 244 240 0
240 244 239 0
240 311 316 0
240 316 245 0
246 248 242 0
248 318 242 0
242 318 241 0
318 314 241 0
314 243 241 0
243 314 313 0
250 249 245 0
245 249 244 0
245 316 321 0
245 321 250 0
252 254 247 0
254 323 247 0
247 323 246 0
323 319 246 0
319 248 246 0
248 319 318 0
257 255 250 0
250 255 249 0
250 321 326 0
250 326 257 0
258 260 251 0
261 253 251 0
261 251 260 0
261 330 253 0
253 330 252 0
330 324 252 0
324 254 252 0
254 324 323 0
257 256 255 0
327 264 262 0
327 262 256 0
326 327 256 0
257 326 256 0
333 264 327 0
266 268 259 0
268 337 259 0
259 337 258 0
337 329 258 0
329 260 258 0
260 329 261 0
261 329 331 0
261 331 330 0
264 263 262 0
333 334 264 0
334 263 264 0
334 265 263 0
265 336 267 0
334 336 265 0
266 267 268 0
267 338 268 0
267 336 338 0
268 338 337 0
277 275 269 0
277 269 347 0
269 340 347 0
269 270 340 0
341 270 271 0
341 340 270 0
342 271 272 0
342 341 271 0
343 272 273 0
343 342 272 0
344 273 274 0
344 343 273 0
280 345 278 0
345 274 278 0
345 344 274 0
282 346 280 0
280 346 345 0
282 350 346 0
285 283 276 0
352 285 276 0
352 276 275 0
348 352 275 0
277 348 275 0
348 277 347 0
279 280 278 0
280 279 281 0
280 281 282 0
288 351 286 0
286 351 281 0
351 350 281 0
350 282 281 0
288 355 351 0
290 289 284 0
357 290 284 0
357 284 283 0
353 357 283 0
285 353 283 0
353 285 352 0
287 288 286 0
292 356 291 0
291 356 287 0
356 355 287 0
355 288 287 0
292 359 356 0
294 293 290 0
290 293 289 0
290 357 360 0
290 360 294 0
295 296 292 0
295 292 291 0
359 292 362 0
362 292 296 0
298 297 294 0
294 297 293 0
294 360 363 0
294 363 298 0
299 301 296 0
299 296 295 0
362 296 365 0
365 296 301 0
303 302 298 0
298 302 297 0
298 363 367 0
298 367 303 0
304 305 300 0
305 369 300 0
300 369 299 0
369 366 299 0
366 301 299 0
301 366 365 0
307 306 303 0
303 306 302 0
303 367 371 0
303 371 307 0
308 310 305 0
308 305 304 0
369 305 373 0
373 305 310 0
312 311 307 0
307 311 306 0
307 371 375 0
307 375 312 0
313 315 309 0
315 377 309 0
309 377 308 0
377 374 308 0
374 310 308 0
310 374 373 0
317 316 312 0
312 316 311 0
312 375 379 0
312 379 317 0
318 320 314 0
320 381 314 0
314 381 313 0
381 378 313 0
378 315 313 0
315 378 377 0
322 321 317 0
317 321 316 0
317 379 384 0
317 384 322 0
323 325 319 0
325 386 319 0
319 386 318 0
386 382 318 0
382 320 318 0
320 382 381 0
328 326 322 0
322 326 321 0
322 384 389 0
322 389 328 0
330 332 324 0
332 393 324 0
324 393 323 0
393 387 323 0
387 325 323 0
325 387 386 0
328 327 326 0
390 335 333 0
390 333 327 0
389 390 327 0
328 389 327 0
395 335 390 0
337 339 329 0
329 339 399 0
392 329 399 0
331 329 392 0
330 331 332 0
331 394 332 0
331 392 394 0
332 394 393 0
335 334 333 0
395 396 335 0
396 334 335 0
396 336 334 0
336 398 338 0
396 398 336 0
337 338 339 0
338 400 339 0
338 398 400 0
339 400 399 0
349 347 340 0
349 340 407 0
340 401 407 0
340 341 401 0
402 341 342 0
402 401 341 0
403 342 343 0
403 402 342 0
404 343 344 0
404 403 343 0
405 344 345 0
405 404 344 0
406 345 346 0
406 405 345 0
346 350 406 0
406 350 411 0
354 352 348 0
413 354 348 0
413 348 347 0
408 413 347 0
349 408 347 0
408 349 407 0
412 411 350 0
412 350 351 0
351 355 412 0
412 355 416 0
358 357 353 0
418 358 353 0
418 353 352 0
414 418 352 0
354 414 352 0
414 354 413 0
417 416 355 0
417 355 356 0
356 359 417 0
417 359 420 0
361 360 358 0
358 360 357 0
358 418 421 0
358 421 361 0
362 420 359 0
362 423 420 0
364 363 361 0
361 363 360 0
361 421 424 0
361 424 364 0
365 423 362 0
365 426 423 0
368 367 364 0
364 367 363 0
364 424 428 0
364 428 368 0
369 370 366 0
370 430 366 0
430 365 366 0
430 426 365 0
372 371 368 0
368 371 367 0
368 428 432 0
368 432 372 0
434 431 370 0
369 434 370 0
373 434 369 0
370 431 430 0
376 375 372 0
372 375 371 0
372 432 436 0
372 436 376 0
438 435 374 0
438 374 377 0
373 374 434 0
434 374 435 0
380 379 376 0
376 379 375 0
376 436 440 0
376 440 380 0
381 383 378 0
383 442 378 0
442 377 378 0
442 438 377 0
385 384 380 0
380 384 379 0
380 440 444 0
380 444 385 0
386 388 382 0
388 447 382 0
382 447 381 0
447 443 381 0
443 383 381 0
383 443 442 0
391 389 385 0
385 389 384 0
385 444 449 0
385 449 391 0
453 446 387 0
453 387 393 0
386 387 388 0
387 448 388 0
387 446 448 0
388 448 447 0
391 390 389 0
450 397 395 0
450 395 390 0
449 450 390 0
391 449 390 0
455 397 450 0
458 452 392 0
458 392 399 0
392 454 394 0
452 454 392 0
393 394 453 0
453 394 454 0
397 396 395 0
455 456 397 0
456 396 397 0
456 398 396 0
398 459 400 0
456 459 398 0
399 400 458 0
458 400 459 0
409 407 401 0
402 410 401 0
401 410 409 0
410 402 466 0
402 461 466 0
402 403 461 0
462 403 404 0
462 461 403 0
463 404 405 0
463 462 404 0
464 405 406 0
464 463 405 0
406 411 464 0
464 411 469 0
415 413 408 0
471 415 408 0
471 408 407 0
465 471 407 0
409 465 407 0
465 409 410 0
465 410 467 0
467 410 466 0
470 469 411 0
470 411 412 0
412 416 470 0
470 416 475 0
419 418 414 0
477 419 414 0
477 414 413 0
472 477 413 0
415 472 413 0
472 415 471 0
476 475 416 0
476 416 417 0
417 420 476 0
476 420 480 0
422 421 419 0
419 421 418 0
419 477 482 0
419 482 422 0
423 480 420 0
423 484 480 0
425 424 422 0
422 424 421 0
422 482 486 0
422 486 425 0
426 427 485 0
484 426 485 0
423 426 484 0
427 488 485 0
429 428 425 0
425 428 424 0
425 486 490 0
425 490 429 0
492 489 427 0
426 492 427 0
430 492 426 0
427 489 488 0
433 432 429 0
429 432 428 0
429 490 494 0
429 494 433 0
496 493 431 0
496 431 434 0
430 431 492 0
492 431 493 0
437 436 433 0
433 436 432 0
433 494 497 0
433 497 437 0
438 439 435 0
439 499 435 0
499 434 435 0
499 496 434 0
441 440 437 0
437 440 436 0
437 497 501 0
437 501 441 0
503 500 439 0
438 503 439 0
442 503 438 0
439 500 499 0
445 444 441 0
441 444 440 0
441 501 505 0
441 505 445 0
508 504 443 0
508 443 447 0
442 443 503 0
503 443 504 0
451 449 445 0
445 449 444 0
445 505 510 0
445 510 451 0
517 507 446 0
517 446 453 0
446 509 448 0
507 509 446 0
447 448 508 0
508 448 509 0
451 450 449 0
511 457 455 0
511 455 450 0
510 511 450 0
451 510 450 0
513 460 457 0
513 457 511 0
452 458 460 0
513 452 460 0
515 452 513 0
452 518 454 0
515 518 452 0
453 454 517 0
517 454 518 0
457 456 455 0
456 457 459 0
459 457 460 0
459 460 458 0
468 466 461 0
468 461 522 0
461 519 522 0
461 462 519 0
520 462 463 0
520 519 462 0
521 463 464 0
521 520 463 0
464 469 521 0
521 469 526 0
473 471 465 0
467 474 465 0
465 474 473 0
529 474 467 0
529 467 466 0
523 529 466 0
468 523 466 0
523 468 522 0
528 526 469 0
528 469 470 0
470 475 528 0
528 475 532 0
478 477 472 0
471 473 472 0
473 478 472 0
473 479 478 0
474 530 534 0
479 474 534 0
473 474 479 0
530 474 529 0
475 476 481 0
537 475 481 0
532 475 537 0
480 481 476 0
483 482 478 0
478 482 477 0
479 535 540 0
483 479 540 0
478 479 483 0
535 479 534 0
539 537 481 0
481 480 539 0
480 542 539 0
480 484 542 0
487 486 483 0
483 486 482 0
483 540 545 0
483 545 487 0
544 542 484 0
544 484 485 0
485 488 544 0
544 488 547 0
491 490 487 0
487 490 486 0
487 545 550 0
487 550 491 0
552 548 489 0
552 489 492 0
488 489 547 0
547 489 548 0
495 494 491 0
491 494 490 0
491 550 555 0
491 555 495 0
557 553 493 0
557 493 496 0
492 493 552 0
552 493 553 0
498 497 495 0
495 497 494 0
495 555 558 0
495 558 498 0
499 557 496 0
499 560 557 0
502 501 498 0
498 501 497 0
498 558 562 0
498 562 502 0
564 561 500 0
564 500 503 0
499 500 560 0
560 500 561 0
506 505 502 0
502 505 501 0
502 562 566 0
502 566 506 0
572 565 504 0
572 504 508 0
503 504 564 0
564 504 565 0
512 510 506 0
506 510 505 0
506 566 567 0
514 506 567 0
512 506 514 0
569 516 514 0
569 514 567 0
574 516 569 0
575 571 507 0
575 507 517 0
507 573 509 0
571 573 507 0
508 509 572 0
572 509 573 0
512 511 510 0
511 512 513 0
513 512 514 0
513 514 515 0
515 514 516 0
574 576 516 0
576 515 516 0
576 518 515 0
517 518 575 0
575 518 576 0
524 522 519 0
520 525 519 0
519 525 524 0
521 527 520 0
520 527 525 0
526 527 521 0
531 529 523 0
581 531 523 0
581 523 522 0
578 581 522 0
524 578 522 0
578 524 525 0
578 525 579 0
579 525 527 0
579 527 580 0
585 580 533 0
533 580 528 0
580 527 528 0
527 526 528 0
532 533 528 0
536 534 530 0
587 536 530 0
587 530 529 0
582 587 529 0
531 582 529 0
582 531 581 0
585 533 538 0
585 538 592 0
537 538 532 0
532 538 533 0
541 540 535 0
595 541 535 0
595 535 534 0
588 595 534 0
536 588 534 0
588 536 587 0
594 592 538 0
599 594 543 0
543 594 539 0
594 538 539 0
538 537 539 0
542 543 539 0
546 545 541 0
541 545 540 0
541 595 602 0
541 602 546 0
601 599 543 0
607 601 549 0
549 601 544 0
601 543 544 0
543 542 544 0
547 549 544 0
551 550 546 0
546 550 545 0
546 602 610 0
546 610 551 0
612 608 554 0
554 608 607 0
554 607 549 0
552 554 549 0
548 552 549 0
548 549 547 0
556 555 551 0
551 555 550 0
551 610 614 0
551 614 556 0
612 554 553 0
557 612 553 0
616 612 557 0
553 554 552 0
559 558 556 0
556 558 555 0
556 614 618 0
556 618 559 0
560 616 557 0
560 620 616 0
563 562 559 0
559 562 558 0
559 618 623 0
559 623 563 0
627 621 561 0
627 561 564 0
560 561 620 0
620 561 621 0
568 566 563 0
563 566 562 0
563 623 624 0
570 563 624 0
568 563 570 0
630 570 624 0
635 628 565 0
635 565 572 0
564 565 627 0
627 565 628 0
568 567 566 0
567 568 569 0
569 568 570 0
631 577 574 0
631 574 569 0
630 631 569 0
570 630 569 0
571 575 577 0
631 571 577 0
633 571 631 0
571 636 573 0
633 636 571 0
572 573 635 0
635 573 636 0
577 576 574 0
576 577 575 0
583 581 578 0
579 584 578 0
578 584 583 0
580 586 579 0
579 586 584 0
585 586 580 0
589 587 582 0
581 583 582 0
583 589 582 0
583 590 589 0
591 583 584 0
590 583 591 0
593 584 586 0
591 584 593 0
592 593 585 0
585 593 586 0
596 595 588 0
587 589 588 0
589 596 588 0
589 597 596 0
590 638 640 0
597 590 640 0
589 590 597 0
638 590 591 0
638 591 639 0
598 642 639 0
591 598 639 0
593 598 591 0
594 600 592 0
600 593 592 0
600 598 593 0
599 600 594 0
603 602 596 0
596 602 595 0
604 596 597 0
603 596 604 0
597 640 644 0
597 644 604 0
642 598 605 0
642 605 647 0
606 598 600 0
605 598 606 0
601 609 599 0
609 600 599 0
609 606 600 0
607 609 601 0
611 610 603 0
603 610 602 0
604 645 650 0
611 604 650 0
603 604 611 0
645 604 644 0
649 647 605 0
613 654 649 0
605 613 649 0
606 613 605 0
612 613 608 0
613 609 608 0
613 606 609 0
608 609 607 0
615 614 611 0
611 614 610 0
611 650 656 0
611 656 615 0
654 613 617 0
654 617 660 0
616 617 612 0
612 617 613 0
619 618 615 0
615 618 614 0
615 656 662 0
615 662 619 0
660 617 622 0
660 622 667 0
620 622 616 0
616 622 617 0
625 623 619 0
619 623 618 0
619 662 663 0
626 619 663 0
625 619 626 0
670 626 663 0
673 668 629 0
629 668 667 0
629 667 622 0
627 629 622 0
621 627 622 0
621 622 620 0
625 624 623 0
624 625 630 0
625 632 630 0
625 626 632 0
626 670 671 0
634 626 671 0
632 626 634 0
674 637 634 0
674 634 671 0
637 674 673 0
637 673 629 0
635 637 629 0
628 635 629 0
628 629 627 0
632 631 630 0
631 632 633 0
633 632 634 0
633 634 636 0
636 634 637 0
636 637 635 0
641 640 638 0
639 643 638 0
638 643 641 0
642 643 639 0
646 644 641 0
641 644 640 0
648 641 643 0
646 641 648 0
647 648 642 0
642 648 643 0
651 650 645 0
644 646 645 0
646 651 645 0
646 652 651 0
653 646 648 0
652 646 653 0
649 655 647 0
655 648 647 0
655 653 648 0
654 655 649 0
657 656 651 0
651 656 650 0
658 651 652 0
657 651 658 0
659 652 653 0
658 652 659 0
661 653 655 0
659 653 661 0
660 661 654 0
654 661 655 0
664 662 657 0
657 662 656 0
665 657 658 0
664 657 665 0
666 658 659 0
665 658 666 0
669 659 661 0
666 659 669 0
667 669 660 0
660 669 661 0
664 663 662 0
663 664 670 0
664 672 670 0
664 665 672 0
675 665 666 0
672 665 675 0
673 675 668 0
675 669 668 0
675 666 669 0
668 669 667 0
672 671 670 0
671 672 674 0
674 672 675 0
674 675 673 0
