#!ascii version in FreeSurfer format (SUMA)
552 1100
11.837296  -48.205566  -25.869724  0
11.837296  -48.705566  -25.869724  0
11.337296  -48.705566  -25.869724  0
10.837296  -48.705566  -25.869724  0
11.837296  -49.205566  -25.869724  0
11.337296  -49.205566  -25.869724  0
10.837296  -49.205566  -25.869724  0
11.837296  -49.705566  -25.869724  0
11.337296  -49.705566  -25.869724  0
10.837296  -49.705566  -25.869724  0
11.837296  -50.205566  -25.869724  0
11.337296  -50.205566  -25.869724  0
10.837296  -50.205566  -25.869724  0
11.337296  -50.705566  -25.869724  0
12.837296  -47.705566  -25.369720  0
12.337296  -47.705566  -25.369720  0
11.837296  -47.955566  -25.619724  0
11.837296  -47.705566  -25.369720  0
12.837296  -48.205566  -25.369720  0
12.087296  -48.205566  -25.619724  0
12.337296  -48.205566  -25.369720  0
11.587296  -48.205566  -25.619724  0
11.337296  -48.455566  -25.619724  0
11.337296  -48.205566  -25.369720  0
10.837296  -48.455566  -25.619724  0
12.837296  -48.705566  -25.369720  0
12.087296  -48.705566  -25.619724  0
12.337296  -48.705566  -25.369720  0
10.587296  -48.705566  -25.619724  0
12.837296  -49.205566  -25.369720  0
12.087296  -49.205566  -25.619724  0
12.337296  -49.205566  -25.369720  0
10.587296  -49.205566  -25.619724  0
12.837296  -49.705566  -25.369720  0
12.087296  -49.705566  -25.619724  0
12.337296  -49.705566  -25.369720  0
10.587296  -49.705566  -25.619724  0
12.087296  -50.205566  -25.619724  0
12.337296  -50.205566  -25.369720  0
11.837296  -50.455566  -25.619724  0
10.587296  -50.205566  -25.619724  0
10.837296  -50.455566  -25.619724  0
11.587296  -50.705566  -25.619724  0
11.837296  -50.705566  -25.369720  0
11.087296  -50.705566  -25.619724  0
11.337296  -50.955566  -25.619724  0
10.837296  -50.705566  -25.369720  0
11.837296  -51.205566  -25.369720  0
11.337296  -51.205566  -25.369720  0
10.837296  -51.205566  -25.369720  0
13.837296  -47.205566  -24.869717  0
13.337296  -47.205566  -24.869717  0
12.837296  -47.455566  -25.119720  0
12.837296  -47.205566  -24.869717  0
12.337296  -47.455566  -25.119720  0
12.337296  -47.205566  -24.869717  0
11.837296  -47.455566  -25.119720  0
13.837296  -47.705566  -24.869717  0
13.087296  -47.705566  -25.119720  0
13.337296  -47.705566  -24.869717  0
11.587296  -47.705566  -25.119720  0
11.337296  -47.955566  -25.119720  0
13.837296  -48.205566  -24.869717  0
13.087296  -48.205566  -25.119720  0
13.337296  -48.205566  -24.869717  0
11.087296  -48.205566  -25.119720  0
10.837296  -48.455566  -25.119720  0
13.837296  -48.705566  -24.869717  0
13.087296  -48.705566  -25.119720  0
13.337296  -48.705566  -24.869717  0
10.587296  -48.705566  -25.119720  0
13.837296  -49.205566  -24.869717  0
13.087296  -49.205566  -25.119720  0
13.337296  -49.205566  -24.869717  0
10.587296  -49.205566  -25.119720  0
13.837296  -49.705566  -24.869717  0
13.087296  -49.705566  -25.119720  0
13.337296  -49.705566  -24.869717  0
12.837296  -49.955566  -25.119720  0
10.587296  -49.705566  -25.119720  0
13.837296  -50.205566  -24.869717  0
13.337296  -50.205566  -24.869717  0
12.587296  -50.205566  -25.119720  0
12.837296  -50.205566  -24.869717  0
12.337296  -50.455566  -25.119720  0
10.587296  -50.205566  -25.119720  0
13.837296  -50.705566  -24.869717  0
13.337296  -50.705566  -24.869717  0
12.837296  -50.705566  -24.869717  0
12.087296  -50.705566  -25.119720  0
12.337296  -50.705566  -24.869717  0
10.587296  -50.705566  -25.119720  0
13.337296  -51.205566  -24.869717  0
12.837296  -51.205566  -24.869717  0
12.087296  -51.205566  -25.119720  0
12.337296  -51.205566  -24.869717  0
11.837296  -51.455566  -25.119720  0
11.337296  -51.455566  -25.119720  0
10.587296  -51.205566  -25.119720  0
10.837296  -51.455566  -25.119720  0
12.337296  -51.705566  -24.869717  0
11.837296  -51.705566  -24.869717  0
13.837296  -46.955566  -24.619717  0
13.337296  -46.955566  -24.619717  0
12.837296  -46.955566  -24.619717  0
12.337296  -46.955566  -24.619717  0
14.837296  -47.205566  -24.369713  0
14.087296  -47.205566  -24.619717  0
14.337296  -47.205566  -24.369713  0
12.087296  -47.205566  -24.619717  0
11.837296  -47.455566  -24.619717  0
14.087296  -47.705566  -24.619717  0
14.337296  -47.705566  -24.369713  0
11.587296  -47.705566  -24.619717  0
11.337296  -47.955566  -24.619717  0
14.837296  -48.205566  -24.369713  0
14.087296  -48.205566  -24.619717  0
14.337296  -48.205566  -24.369713  0
11.087296  -48.205566  -24.619717  0
11.337296  -48.205566  -24.369713  0
10.837296  -48.455566  -24.619717  0
14.837296  -48.705566  -24.369713  0
14.087296  -48.705566  -24.619717  0
14.337296  -48.705566  -24.369713  0
10.587296  -48.705566  -24.619717  0
10.837296  -48.705566  -24.369713  0
14.837296  -49.205566  -24.369713  0
14.087296  -49.205566  -24.619717  0
14.337296  -49.205566  -24.369713  0
10.587296  -49.205566  -24.619717  0
10.837296  -49.205566  -24.369713  0
14.837296  -49.705566  -24.369713  0
14.087296  -49.705566  -24.619717  0
14.337296  -49.705566  -24.369713  0
10.587296  -49.705566  -24.619717  0
14.087296  -50.205566  -24.619717  0
14.337296  -50.205566  -24.369713  0
10.587296  -50.205566  -24.619717  0
14.087296  -50.705566  -24.619717  0
14.337296  -50.705566  -24.369713  0
13.837296  -50.955566  -24.619717  0
10.587296  -50.705566  -24.619717  0
13.587296  -51.205566  -24.619717  0
13.837296  -51.205566  -24.369713  0
13.337296  -51.455566  -24.619717  0
12.837296  -51.455566  -24.619717  0
11.337296  -51.455566  -24.619717  0
10.587296  -51.205566  -24.619717  0
10.837296  -51.455566  -24.619717  0
13.837296  -51.705566  -24.369713  0
13.337296  -51.705566  -24.369713  0
12.587296  -51.705566  -24.619717  0
12.837296  -51.705566  -24.369713  0
12.337296  -51.955566  -24.619717  0
11.587296  -51.705566  -24.619717  0
11.837296  -51.955566  -24.619717  0
14.837296  -46.955566  -24.119713  0
14.337296  -46.955566  -24.119713  0
13.837296  -46.955566  -24.119713  0
13.337296  -46.955566  -24.119713  0
12.837296  -46.955566  -24.119713  0
12.337296  -46.955566  -24.119713  0
15.087296  -47.205566  -24.119713  0
15.337296  -47.205566  -23.869713  0
14.837296  -47.455566  -24.119713  0
12.087296  -47.205566  -24.119713  0
12.337296  -47.205566  -23.869713  0
11.837296  -47.455566  -24.119713  0
15.337296  -47.705566  -23.869713  0
14.587296  -47.705566  -24.119713  0
14.837296  -47.955566  -24.119713  0
14.837296  -47.705566  -23.869713  0
11.587296  -47.705566  -24.119713  0
11.837296  -47.705566  -23.869713  0
15.087296  -48.205566  -24.119713  0
15.337296  -48.205566  -23.869713  0
11.587296  -48.205566  -24.119713  0
11.837296  -48.205566  -23.869713  0
11.337296  -48.455566  -24.119713  0
15.087296  -48.705566  -24.119713  0
15.337296  -48.705566  -23.869713  0
11.087296  -48.705566  -24.119713  0
11.337296  -48.705566  -23.869713  0
15.087296  -49.205566  -24.119713  0
15.337296  -49.205566  -23.869713  0
11.087296  -49.205566  -24.119713  0
11.337296  -49.205566  -23.869713  0
10.837296  -49.455566  -24.119713  0
15.087296  -49.705566  -24.119713  0
15.337296  -49.705566  -23.869713  0
14.837296  -49.955566  -24.119713  0
11.337296  -49.705566  -23.869713  0
10.587296  -49.705566  -24.119713  0
10.837296  -49.705566  -23.869713  0
14.587296  -50.205566  -24.119713  0
14.837296  -50.205566  -23.869713  0
11.337296  -50.205566  -23.869713  0
10.587296  -50.205566  -24.119713  0
10.837296  -50.205566  -23.869713  0
14.587296  -50.705566  -24.119713  0
14.837296  -50.705566  -23.869713  0
14.337296  -50.955566  -24.119713  0
10.587296  -50.705566  -24.119713  0
10.837296  -50.705566  -23.869713  0
14.087296  -51.205566  -24.119713  0
14.337296  -51.205566  -23.869713  0
11.337296  -51.455566  -24.119713  0
10.587296  -51.205566  -24.119713  0
10.837296  -51.455566  -24.119713  0
10.837296  -51.205566  -23.869713  0
14.087296  -51.705566  -24.119713  0
13.837296  -51.955566  -24.119713  0
13.337296  -51.955566  -24.119713  0
12.837296  -51.955566  -24.119713  0
12.337296  -51.955566  -24.119713  0
11.587296  -51.705566  -24.119713  0
11.837296  -51.955566  -24.119713  0
11.837296  -51.705566  -23.869713  0
15.337296  -46.955566  -23.619709  0
14.837296  -46.955566  -23.619709  0
14.337296  -46.955566  -23.619709  0
13.837296  -46.955566  -23.619709  0
13.337296  -46.955566  -23.619709  0
12.837296  -46.955566  -23.619709  0
15.587296  -47.205566  -23.619709  0
15.837296  -47.205566  -23.369709  0
12.587296  -47.205566  -23.619709  0
12.337296  -47.455566  -23.619709  0
16.337296  -47.705566  -23.369709  0
15.587296  -47.705566  -23.619709  0
15.837296  -47.705566  -23.369709  0
12.087296  -47.705566  -23.619709  0
12.337296  -47.705566  -23.369709  0
15.587296  -48.205566  -23.619709  0
15.837296  -48.205566  -23.369709  0
12.087296  -48.205566  -23.619709  0
11.837296  -48.455566  -23.619709  0
15.587296  -48.705566  -23.619709  0
15.837296  -48.705566  -23.369709  0
11.587296  -48.705566  -23.619709  0
11.837296  -48.705566  -23.369709  0
15.587296  -49.205566  -23.619709  0
11.587296  -49.205566  -23.619709  0
15.587296  -49.705566  -23.619709  0
15.337296  -49.955566  -23.619709  0
11.587296  -49.705566  -23.619709  0
15.087296  -50.205566  -23.619709  0
15.337296  -50.205566  -23.369709  0
11.587296  -50.205566  -23.619709  0
11.337296  -50.455566  -23.619709  0
15.087296  -50.705566  -23.619709  0
15.337296  -50.705566  -23.369709  0
14.837296  -50.955566  -23.619709  0
11.087296  -50.705566  -23.619709  0
11.337296  -50.705566  -23.369709  0
14.587296  -51.205566  -23.619709  0
14.837296  -51.205566  -23.369709  0
14.337296  -51.455566  -23.619709  0
11.837296  -51.455566  -23.619709  0
11.087296  -51.205566  -23.619709  0
11.337296  -51.455566  -23.619709  0
11.337296  -51.205566  -23.369709  0
14.087296  -51.705566  -23.619709  0
14.337296  -51.705566  -23.369709  0
13.837296  -51.955566  -23.619709  0
13.337296  -51.955566  -23.619709  0
12.837296  -51.955566  -23.619709  0
12.087296  -51.705566  -23.619709  0
12.337296  -51.955566  -23.619709  0
13.837296  -52.205566  -23.369709  0
13.337296  -52.205566  -23.369709  0
12.837296  -52.205566  -23.369709  0
15.837296  -46.955566  -23.119705  0
15.337296  -46.955566  -23.119705  0
14.837296  -46.955566  -23.119705  0
14.337296  -46.955566  -23.119705  0
13.837296  -46.955566  -23.119705  0
13.337296  -46.955566  -23.119705  0
12.837296  -46.955566  -23.119705  0
16.087296  -47.205566  -23.119705  0
16.337296  -47.455566  -23.119705  0
16.337296  -47.205566  -22.869705  0
12.587296  -47.205566  -23.119705  0
12.837296  -47.205566  -22.869705  0
16.587296  -47.705566  -23.119705  0
16.337296  -47.955566  -23.119705  0
12.587296  -47.705566  -23.119705  0
12.337296  -47.955566  -23.119705  0
16.087296  -48.205566  -23.119705  0
16.337296  -48.205566  -22.869705  0
12.087296  -48.205566  -23.119705  0
12.337296  -48.205566  -22.869705  0
16.087296  -48.705566  -23.119705  0
16.337296  -48.705566  -22.869705  0
15.837296  -48.955566  -23.119705  0
12.087296  -48.705566  -23.119705  0
12.337296  -48.705566  -22.869705  0
11.837296  -48.955566  -23.119705  0
15.587296  -49.205566  -23.119705  0
15.837296  -49.205566  -22.869705  0
12.337296  -49.205566  -22.869705  0
11.587296  -49.205566  -23.119705  0
11.837296  -49.205566  -22.869705  0
15.587296  -49.705566  -23.119705  0
15.837296  -49.705566  -22.869705  0
11.587296  -49.705566  -23.119705  0
11.837296  -49.705566  -22.869705  0
15.587296  -50.205566  -23.119705  0
11.587296  -50.205566  -23.119705  0
11.837296  -50.205566  -22.869705  0
15.587296  -50.705566  -23.119705  0
15.337296  -50.955566  -23.119705  0
11.587296  -50.705566  -23.119705  0
11.837296  -50.705566  -22.869705  0
15.087296  -51.205566  -23.119705  0
14.837296  -51.455566  -23.119705  0
11.587296  -51.205566  -23.119705  0
11.837296  -51.455566  -23.119705  0
11.837296  -51.205566  -22.869705  0
14.587296  -51.705566  -23.119705  0
14.837296  -51.705566  -22.869705  0
14.337296  -51.955566  -23.119705  0
12.087296  -51.705566  -23.119705  0
12.337296  -51.955566  -23.119705  0
12.337296  -51.705566  -22.869705  0
14.087296  -52.205566  -23.119705  0
14.337296  -52.205566  -22.869705  0
13.837296  -52.455566  -23.119705  0
13.337296  -52.455566  -23.119705  0
12.587296  -52.205566  -23.119705  0
12.837296  -52.455566  -23.119705  0
12.837296  -52.205566  -22.869705  0
16.337296  -46.955566  -22.619701  0
15.837296  -46.955566  -22.619701  0
15.337296  -46.955566  -22.619701  0
14.837296  -46.955566  -22.619701  0
14.337296  -46.955566  -22.619701  0
13.837296  -46.955566  -22.619701  0
13.337296  -46.955566  -22.619701  0
16.587296  -47.205566  -22.619701  0
15.337296  -47.205566  -22.369701  0
14.837296  -47.205566  -22.369701  0
14.337296  -47.205566  -22.369701  0
13.837296  -47.205566  -22.369701  0
13.087296  -47.205566  -22.619701  0
13.337296  -47.205566  -22.369701  0
12.837296  -47.455566  -22.619701  0
16.587296  -47.705566  -22.619701  0
13.837296  -47.705566  -22.369701  0
13.337296  -47.705566  -22.369701  0
12.587296  -47.705566  -22.619701  0
12.837296  -47.705566  -22.369701  0
16.587296  -48.205566  -22.619701  0
13.837296  -48.205566  -22.369701  0
13.337296  -48.205566  -22.369701  0
12.587296  -48.205566  -22.619701  0
12.837296  -48.205566  -22.369701  0
16.587296  -48.705566  -22.619701  0
16.337296  -48.955566  -22.619701  0
13.337296  -48.705566  -22.369701  0
12.587296  -48.705566  -22.619701  0
12.837296  -48.705566  -22.369701  0
16.087296  -49.205566  -22.619701  0
12.587296  -49.205566  -22.619701  0
12.837296  -49.205566  -22.369701  0
12.337296  -49.455566  -22.619701  0
16.087296  -49.705566  -22.619701  0
15.837296  -49.955566  -22.619701  0
12.837296  -49.705566  -22.369701  0
12.087296  -49.705566  -22.619701  0
12.337296  -49.705566  -22.369701  0
15.587296  -50.205566  -22.619701  0
15.837296  -50.205566  -22.369701  0
12.837296  -50.205566  -22.369701  0
12.087296  -50.205566  -22.619701  0
12.337296  -50.205566  -22.369701  0
15.587296  -50.705566  -22.619701  0
15.337296  -50.955566  -22.619701  0
12.837296  -50.705566  -22.369701  0
12.087296  -50.705566  -22.619701  0
12.337296  -50.705566  -22.369701  0
15.087296  -51.205566  -22.619701  0
12.837296  -51.205566  -22.369701  0
12.087296  -51.205566  -22.619701  0
12.337296  -51.455566  -22.619701  0
12.337296  -51.205566  -22.369701  0
15.087296  -51.705566  -22.619701  0
14.837296  -51.955566  -22.619701  0
12.587296  -51.705566  -22.619701  0
12.837296  -51.955566  -22.619701  0
12.837296  -51.705566  -22.369701  0
14.587296  -52.205566  -22.619701  0
14.337296  -52.455566  -22.619701  0
13.837296  -52.455566  -22.619701  0
13.087296  -52.205566  -22.619701  0
13.337296  -52.455566  -22.619701  0
13.337296  -52.205566  -22.369701  0
16.337296  -46.955566  -22.119698  0
15.837296  -46.955566  -22.119698  0
16.587296  -47.205566  -22.119698  0
16.337296  -47.205566  -21.869698  0
15.587296  -47.205566  -22.119698  0
15.837296  -47.205566  -21.869698  0
15.337296  -47.455566  -22.119698  0
14.837296  -47.455566  -22.119698  0
14.337296  -47.455566  -22.119698  0
16.587296  -47.705566  -22.119698  0
14.087296  -47.705566  -22.119698  0
14.337296  -47.705566  -21.869698  0
16.587296  -48.205566  -22.119698  0
14.087296  -48.205566  -22.119698  0
14.337296  -48.205566  -21.869698  0
13.837296  -48.455566  -22.119698  0
16.587296  -48.705566  -22.119698  0
16.337296  -48.955566  -22.119698  0
13.587296  -48.705566  -22.119698  0
13.837296  -48.705566  -21.869698  0
13.337296  -48.955566  -22.119698  0
16.087296  -49.205566  -22.119698  0
16.337296  -49.205566  -21.869698  0
13.087296  -49.205566  -22.119698  0
13.337296  -49.205566  -21.869698  0
16.087296  -49.705566  -22.119698  0
13.087296  -49.705566  -22.119698  0
13.337296  -49.705566  -21.869698  0
16.087296  -50.205566  -22.119698  0
15.837296  -50.455566  -22.119698  0
13.087296  -50.205566  -22.119698  0
13.337296  -50.205566  -21.869698  0
15.587296  -50.705566  -22.119698  0
15.337296  -50.955566  -22.119698  0
13.087296  -50.705566  -22.119698  0
13.337296  -50.705566  -21.869698  0
15.087296  -51.205566  -22.119698  0
15.337296  -51.205566  -21.869698  0
13.087296  -51.205566  -22.119698  0
13.337296  -51.205566  -21.869698  0
15.087296  -51.705566  -22.119698  0
14.837296  -51.955566  -22.119698  0
13.837296  -51.705566  -21.869698  0
13.087296  -51.705566  -22.119698  0
13.337296  -51.955566  -22.119698  0
13.337296  -51.705566  -21.869698  0
14.587296  -52.205566  -22.119698  0
14.337296  -52.455566  -22.119698  0
14.337296  -52.205566  -21.869698  0
13.587296  -52.205566  -22.119698  0
13.837296  -52.455566  -22.119698  0
13.837296  -52.205566  -21.869698  0
16.337296  -47.455566  -21.619698  0
15.837296  -47.455566  -21.619698  0
15.337296  -47.455566  -21.619698  0
14.837296  -47.455566  -21.619698  0
16.587296  -47.705566  -21.619698  0
16.337296  -47.705566  -21.369694  0
15.837296  -47.705566  -21.369694  0
15.337296  -47.705566  -21.369694  0
14.587296  -47.705566  -21.619698  0
14.837296  -47.705566  -21.369694  0
16.587296  -48.205566  -21.619698  0
15.337296  -48.205566  -21.369694  0
14.587296  -48.205566  -21.619698  0
14.837296  -48.205566  -21.369694  0
14.337296  -48.455566  -21.619698  0
16.587296  -48.705566  -21.619698  0
14.087296  -48.705566  -21.619698  0
14.337296  -48.705566  -21.369694  0
13.837296  -48.955566  -21.619698  0
16.587296  -49.205566  -21.619698  0
16.337296  -49.455566  -21.619698  0
13.587296  -49.205566  -21.619698  0
13.837296  -49.205566  -21.369694  0
16.087296  -49.705566  -21.619698  0
13.587296  -49.705566  -21.619698  0
13.837296  -49.705566  -21.369694  0
16.087296  -50.205566  -21.619698  0
15.837296  -50.455566  -21.619698  0
13.587296  -50.205566  -21.619698  0
13.837296  -50.205566  -21.369694  0
15.587296  -50.705566  -21.619698  0
14.337296  -50.705566  -21.369694  0
13.587296  -50.705566  -21.619698  0
13.837296  -50.705566  -21.369694  0
15.587296  -51.205566  -21.619698  0
15.337296  -51.455566  -21.619698  0
15.337296  -51.205566  -21.369694  0
14.837296  -51.205566  -21.369694  0
14.337296  -51.205566  -21.369694  0
13.587296  -51.205566  -21.619698  0
13.837296  -51.455566  -21.619698  0
13.837296  -51.205566  -21.369694  0
15.087296  -51.705566  -21.619698  0
14.837296  -51.955566  -21.619698  0
14.837296  -51.705566  -21.369694  0
14.087296  -51.705566  -21.619698  0
14.337296  -51.955566  -21.619698  0
14.337296  -51.705566  -21.369694  0
16.337296  -47.955566  -21.119694  0
15.837296  -47.955566  -21.119694  0
16.587296  -48.205566  -21.119694  0
16.337296  -48.205566  -20.869690  0
15.587296  -48.205566  -21.119694  0
15.837296  -48.205566  -20.869690  0
15.337296  -48.455566  -21.119694  0
14.837296  -48.455566  -21.119694  0
16.587296  -48.705566  -21.119694  0
15.337296  -48.705566  -20.869690  0
14.587296  -48.705566  -21.119694  0
14.837296  -48.705566  -20.869690  0
14.337296  -48.955566  -21.119694  0
16.587296  -49.205566  -21.119694  0
16.337296  -49.455566  -21.119694  0
14.837296  -49.205566  -20.869690  0
14.087296  -49.205566  -21.119694  0
14.337296  -49.205566  -20.869690  0
16.087296  -49.705566  -21.119694  0
14.837296  -49.705566  -20.869690  0
14.087296  -49.705566  -21.119694  0
14.337296  -49.705566  -20.869690  0
16.087296  -50.205566  -21.119694  0
15.837296  -50.455566  -21.119694  0
15.837296  -50.205566  -20.869690  0
15.337296  -50.205566  -20.869690  0
14.837296  -50.205566  -20.869690  0
14.087296  -50.205566  -21.119694  0
14.337296  -50.455566  -21.119694  0
14.337296  -50.205566  -20.869690  0
15.587296  -50.705566  -21.119694  0
15.337296  -50.955566  -21.119694  0
15.337296  -50.705566  -20.869690  0
14.587296  -50.705566  -21.119694  0
14.837296  -50.955566  -21.119694  0
14.837296  -50.705566  -20.869690  0
16.337296  -48.455566  -20.619690  0
15.837296  -48.455566  -20.619690  0
16.587296  -48.705566  -20.619690  0
16.337296  -48.705566  -20.369686  0
15.587296  -48.705566  -20.619690  0
15.837296  -48.705566  -20.369686  0
15.337296  -48.955566  -20.619690  0
16.587296  -49.205566  -20.619690  0
16.337296  -49.455566  -20.619690  0
16.337296  -49.205566  -20.369686  0
15.837296  -49.205566  -20.369686  0
15.087296  -49.205566  -20.619690  0
15.337296  -49.205566  -20.369686  0
16.087296  -49.705566  -20.619690  0
15.837296  -49.955566  -20.619690  0
15.837296  -49.705566  -20.369686  0
15.087296  -49.705566  -20.619690  0
15.337296  -49.955566  -20.619690  0
15.337296  -49.705566  -20.369686  0
16 19 0 0
0 21 16 0
0 19 1 0
1 19 26 0
21 0 22 0
0 2 22 0
0 1 2 0
3 24 2 0
2 24 22 0
3 28 24 0
1 26 4 0
4 26 30 0
1 5 2 0
1 4 5 0
2 6 3 0
2 5 6 0
28 3 32 0
32 3 6 0
4 30 7 0
7 30 34 0
4 8 5 0
4 7 8 0
5 9 6 0
5 8 9 0
32 6 36 0
36 6 9 0
7 34 10 0
10 34 37 0
7 11 8 0
7 10 11 0
8 12 9 0
8 11 12 0
36 9 40 0
40 9 12 0
37 39 10 0
42 13 39 0
13 10 39 0
13 11 10 0
41 12 44 0
12 13 44 0
12 11 13 0
12 41 40 0
42 45 13 0
13 45 44 0
52 58 14 0
15 54 14 0
14 54 52 0
17 56 15 0
15 56 54 0
17 60 56 0
14 58 18 0
18 58 63 0
14 20 15 0
14 18 20 0
20 19 16 0
17 20 16 0
15 20 17 0
23 61 21 0
21 61 16 0
61 60 16 0
60 17 16 0
23 65 61 0
18 63 25 0
25 63 68 0
18 27 20 0
18 25 27 0
27 26 19 0
27 19 20 0
22 23 21 0
66 65 23 0
22 66 23 0
24 66 22 0
24 28 66 0
66 28 70 0
25 68 29 0
29 68 72 0
25 31 27 0
25 29 31 0
31 30 26 0
31 26 27 0
32 70 28 0
32 74 70 0
29 72 33 0
33 72 76 0
29 35 31 0
29 33 35 0
35 34 30 0
35 30 31 0
36 74 32 0
36 79 74 0
76 78 33 0
82 38 78 0
38 33 78 0
38 35 33 0
38 37 34 0
38 34 35 0
40 79 36 0
40 85 79 0
82 84 38 0
84 89 43 0
84 43 39 0
38 84 39 0
37 38 39 0
43 42 39 0
44 46 41 0
46 91 41 0
91 40 41 0
91 85 40 0
43 89 47 0
47 89 94 0
48 45 42 0
43 48 42 0
47 48 43 0
46 44 45 0
48 46 45 0
49 46 48 0
91 46 98 0
98 46 49 0
94 96 47 0
47 96 48 0
48 96 97 0
48 97 49 0
49 97 99 0
49 99 98 0
102 107 50 0
51 103 50 0
50 103 102 0
53 104 51 0
51 104 103 0
55 105 53 0
53 105 104 0
55 109 105 0
50 107 57 0
57 107 111 0
50 59 51 0
50 57 59 0
59 58 52 0
53 59 52 0
51 59 53 0
53 52 54 0
53 54 55 0
110 109 55 0
54 110 55 0
56 110 54 0
56 60 110 0
110 60 113 0
57 111 62 0
62 111 116 0
57 64 59 0
57 62 64 0
64 63 58 0
64 58 59 0
114 113 60 0
114 60 61 0
61 65 114 0
114 65 118 0
62 116 67 0
67 116 122 0
62 69 64 0
62 67 69 0
69 68 63 0
69 63 64 0
120 118 65 0
120 65 66 0
66 70 120 0
120 70 124 0
67 122 71 0
71 122 127 0
67 73 69 0
67 71 73 0
73 72 68 0
73 68 69 0
74 124 70 0
74 129 124 0
71 127 75 0
75 127 132 0
71 77 73 0
71 75 77 0
77 76 72 0
77 72 73 0
79 129 74 0
79 134 129 0
75 132 80 0
80 132 135 0
75 81 77 0
75 80 81 0
83 78 76 0
77 83 76 0
81 83 77 0
83 82 78 0
85 134 79 0
85 137 134 0
80 135 86 0
86 135 138 0
80 87 81 0
80 86 87 0
81 88 83 0
81 87 88 0
90 84 82 0
83 90 82 0
88 90 83 0
90 89 84 0
91 137 85 0
91 141 137 0
138 140 86 0
142 92 140 0
92 86 140 0
92 87 86 0
87 93 88 0
87 92 93 0
88 95 90 0
88 93 95 0
95 94 89 0
95 89 90 0
98 141 91 0
98 147 141 0
142 144 92 0
92 144 93 0
93 144 145 0
151 100 145 0
100 93 145 0
100 95 93 0
101 96 94 0
95 101 94 0
100 101 95 0
96 101 154 0
146 96 154 0
97 96 146 0
97 148 99 0
146 148 97 0
98 99 147 0
147 99 148 0
151 153 100 0
100 153 101 0
101 153 155 0
101 155 154 0
156 162 106 0
108 157 106 0
106 157 156 0
107 102 108 0
102 157 108 0
102 158 157 0
159 102 103 0
159 158 102 0
160 103 104 0
160 159 103 0
161 104 105 0
161 160 104 0
105 109 161 0
161 109 165 0
162 164 106 0
169 112 164 0
112 106 164 0
112 108 106 0
112 111 107 0
112 107 108 0
167 165 109 0
167 109 110 0
110 113 167 0
167 113 172 0
170 174 115 0
170 115 169 0
115 112 169 0
115 117 112 0
117 116 111 0
117 111 112 0
113 114 119 0
176 113 119 0
172 113 176 0
118 119 114 0
115 174 121 0
121 174 179 0
115 123 117 0
115 121 123 0
123 122 116 0
123 116 117 0
178 176 119 0
181 178 125 0
125 178 120 0
178 119 120 0
119 118 120 0
124 125 120 0
121 179 126 0
126 179 183 0
121 128 123 0
121 126 128 0
128 127 122 0
128 122 123 0
181 125 130 0
181 130 185 0
129 130 124 0
124 130 125 0
126 183 131 0
131 183 188 0
126 133 128 0
126 131 133 0
133 132 127 0
133 127 128 0
187 185 130 0
130 129 187 0
129 192 187 0
129 134 192 0
188 190 131 0
194 136 190 0
136 131 190 0
136 133 131 0
136 135 132 0
136 132 133 0
137 192 134 0
137 197 192 0
136 194 139 0
139 194 199 0
139 138 135 0
139 135 136 0
141 197 137 0
141 202 197 0
199 201 139 0
201 204 143 0
201 143 140 0
139 201 140 0
138 139 140 0
143 142 140 0
147 202 141 0
147 207 202 0
143 204 149 0
149 204 210 0
150 144 142 0
143 150 142 0
149 150 143 0
152 145 144 0
152 144 150 0
152 151 145 0
215 206 146 0
215 146 154 0
146 208 148 0
206 208 146 0
147 148 207 0
207 148 208 0
210 211 149 0
149 211 150 0
150 211 212 0
150 212 152 0
152 212 213 0
152 213 151 0
213 153 151 0
213 214 153 0
153 216 155 0
214 216 153 0
154 155 215 0
215 155 216 0
218 224 163 0
162 156 163 0
156 218 163 0
156 219 218 0
220 156 157 0
220 219 156 0
221 157 158 0
221 220 157 0
222 158 159 0
222 221 158 0
223 159 160 0
223 222 159 0
226 223 166 0
223 161 166 0
223 160 161 0
165 166 161 0
163 224 168 0
168 224 229 0
171 164 162 0
163 171 162 0
168 171 163 0
171 169 164 0
227 226 166 0
231 227 173 0
173 227 167 0
227 166 167 0
166 165 167 0
172 173 167 0
168 229 175 0
175 229 233 0
175 174 170 0
171 175 170 0
168 175 171 0
171 170 169 0
231 173 177 0
231 177 235 0
176 177 172 0
172 177 173 0
175 233 180 0
180 233 237 0
180 179 174 0
180 174 175 0
236 235 177 0
239 236 182 0
182 236 178 0
236 177 178 0
177 176 178 0
181 182 178 0
180 237 184 0
184 237 241 0
184 183 179 0
184 179 180 0
239 182 186 0
239 186 242 0
185 186 181 0
181 186 182 0
184 241 189 0
189 241 243 0
189 188 183 0
189 183 184 0
242 186 191 0
242 191 245 0
187 193 185 0
193 186 185 0
193 191 186 0
192 193 187 0
243 244 189 0
244 246 195 0
244 195 190 0
189 244 190 0
188 189 190 0
195 194 190 0
245 191 196 0
245 196 248 0
198 191 193 0
196 191 198 0
197 198 192 0
192 198 193 0
195 246 200 0
200 246 250 0
200 199 194 0
200 194 195 0
249 248 196 0
203 253 249 0
196 203 249 0
198 203 196 0
202 203 197 0
197 203 198 0
250 252 200 0
252 255 205 0
252 205 201 0
200 252 201 0
199 200 201 0
205 204 201 0
253 203 209 0
253 209 259 0
207 209 202 0
202 209 203 0
255 257 205 0
204 205 257 0
262 204 257 0
210 204 262 0
267 258 217 0
206 215 217 0
258 206 217 0
260 206 258 0
209 208 259 0
208 260 259 0
208 206 260 0
208 209 207 0
262 264 210 0
210 264 211 0
211 265 212 0
264 265 211 0
212 266 213 0
265 266 212 0
213 268 214 0
266 268 213 0
217 216 267 0
216 268 267 0
216 214 268 0
216 217 215 0
272 279 225 0
224 218 225 0
218 272 225 0
218 273 272 0
274 218 219 0
274 273 218 0
275 219 220 0
275 274 219 0
276 220 221 0
276 275 220 0
277 221 222 0
277 276 221 0
278 222 223 0
278 277 222 0
223 226 278 0
278 226 282 0
280 284 228 0
280 228 279 0
228 225 279 0
228 230 225 0
230 229 224 0
230 224 225 0
226 227 232 0
286 226 232 0
282 226 286 0
231 232 227 0
284 285 228 0
288 234 285 0
234 228 285 0
234 230 228 0
234 233 229 0
234 229 230 0
287 286 232 0
232 231 287 0
231 290 287 0
231 235 290 0
234 288 238 0
238 288 292 0
238 237 233 0
238 233 234 0
235 236 240 0
295 235 240 0
290 235 295 0
239 240 236 0
292 294 238 0
237 238 294 0
298 237 294 0
241 237 298 0
297 295 240 0
240 239 297 0
239 301 297 0
239 242 301 0
298 243 241 0
303 243 298 0
245 301 242 0
245 305 301 0
244 243 247 0
243 307 247 0
243 303 307 0
247 246 244 0
248 305 245 0
248 308 305 0
247 307 251 0
251 307 310 0
251 250 246 0
251 246 247 0
248 249 254 0
312 248 254 0
308 248 312 0
253 254 249 0
310 311 251 0
311 314 256 0
311 256 252 0
251 311 252 0
250 251 252 0
256 255 252 0
312 254 261 0
312 261 316 0
259 261 253 0
253 261 254 0
314 315 256 0
315 319 263 0
315 263 257 0
256 315 257 0
255 256 257 0
263 262 257 0
322 317 258 0
322 258 267 0
261 260 316 0
260 317 316 0
260 258 317 0
260 261 259 0
319 321 263 0
321 325 269 0
321 269 264 0
263 321 264 0
262 263 264 0
270 265 264 0
270 264 269 0
271 266 265 0
271 265 270 0
266 271 329 0
323 266 329 0
268 266 323 0
267 268 322 0
322 268 323 0
325 327 269 0
269 327 270 0
270 327 328 0
270 328 271 0
271 328 330 0
271 330 329 0
332 339 281 0
279 272 281 0
272 332 281 0
272 333 332 0
334 272 273 0
334 333 272 0
335 273 274 0
335 334 273 0
336 274 275 0
336 335 274 0
337 275 276 0
337 336 275 0
338 276 277 0
338 337 276 0
344 338 283 0
338 278 283 0
338 277 278 0
282 283 278 0
281 339 280 0
339 284 280 0
339 347 284 0
281 280 279 0
346 344 283 0
283 282 346 0
282 350 346 0
282 286 350 0
285 284 289 0
284 352 289 0
284 347 352 0
289 288 285 0
286 287 291 0
355 286 291 0
350 286 355 0
290 291 287 0
289 352 293 0
293 352 357 0
293 292 288 0
293 288 289 0
355 291 296 0
355 296 360 0
295 296 290 0
290 296 291 0
357 358 293 0
358 362 299 0
358 299 294 0
293 358 294 0
292 293 294 0
299 298 294 0
360 296 300 0
360 300 363 0
297 302 295 0
302 296 295 0
302 300 296 0
301 302 297 0
299 362 304 0
304 362 366 0
304 303 298 0
304 298 299 0
365 363 300 0
306 369 365 0
300 306 365 0
302 306 300 0
305 306 301 0
301 306 302 0
366 367 304 0
303 304 367 0
371 303 367 0
307 303 371 0
369 306 309 0
369 309 374 0
308 309 305 0
305 309 306 0
371 310 307 0
376 310 371 0
374 309 313 0
374 313 379 0
312 313 308 0
308 313 309 0
376 377 310 0
310 377 311 0
314 311 377 0
314 377 381 0
379 313 318 0
379 318 383 0
316 318 312 0
312 318 313 0
315 314 320 0
314 386 320 0
314 381 386 0
320 319 315 0
388 384 324 0
324 384 383 0
324 383 318 0
322 324 318 0
317 322 318 0
317 318 316 0
386 387 320 0
387 391 326 0
387 326 321 0
320 387 321 0
319 320 321 0
326 325 321 0
394 389 331 0
331 389 388 0
331 388 324 0
329 331 324 0
323 329 324 0
323 324 322 0
391 392 326 0
326 392 325 0
392 327 325 0
392 393 327 0
327 395 328 0
393 395 327 0
331 330 394 0
330 395 394 0
330 328 395 0
330 331 329 0
397 399 332 0
332 399 339 0
398 332 333 0
398 397 332 0
401 398 340 0
398 334 340 0
398 333 334 0
335 341 334 0
334 341 340 0
336 342 335 0
335 342 341 0
337 343 336 0
336 343 342 0
338 345 337 0
337 345 343 0
344 345 338 0
399 347 339 0
406 347 399 0
403 401 340 0
403 340 341 0
403 341 404 0
404 341 342 0
404 342 405 0
348 407 405 0
342 348 405 0
343 348 342 0
349 343 345 0
348 343 349 0
346 351 344 0
351 345 344 0
351 349 345 0
350 351 346 0
406 352 347 0
409 352 406 0
407 348 353 0
407 353 410 0
354 348 349 0
353 348 354 0
356 349 351 0
354 349 356 0
355 356 350 0
350 356 351 0
409 357 352 0
413 357 409 0
412 410 353 0
359 415 412 0
353 359 412 0
354 359 353 0
361 354 356 0
359 354 361 0
360 361 355 0
355 361 356 0
413 414 357 0
357 414 358 0
362 358 414 0
362 414 418 0
417 415 359 0
364 420 417 0
359 364 417 0
361 364 359 0
363 364 360 0
360 364 361 0
418 366 362 0
422 366 418 0
420 364 368 0
420 368 423 0
365 370 363 0
370 364 363 0
370 368 364 0
369 370 365 0
367 366 372 0
366 425 372 0
366 422 425 0
372 371 367 0
423 368 373 0
423 373 427 0
375 368 370 0
373 368 375 0
374 375 369 0
369 375 370 0
425 426 372 0
371 372 426 0
429 371 426 0
376 371 429 0
427 373 378 0
427 378 431 0
380 373 375 0
378 373 380 0
379 380 374 0
374 380 375 0
429 430 376 0
376 430 377 0
381 377 430 0
381 430 433 0
431 378 382 0
431 382 435 0
385 378 380 0
382 378 385 0
383 385 379 0
379 385 380 0
433 386 381 0
437 386 433 0
435 382 390 0
435 390 440 0
388 390 384 0
390 385 384 0
390 382 385 0
384 385 383 0
437 438 386 0
386 438 387 0
391 387 438 0
391 438 443 0
446 441 396 0
396 441 440 0
396 440 390 0
394 396 390 0
389 394 390 0
389 390 388 0
443 444 391 0
391 444 392 0
392 447 393 0
444 447 392 0
396 395 446 0
395 447 446 0
395 393 447 0
395 396 394 0
400 399 397 0
398 402 397 0
397 402 400 0
401 402 398 0
449 453 400 0
453 399 400 0
453 406 399 0
449 400 402 0
449 402 450 0
450 402 401 0
403 450 401 0
451 450 403 0
452 403 404 0
452 451 403 0
457 452 408 0
452 405 408 0
452 404 405 0
407 408 405 0
453 409 406 0
459 409 453 0
457 408 411 0
457 411 461 0
410 411 407 0
407 411 408 0
459 413 409 0
464 413 459 0
463 461 411 0
465 463 416 0
416 463 412 0
463 411 412 0
411 410 412 0
415 416 412 0
414 413 419 0
413 468 419 0
413 464 468 0
419 418 414 0
467 465 416 0
470 467 421 0
421 467 417 0
467 416 417 0
416 415 417 0
420 421 417 0
468 469 419 0
418 419 469 0
472 418 469 0
422 418 472 0
470 421 424 0
470 424 473 0
423 424 420 0
420 424 421 0
472 425 422 0
475 425 472 0
473 424 428 0
473 428 477 0
427 428 423 0
423 428 424 0
475 476 425 0
425 476 426 0
429 426 476 0
429 476 479 0
477 428 432 0
477 432 481 0
431 432 427 0
427 432 428 0
430 429 434 0
429 483 434 0
429 479 483 0
434 433 430 0
481 432 436 0
481 436 488 0
435 436 431 0
431 436 432 0
483 484 434 0
433 434 484 0
491 433 484 0
437 433 491 0
494 489 439 0
439 489 488 0
436 439 488 0
442 439 436 0
440 442 435 0
435 442 436 0
491 492 437 0
437 492 438 0
495 445 443 0
438 495 443 0
492 495 438 0
445 495 494 0
439 445 494 0
448 445 439 0
446 448 441 0
448 442 441 0
448 439 442 0
441 442 440 0
445 444 443 0
444 445 447 0
447 445 448 0
447 448 446 0
454 453 449 0
450 455 449 0
449 455 454 0
451 456 450 0
450 456 455 0
452 458 451 0
451 458 456 0
457 458 452 0
497 499 454 0
499 453 454 0
499 459 453 0
497 454 455 0
497 455 498 0
460 501 498 0
455 460 498 0
456 460 455 0
462 456 458 0
460 456 462 0
461 462 457 0
457 462 458 0
499 464 459 0
505 464 499 0
503 501 460 0
503 460 462 0
503 462 504 0
507 504 466 0
466 504 463 0
504 462 463 0
462 461 463 0
465 466 463 0
505 468 464 0
510 468 505 0
509 507 466 0
513 509 471 0
471 509 467 0
509 466 467 0
466 465 467 0
470 471 467 0
510 511 468 0
468 511 469 0
472 469 511 0
472 511 515 0
513 471 474 0
513 474 517 0
473 474 470 0
470 474 471 0
515 475 472 0
519 475 515 0
517 474 478 0
517 478 524 0
477 478 473 0
473 478 474 0
519 520 475 0
475 520 476 0
479 476 520 0
479 520 527 0
530 525 480 0
480 525 524 0
478 480 524 0
482 480 478 0
481 482 477 0
477 482 478 0
485 483 528 0
483 527 528 0
483 479 527 0
531 486 485 0
531 485 528 0
486 531 530 0
480 486 530 0
487 486 480 0
490 480 482 0
487 480 490 0
488 490 481 0
481 490 482 0
485 484 483 0
484 485 491 0
485 493 491 0
485 486 493 0
496 486 487 0
493 486 496 0
494 496 489 0
496 490 489 0
496 487 490 0
489 490 488 0
493 492 491 0
492 493 495 0
495 493 496 0
495 496 494 0
500 499 497 0
498 502 497 0
497 502 500 0
501 502 498 0
533 535 500 0
535 499 500 0
535 505 499 0
533 500 502 0
533 502 534 0
537 534 506 0
506 534 503 0
534 502 503 0
502 501 503 0
504 508 503 0
503 508 506 0
507 508 504 0
535 510 505 0
540 510 535 0
539 537 506 0
512 544 539 0
506 512 539 0
508 512 506 0
509 514 507 0
514 508 507 0
514 512 508 0
513 514 509 0
540 541 510 0
510 541 511 0
515 511 541 0
515 541 546 0
544 512 516 0
544 516 549 0
518 512 514 0
516 512 518 0
517 518 513 0
513 518 514 0
521 519 547 0
519 546 547 0
519 515 546 0
550 522 521 0
550 521 547 0
522 550 549 0
516 522 549 0
523 522 516 0
526 516 518 0
523 516 526 0
524 526 517 0
517 526 518 0
521 520 519 0
520 521 527 0
521 529 527 0
521 522 529 0
532 522 523 0
529 522 532 0
530 532 525 0
532 526 525 0
532 523 526 0
525 526 524 0
529 528 527 0
528 529 531 0
531 529 532 0
531 532 530 0
536 535 533 0
534 538 533 0
533 538 536 0
537 538 534 0
542 540 536 0
536 540 535 0
543 536 538 0
542 536 543 0
539 545 537 0
545 538 537 0
545 543 538 0
544 545 539 0
542 541 540 0
541 542 546 0
542 548 546 0
542 543 548 0
551 543 545 0
548 543 551 0
549 551 544 0
544 551 545 0
548 547 546 0
547 548 550 0
550 548 551 0
550 551 549 0
