#!ascii version in FreeSurfer format (SUMA)
622 1244
-5.943474  -57.846317  -27.478371  0
-6.443474  -57.846317  -27.478371  0
-6.943474  -57.846317  -27.478371  0
-5.943474  -58.346317  -27.478371  0
-6.443474  -58.846317  -27.478371  0
-6.943474  -58.846317  -27.478371  0
-5.943474  -56.346317  -26.978371  0
-6.443474  -56.346317  -26.978371  0
-6.943474  -56.346317  -26.978371  0
-7.443474  -56.346317  -26.978371  0
-7.943474  -56.346317  -26.978371  0
-5.943474  -56.846317  -26.978371  0
-6.443474  -56.846317  -26.978371  0
-6.943474  -56.846317  -26.978371  0
-7.443474  -56.846317  -26.978371  0
-7.943474  -56.846317  -26.978371  0
-5.943474  -57.596317  -27.228371  0
-5.943474  -57.346317  -26.978371  0
-6.443474  -57.596317  -27.228371  0
-6.443474  -57.346317  -26.978371  0
-6.943474  -57.596317  -27.228371  0
-6.943474  -57.346317  -26.978371  0
-7.443474  -57.346317  -26.978371  0
-7.943474  -57.346317  -26.978371  0
-5.693474  -57.846317  -27.228371  0
-6.443474  -58.096317  -27.228371  0
-7.193474  -57.846317  -27.228371  0
-6.943474  -58.096317  -27.228371  0
-7.443474  -57.846317  -26.978371  0
-7.943474  -57.846317  -26.978371  0
-8.443474  -57.846317  -26.978371  0
-5.693474  -58.346317  -27.228371  0
-6.193474  -58.346317  -27.228371  0
-5.943474  -58.596317  -27.228371  0
-6.443474  -58.596317  -27.228371  0
-6.443474  -58.346317  -26.978371  0
-6.943474  -58.596317  -27.228371  0
-6.943474  -58.346317  -26.978371  0
-7.443474  -58.346317  -26.978371  0
-7.943474  -58.346317  -26.978371  0
-8.443474  -58.346317  -26.978371  0
-6.193474  -58.846317  -27.228371  0
-6.443474  -59.096317  -27.228371  0
-7.193474  -58.846317  -27.228371  0
-6.943474  -59.096317  -27.228371  0
-7.443474  -58.846317  -26.978371  0
-7.943474  -58.846317  -26.978371  0
-8.443474  -58.846317  -26.978371  0
-6.443474  -59.346317  -26.978371  0
-6.943474  -59.346317  -26.978371  0
-7.443474  -59.346317  -26.978371  0
-7.943474  -59.346317  -26.978371  0
-8.443474  -59.346317  -26.978371  0
-6.443474  -59.846317  -26.978371  0
-6.943474  -59.846317  -26.978371  0
-7.443474  -59.846317  -26.978371  0
-5.943474  -56.096317  -26.728371  0
-6.443474  -56.096317  -26.728371  0
-6.943474  -56.096317  -26.728371  0
-7.443474  -56.096317  -26.728371  0
-7.443474  -55.846317  -26.478371  0
-7.943474  -56.096317  -26.728371  0
-7.943474  -55.846317  -26.478371  0
-8.443474  -55.846317  -26.478371  0
-8.943474  -55.846317  -26.478371  0
-5.693474  -56.346317  -26.728371  0
-8.193474  -56.346317  -26.728371  0
-8.443474  -56.346317  -26.478371  0
-8.943474  -56.346317  -26.478371  0
-5.693474  -56.846317  -26.728371  0
-5.943474  -56.846317  -26.478371  0
-8.193474  -56.846317  -26.728371  0
-8.443474  -56.846317  -26.478371  0
-8.943474  -56.846317  -26.478371  0
-5.693474  -57.346317  -26.728371  0
-8.193474  -57.346317  -26.728371  0
-8.443474  -57.596317  -26.728371  0
-8.443474  -57.346317  -26.478371  0
-8.943474  -57.346317  -26.478371  0
-5.693474  -57.846317  -26.728371  0
-8.693474  -57.846317  -26.728371  0
-8.943474  -57.846317  -26.478371  0
-5.693474  -58.346317  -26.728371  0
-5.943474  -58.596317  -26.728371  0
-8.693474  -58.346317  -26.728371  0
-8.943474  -58.346317  -26.478371  0
-6.193474  -58.846317  -26.728371  0
-8.693474  -58.846317  -26.728371  0
-8.943474  -58.846317  -26.478371  0
-6.193474  -59.346317  -26.728371  0
-7.943474  -59.596317  -26.728371  0
-8.693474  -59.346317  -26.728371  0
-8.443474  -59.596317  -26.728371  0
-8.943474  -59.346317  -26.478371  0
-6.193474  -59.846317  -26.728371  0
-6.443474  -60.096317  -26.728371  0
-6.943474  -60.096317  -26.728371  0
-7.693474  -59.846317  -26.728371  0
-7.443474  -60.096317  -26.728371  0
-7.943474  -59.846317  -26.478371  0
-8.443474  -59.846317  -26.478371  0
-6.943474  -60.346317  -26.478371  0
-7.443474  -60.346317  -26.478371  0
-7.943474  -60.346317  -26.478371  0
-7.443474  -55.596317  -26.228371  0
-7.943474  -55.596317  -26.228371  0
-7.943474  -55.346317  -25.978371  0
-8.443474  -55.596317  -26.228371  0
-8.443474  -55.346317  -25.978371  0
-8.943474  -55.596317  -26.228371  0
-8.943474  -55.346317  -25.978371  0
-5.943474  -56.096317  -26.228371  0
-6.443474  -56.096317  -26.228371  0
-7.193474  -55.846317  -26.228371  0
-6.943474  -56.096317  -26.228371  0
-9.193474  -55.846317  -26.228371  0
-9.443474  -55.846317  -25.978371  0
-5.693474  -56.346317  -26.228371  0
-5.943474  -56.596317  -26.228371  0
-5.943474  -56.346317  -25.978371  0
-6.443474  -56.346317  -25.978371  0
-9.193474  -56.346317  -26.228371  0
-9.443474  -56.346317  -25.978371  0
-6.193474  -56.846317  -26.228371  0
-5.943474  -57.096317  -26.228371  0
-9.193474  -56.846317  -26.228371  0
-9.443474  -56.846317  -25.978371  0
-5.693474  -57.346317  -26.228371  0
-5.943474  -57.346317  -25.978371  0
-9.193474  -57.346317  -26.228371  0
-9.443474  -57.346317  -25.978371  0
-9.943474  -57.346317  -25.978371  0
-5.693474  -57.846317  -26.228371  0
-9.193474  -57.846317  -26.228371  0
-9.443474  -57.846317  -25.978371  0
-9.943474  -57.846317  -25.978371  0
-5.693474  -58.346317  -26.228371  0
-5.943474  -58.596317  -26.228371  0
-5.943474  -58.346317  -25.978371  0
-9.193474  -58.346317  -26.228371  0
-9.443474  -58.346317  -25.978371  0
-9.943474  -58.346317  -25.978371  0
-6.193474  -58.846317  -26.228371  0
-9.193474  -58.846317  -26.228371  0
-9.443474  -58.846317  -25.978371  0
-6.193474  -59.346317  -26.228371  0
-9.193474  -59.346317  -26.228371  0
-8.943474  -59.596317  -26.228371  0
-9.443474  -59.346317  -25.978371  0
-6.193474  -59.846317  -26.228371  0
-6.443474  -60.096317  -26.228371  0
-6.443474  -59.846317  -25.978371  0
-8.693474  -59.846317  -26.228371  0
-8.443474  -60.096317  -26.228371  0
-8.943474  -59.846317  -25.978371  0
-6.693474  -60.346317  -26.228371  0
-6.943474  -60.596317  -26.228371  0
-7.443474  -60.596317  -26.228371  0
-8.193474  -60.346317  -26.228371  0
-7.943474  -60.596317  -26.228371  0
-8.443474  -60.346317  -25.978371  0
-7.443474  -60.846317  -25.978371  0
-7.943474  -60.846317  -25.978371  0
-7.943474  -55.096317  -25.728371  0
-8.443474  -55.096317  -25.728371  0
-8.443474  -54.846317  -25.478371  0
-8.943474  -55.096317  -25.728371  0
-8.943474  -54.846317  -25.478371  0
-9.443474  -54.846317  -25.478371  0
-7.693474  -55.346317  -25.728371  0
-7.443474  -55.596317  -25.728371  0
-9.193474  -55.346317  -25.728371  0
-9.443474  -55.596317  -25.728371  0
-9.443474  -55.346317  -25.478371  0
-9.943474  -55.346317  -25.478371  0
-7.193474  -55.846317  -25.728371  0
-6.943474  -56.096317  -25.728371  0
-7.443474  -55.846317  -25.478371  0
-9.693474  -55.846317  -25.728371  0
-9.943474  -55.846317  -25.478371  0
-6.693474  -56.346317  -25.728371  0
-6.443474  -56.596317  -25.728371  0
-6.943474  -56.346317  -25.478371  0
-9.693474  -56.346317  -25.728371  0
-9.943474  -56.346317  -25.478371  0
-10.443474  -56.346317  -25.478371  0
-6.193474  -56.846317  -25.728371  0
-6.443474  -56.846317  -25.478371  0
-9.693474  -56.846317  -25.728371  0
-9.943474  -57.096317  -25.728371  0
-9.943474  -56.846317  -25.478371  0
-10.443474  -56.846317  -25.478371  0
-6.193474  -57.346317  -25.728371  0
-5.943474  -57.596317  -25.728371  0
-6.443474  -57.346317  -25.478371  0
-10.193474  -57.346317  -25.728371  0
-10.443474  -57.346317  -25.478371  0
-5.693474  -57.846317  -25.728371  0
-5.943474  -58.096317  -25.728371  0
-5.943474  -57.846317  -25.478371  0
-6.443474  -57.846317  -25.478371  0
-10.193474  -57.846317  -25.728371  0
-10.443474  -57.846317  -25.478371  0
-6.193474  -58.346317  -25.728371  0
-6.443474  -58.346317  -25.478371  0
-10.193474  -58.346317  -25.728371  0
-9.943474  -58.596317  -25.728371  0
-10.443474  -58.346317  -25.478371  0
-6.193474  -58.846317  -25.728371  0
-6.443474  -58.846317  -25.478371  0
-9.693474  -58.846317  -25.728371  0
-9.943474  -58.846317  -25.478371  0
-10.443474  -58.846317  -25.478371  0
-6.193474  -59.346317  -25.728371  0
-6.443474  -59.596317  -25.728371  0
-6.443474  -59.346317  -25.478371  0
-9.693474  -59.346317  -25.728371  0
-9.443474  -59.596317  -25.728371  0
-9.943474  -59.346317  -25.478371  0
-10.443474  -59.346317  -25.478371  0
-6.693474  -59.846317  -25.728371  0
-6.943474  -59.846317  -25.478371  0
-9.193474  -59.846317  -25.728371  0
-8.943474  -60.096317  -25.728371  0
-9.443474  -59.846317  -25.478371  0
-9.943474  -59.846317  -25.478371  0
-6.693474  -60.346317  -25.728371  0
-6.943474  -60.596317  -25.728371  0
-6.943474  -60.346317  -25.478371  0
-8.693474  -60.346317  -25.728371  0
-8.443474  -60.596317  -25.728371  0
-8.943474  -60.346317  -25.478371  0
-9.443474  -60.346317  -25.478371  0
-7.193474  -60.846317  -25.728371  0
-7.443474  -61.096317  -25.728371  0
-7.443474  -60.846317  -25.478371  0
-8.193474  -60.846317  -25.728371  0
-7.943474  -61.096317  -25.728371  0
-8.443474  -60.846317  -25.478371  0
-8.943474  -60.846317  -25.478371  0
-8.443474  -54.596317  -25.228371  0
-8.943474  -54.596317  -25.228371  0
-9.443474  -54.596317  -25.228371  0
-8.193474  -54.846317  -25.228371  0
-7.943474  -55.096317  -25.228371  0
-8.443474  -54.846317  -24.978371  0
-9.693474  -54.846317  -25.228371  0
-9.943474  -55.096317  -25.228371  0
-7.693474  -55.346317  -25.228371  0
-7.943474  -55.346317  -24.978371  0
-10.193474  -55.346317  -25.228371  0
-7.693474  -55.846317  -25.228371  0
-7.443474  -56.096317  -25.228371  0
-10.193474  -55.846317  -25.228371  0
-10.443474  -56.096317  -25.228371  0
-10.443474  -55.846317  -24.978371  0
-7.193474  -56.346317  -25.228371  0
-6.943474  -56.596317  -25.228371  0
-7.443474  -56.346317  -24.978371  0
-10.693474  -56.346317  -25.228371  0
-6.693474  -56.846317  -25.228371  0
-6.943474  -56.846317  -24.978371  0
-7.443474  -56.846317  -24.978371  0
-10.693474  -56.846317  -25.228371  0
-10.943474  -56.846317  -24.978371  0
-6.693474  -57.346317  -25.228371  0
-6.943474  -57.346317  -24.978371  0
-10.693474  -57.346317  -25.228371  0
-10.943474  -57.346317  -24.978371  0
-6.693474  -57.846317  -25.228371  0
-6.943474  -57.846317  -24.978371  0
-10.693474  -57.846317  -25.228371  0
-10.943474  -57.846317  -24.978371  0
-6.693474  -58.346317  -25.228371  0
-6.943474  -58.346317  -24.978371  0
-10.693474  -58.346317  -25.228371  0
-10.943474  -58.346317  -24.978371  0
-6.693474  -58.846317  -25.228371  0
-6.943474  -58.846317  -24.978371  0
-10.693474  -58.846317  -25.228371  0
-10.943474  -58.846317  -24.978371  0
-6.693474  -59.346317  -25.228371  0
-6.943474  -59.596317  -25.228371  0
-6.943474  -59.346317  -24.978371  0
-10.693474  -59.346317  -25.228371  0
-10.443474  -59.596317  -25.228371  0
-7.193474  -59.846317  -25.228371  0
-7.443474  -59.846317  -24.978371  0
-10.193474  -59.846317  -25.228371  0
-9.943474  -60.096317  -25.228371  0
-10.443474  -59.846317  -24.978371  0
-7.193474  -60.346317  -25.228371  0
-7.443474  -60.596317  -25.228371  0
-7.443474  -60.346317  -24.978371  0
-9.693474  -60.346317  -25.228371  0
-9.443474  -60.596317  -25.228371  0
-9.943474  -60.346317  -24.978371  0
-7.693474  -60.846317  -25.228371  0
-7.943474  -61.096317  -25.228371  0
-7.943474  -60.846317  -24.978371  0
-8.443474  -61.096317  -25.228371  0
-9.193474  -60.846317  -25.228371  0
-8.943474  -61.096317  -25.228371  0
-8.943474  -54.596317  -24.728371  0
-9.443474  -54.596317  -24.728371  0
-8.693474  -54.846317  -24.728371  0
-8.443474  -55.096317  -24.728371  0
-8.943474  -54.846317  -24.478371  0
-9.693474  -54.846317  -24.728371  0
-9.943474  -55.096317  -24.728371  0
-9.943474  -54.846317  -24.478371  0
-10.443474  -54.846317  -24.478371  0
-8.193474  -55.346317  -24.728371  0
-7.943474  -55.596317  -24.728371  0
-8.443474  -55.346317  -24.478371  0
-10.193474  -55.346317  -24.728371  0
-10.443474  -55.596317  -24.728371  0
-10.443474  -55.346317  -24.478371  0
-7.693474  -55.846317  -24.728371  0
-7.943474  -55.846317  -24.478371  0
-8.443474  -55.846317  -24.478371  0
-10.693474  -55.846317  -24.728371  0
-10.943474  -55.846317  -24.478371  0
-7.693474  -56.346317  -24.728371  0
-7.943474  -56.346317  -24.478371  0
-8.443474  -56.346317  -24.478371  0
-10.693474  -56.346317  -24.728371  0
-10.943474  -56.596317  -24.728371  0
-10.943474  -56.346317  -24.478371  0
-7.693474  -56.846317  -24.728371  0
-7.443474  -57.096317  -24.728371  0
-7.943474  -56.846317  -24.478371  0
-11.193474  -56.846317  -24.728371  0
-11.443474  -56.846317  -24.478371  0
-11.943474  -56.846317  -24.478371  0
-7.193474  -57.346317  -24.728371  0
-7.443474  -57.346317  -24.478371  0
-11.193474  -57.346317  -24.728371  0
-11.443474  -57.346317  -24.478371  0
-11.943474  -57.346317  -24.478371  0
-7.193474  -57.846317  -24.728371  0
-7.443474  -57.846317  -24.478371  0
-11.193474  -57.846317  -24.728371  0
-11.443474  -57.846317  -24.478371  0
-11.943474  -57.846317  -24.478371  0
-7.193474  -58.346317  -24.728371  0
-7.443474  -58.346317  -24.478371  0
-11.193474  -58.346317  -24.728371  0
-11.443474  -58.346317  -24.478371  0
-7.193474  -58.846317  -24.728371  0
-7.443474  -58.846317  -24.478371  0
-11.193474  -58.846317  -24.728371  0
-10.943474  -59.096317  -24.728371  0
-11.443474  -58.846317  -24.478371  0
-7.193474  -59.346317  -24.728371  0
-7.443474  -59.596317  -24.728371  0
-7.443474  -59.346317  -24.478371  0
-7.943474  -59.346317  -24.478371  0
-10.693474  -59.346317  -24.728371  0
-10.943474  -59.346317  -24.478371  0
-7.693474  -59.846317  -24.728371  0
-7.943474  -59.846317  -24.478371  0
-10.693474  -59.846317  -24.728371  0
-10.443474  -60.096317  -24.728371  0
-7.693474  -60.346317  -24.728371  0
-7.943474  -60.596317  -24.728371  0
-7.943474  -60.346317  -24.478371  0
-9.443474  -60.596317  -24.728371  0
-10.193474  -60.346317  -24.728371  0
-9.943474  -60.596317  -24.728371  0
-10.443474  -60.346317  -24.478371  0
-8.193474  -60.846317  -24.728371  0
-8.443474  -61.096317  -24.728371  0
-8.443474  -60.846317  -24.478371  0
-9.193474  -60.846317  -24.728371  0
-8.943474  -61.096317  -24.728371  0
-8.943474  -60.846317  -24.478371  0
-9.443474  -60.846317  -24.478371  0
-9.443474  -54.596317  -24.228371  0
-9.943474  -54.596317  -24.228371  0
-10.443474  -54.596317  -24.228371  0
-9.193474  -54.846317  -24.228371  0
-8.943474  -55.096317  -24.228371  0
-9.443474  -54.846317  -23.978371  0
-9.943474  -54.846317  -23.978371  0
-10.693474  -54.846317  -24.228371  0
-10.443474  -54.846317  -23.978371  0
-8.693474  -55.346317  -24.228371  0
-8.943474  -55.346317  -23.978371  0
-9.443474  -55.346317  -23.978371  0
-9.943474  -55.346317  -23.978371  0
-10.693474  -55.346317  -24.228371  0
-10.443474  -55.346317  -23.978371  0
-10.943474  -55.596317  -24.228371  0
-8.693474  -55.846317  -24.228371  0
-8.943474  -55.846317  -23.978371  0
-9.443474  -55.846317  -23.978371  0
-9.943474  -55.846317  -23.978371  0
-10.443474  -55.846317  -23.978371  0
-11.193474  -55.846317  -24.228371  0
-10.943474  -55.846317  -23.978371  0
-8.693474  -56.346317  -24.228371  0
-8.443474  -56.596317  -24.228371  0
-8.943474  -56.346317  -23.978371  0
-9.443474  -56.346317  -23.978371  0
-11.193474  -56.346317  -24.228371  0
-11.443474  -56.596317  -24.228371  0
-11.943474  -56.596317  -24.228371  0
-8.193474  -56.846317  -24.228371  0
-7.943474  -57.096317  -24.228371  0
-8.443474  -56.846317  -23.978371  0
-8.943474  -56.846317  -23.978371  0
-12.193474  -56.846317  -24.228371  0
-7.693474  -57.346317  -24.228371  0
-7.943474  -57.346317  -23.978371  0
-12.193474  -57.346317  -24.228371  0
-7.693474  -57.846317  -24.228371  0
-12.193474  -57.846317  -24.228371  0
-11.943474  -58.096317  -24.228371  0
-7.693474  -58.346317  -24.228371  0
-7.943474  -58.346317  -23.978371  0
-11.693474  -58.346317  -24.228371  0
-11.943474  -58.346317  -23.978371  0
-7.693474  -58.846317  -24.228371  0
-7.943474  -59.096317  -24.228371  0
-7.943474  -58.846317  -23.978371  0
-11.693474  -58.846317  -24.228371  0
-11.443474  -59.096317  -24.228371  0
-8.193474  -59.346317  -24.228371  0
-8.443474  -59.346317  -23.978371  0
-8.943474  -59.346317  -23.978371  0
-11.193474  -59.346317  -24.228371  0
-10.943474  -59.596317  -24.228371  0
-11.443474  -59.346317  -23.978371  0
-8.193474  -59.846317  -24.228371  0
-8.443474  -59.846317  -23.978371  0
-8.943474  -59.846317  -23.978371  0
-10.693474  -59.846317  -24.228371  0
-10.943474  -59.846317  -23.978371  0
-8.193474  -60.346317  -24.228371  0
-8.443474  -60.596317  -24.228371  0
-8.443474  -60.346317  -23.978371  0
-8.943474  -60.596317  -24.228371  0
-8.943474  -60.346317  -23.978371  0
-9.943474  -60.596317  -24.228371  0
-10.693474  -60.346317  -24.228371  0
-10.443474  -60.596317  -24.228371  0
-9.193474  -60.846317  -24.228371  0
-9.693474  -60.846317  -24.228371  0
-9.443474  -61.096317  -24.228371  0
-9.443474  -60.846317  -23.978371  0
-9.943474  -56.096317  -23.728371  0
-10.443474  -56.096317  -23.728371  0
-10.943474  -56.096317  -23.728371  0
-9.693474  -56.346317  -23.728371  0
-9.443474  -56.596317  -23.728371  0
-9.943474  -56.346317  -23.478371  0
-10.443474  -56.346317  -23.478371  0
-11.193474  -56.346317  -23.728371  0
-11.443474  -56.596317  -23.728371  0
-11.943474  -56.596317  -23.728371  0
-8.443474  -57.096317  -23.728371  0
-9.193474  -56.846317  -23.728371  0
-8.943474  -57.096317  -23.728371  0
-9.443474  -56.846317  -23.478371  0
-9.943474  -56.846317  -23.478371  0
-12.193474  -56.846317  -23.728371  0
-12.443474  -56.846317  -23.478371  0
-8.193474  -57.346317  -23.728371  0
-7.943474  -57.596317  -23.728371  0
-8.443474  -57.346317  -23.478371  0
-8.943474  -57.346317  -23.478371  0
-12.193474  -57.346317  -23.728371  0
-12.443474  -57.346317  -23.478371  0
-7.693474  -57.846317  -23.728371  0
-7.943474  -58.096317  -23.728371  0
-7.943474  -57.846317  -23.478371  0
-8.443474  -57.846317  -23.478371  0
-8.943474  -57.846317  -23.478371  0
-12.193474  -57.846317  -23.728371  0
-12.443474  -57.846317  -23.478371  0
-8.193474  -58.346317  -23.728371  0
-8.443474  -58.346317  -23.478371  0
-8.943474  -58.346317  -23.478371  0
-12.193474  -58.346317  -23.728371  0
-11.943474  -58.596317  -23.728371  0
-8.193474  -58.846317  -23.728371  0
-8.443474  -59.096317  -23.728371  0
-8.443474  -58.846317  -23.478371  0
-8.943474  -59.096317  -23.728371  0
-8.943474  -58.846317  -23.478371  0
-11.693474  -58.846317  -23.728371  0
-11.943474  -58.846317  -23.478371  0
-9.193474  -59.346317  -23.728371  0
-9.443474  -59.346317  -23.478371  0
-11.693474  -59.346317  -23.728371  0
-11.443474  -59.596317  -23.728371  0
-11.943474  -59.346317  -23.478371  0
-9.193474  -59.846317  -23.728371  0
-9.443474  -59.846317  -23.478371  0
-11.193474  -59.846317  -23.728371  0
-10.943474  -60.096317  -23.728371  0
-9.193474  -60.346317  -23.728371  0
-9.443474  -60.596317  -23.728371  0
-9.443474  -60.346317  -23.478371  0
-9.943474  -60.596317  -23.728371  0
-10.693474  -60.346317  -23.728371  0
-10.443474  -60.596317  -23.728371  0
-10.943474  -56.096317  -23.228371  0
-10.693474  -56.346317  -23.228371  0
-10.443474  -56.596317  -23.228371  0
-11.193474  -56.346317  -23.228371  0
-10.943474  -56.346317  -22.978371  0
-11.443474  -56.596317  -23.228371  0
-11.943474  -56.596317  -23.228371  0
-12.443474  -56.596317  -23.228371  0
-9.443474  -57.096317  -23.228371  0
-10.193474  -56.846317  -23.228371  0
-9.943474  -57.096317  -23.228371  0
-10.443474  -56.846317  -22.978371  0
-10.943474  -56.846317  -22.978371  0
-11.443474  -56.846317  -22.978371  0
-11.943474  -56.846317  -22.978371  0
-12.693474  -56.846317  -23.228371  0
-12.443474  -56.846317  -22.978371  0
-9.193474  -57.346317  -23.228371  0
-9.443474  -57.346317  -22.978371  0
-9.943474  -57.346317  -22.978371  0
-10.443474  -57.346317  -22.978371  0
-10.943474  -57.346317  -22.978371  0
-12.693474  -57.346317  -23.228371  0
-9.193474  -57.846317  -23.228371  0
-9.443474  -57.846317  -22.978371  0
-9.943474  -57.846317  -22.978371  0
-12.693474  -57.846317  -23.228371  0
-12.443474  -58.096317  -23.228371  0
-12.943474  -57.846317  -22.978371  0
-13.443474  -57.846317  -22.978371  0
-9.193474  -58.346317  -23.228371  0
-9.443474  -58.346317  -22.978371  0
-9.943474  -58.346317  -22.978371  0
-12.193474  -58.346317  -23.228371  0
-12.443474  -58.346317  -22.978371  0
-9.193474  -58.846317  -23.228371  0
-9.443474  -59.096317  -23.228371  0
-9.443474  -58.846317  -22.978371  0
-9.943474  -58.846317  -22.978371  0
-10.443474  -58.846317  -22.978371  0
-10.943474  -58.846317  -22.978371  0
-12.193474  -58.846317  -23.228371  0
-9.693474  -59.346317  -23.228371  0
-9.943474  -59.346317  -22.978371  0
-10.443474  -59.346317  -22.978371  0
-10.943474  -59.346317  -22.978371  0
-11.443474  -59.596317  -23.228371  0
-12.193474  -59.346317  -23.228371  0
-11.943474  -59.596317  -23.228371  0
-9.693474  -59.846317  -23.228371  0
-9.943474  -59.846317  -22.978371  0
-10.443474  -59.846317  -22.978371  0
-11.193474  -59.846317  -23.228371  0
-10.943474  -60.096317  -23.228371  0
-10.943474  -59.846317  -22.978371  0
-9.693474  -60.346317  -23.228371  0
-9.943474  -60.596317  -23.228371  0
-9.943474  -60.346317  -22.978371  0
-10.693474  -60.346317  -23.228371  0
-10.443474  -60.596317  -23.228371  0
-10.443474  -60.346317  -22.978371  0
-11.443474  -57.096317  -22.728371  0
-11.943474  -57.096317  -22.728371  0
-12.443474  -57.096317  -22.728371  0
-10.443474  -57.596317  -22.728371  0
-11.193474  -57.346317  -22.728371  0
-10.943474  -57.596317  -22.728371  0
-11.443474  -57.346317  -22.478371  0
-11.943474  -57.346317  -22.478371  0
-12.693474  -57.346317  -22.728371  0
-12.443474  -57.346317  -22.478371  0
-12.943474  -57.596317  -22.728371  0
-13.443474  -57.596317  -22.728371  0
-10.193474  -57.846317  -22.728371  0
-10.443474  -57.846317  -22.478371  0
-10.943474  -57.846317  -22.478371  0
-11.443474  -57.846317  -22.478371  0
-12.943474  -58.096317  -22.728371  0
-13.693474  -57.846317  -22.728371  0
-13.443474  -58.096317  -22.728371  0
-10.193474  -58.346317  -22.728371  0
-10.443474  -58.596317  -22.728371  0
-10.443474  -58.346317  -22.478371  0
-10.943474  -58.596317  -22.728371  0
-10.943474  -58.346317  -22.478371  0
-11.443474  -58.346317  -22.478371  0
-11.943474  -58.346317  -22.478371  0
-12.693474  -58.346317  -22.728371  0
-12.443474  -58.596317  -22.728371  0
-12.443474  -58.346317  -22.478371  0
-11.193474  -58.846317  -22.728371  0
-11.443474  -58.846317  -22.478371  0
-12.193474  -58.846317  -22.728371  0
-11.943474  -58.846317  -22.478371  0
-11.193474  -59.346317  -22.728371  0
-11.443474  -59.596317  -22.728371  0
-11.443474  -59.346317  -22.478371  0
-12.193474  -59.346317  -22.728371  0
-11.943474  -59.596317  -22.728371  0
-11.943474  -59.346317  -22.478371  0
-11.943474  -57.596317  -22.228371  0
-12.443474  -57.596317  -22.228371  0
-12.943474  -57.596317  -22.228371  0
-13.443474  -57.596317  -22.228371  0
-11.693474  -57.846317  -22.228371  0
-11.943474  -58.096317  -22.228371  0
-11.943474  -57.846317  -21.978371  0
-12.443474  -58.096317  -22.228371  0
-12.443474  -57.846317  -21.978371  0
-12.943474  -58.096317  -22.228371  0
-12.943474  -57.846317  -21.978371  0
-13.693474  -57.846317  -22.228371  0
-13.443474  -58.096317  -22.228371  0
-13.443474  -57.846317  -21.978371  0
16 24 0 0
1 18 0 0
0 18 16 0
2 20 1 0
1 20 18 0
2 26 20 0
0 24 3 0
3 24 31 0
25 1 32 0
1 3 32 0
1 0 3 0
1 25 2 0
2 25 27 0
2 27 26 0
31 33 3 0
3 41 33 0
3 4 41 0
3 32 34 0
4 3 34 0
5 36 4 0
4 36 34 0
5 43 36 0
41 42 4 0
4 42 5 0
5 42 44 0
5 44 43 0
56 65 6 0
7 57 6 0
6 57 56 0
8 58 7 0
7 58 57 0
9 59 8 0
8 59 58 0
10 61 9 0
9 61 59 0
10 66 61 0
6 65 11 0
11 65 69 0
6 12 7 0
6 11 12 0
7 13 8 0
7 12 13 0
8 14 9 0
8 13 14 0
9 15 10 0
9 14 15 0
66 10 71 0
71 10 15 0
11 69 17 0
17 69 74 0
11 19 12 0
11 17 19 0
12 21 13 0
12 19 21 0
13 22 14 0
13 21 22 0
14 23 15 0
14 22 23 0
71 15 75 0
75 15 23 0
17 74 16 0
74 24 16 0
74 79 24 0
17 16 18 0
17 18 19 0
19 18 20 0
19 20 21 0
21 20 26 0
28 21 26 0
22 21 28 0
22 29 23 0
22 28 29 0
75 23 76 0
23 30 76 0
23 29 30 0
30 80 76 0
79 31 24 0
82 31 79 0
32 35 25 0
37 27 25 0
37 25 35 0
28 26 27 0
37 28 27 0
38 28 37 0
28 39 29 0
28 38 39 0
29 40 30 0
29 39 40 0
80 30 84 0
84 30 40 0
82 83 31 0
31 83 33 0
83 32 33 0
35 83 32 0
86 35 83 0
34 86 35 0
41 34 86 0
35 34 36 0
35 36 37 0
37 36 43 0
45 37 43 0
38 37 45 0
38 46 39 0
38 45 46 0
39 47 40 0
39 46 47 0
84 40 87 0
87 40 47 0
42 41 48 0
41 89 48 0
41 86 89 0
49 44 42 0
49 42 48 0
45 43 44 0
49 45 44 0
50 45 49 0
45 51 46 0
45 50 51 0
46 52 47 0
46 51 52 0
87 47 91 0
91 47 52 0
48 89 53 0
53 89 94 0
48 54 49 0
48 53 54 0
49 55 50 0
49 54 55 0
90 51 97 0
51 55 97 0
51 50 55 0
51 90 52 0
52 90 92 0
52 92 91 0
94 95 53 0
53 95 54 0
54 95 96 0
54 96 55 0
55 96 98 0
55 98 97 0
104 113 60 0
62 105 60 0
60 105 104 0
63 107 62 0
62 107 105 0
64 109 63 0
63 109 107 0
64 115 109 0
111 117 56 0
56 117 65 0
112 56 57 0
112 111 56 0
114 57 58 0
114 112 57 0
59 60 113 0
114 59 113 0
58 59 114 0
60 59 61 0
60 61 62 0
62 61 66 0
67 62 66 0
63 62 67 0
63 68 64 0
63 67 68 0
115 64 121 0
121 64 68 0
70 69 118 0
69 117 118 0
69 65 117 0
123 70 118 0
71 72 67 0
71 67 66 0
67 73 68 0
67 72 73 0
121 68 125 0
125 68 73 0
124 127 70 0
127 69 70 0
127 74 69 0
124 70 123 0
75 77 72 0
75 72 71 0
72 78 73 0
72 77 78 0
125 73 129 0
129 73 78 0
127 79 74 0
132 79 127 0
76 77 75 0
77 76 80 0
81 77 80 0
78 77 81 0
129 78 133 0
133 78 81 0
132 82 79 0
136 82 132 0
84 85 81 0
84 81 80 0
133 81 139 0
139 81 85 0
136 137 82 0
82 137 83 0
86 83 137 0
86 137 142 0
87 88 85 0
87 85 84 0
139 85 143 0
143 85 88 0
142 89 86 0
145 89 142 0
91 93 88 0
91 88 87 0
143 88 146 0
146 88 93 0
145 94 89 0
149 94 145 0
97 99 90 0
100 92 90 0
100 90 99 0
100 152 92 0
92 152 91 0
152 147 91 0
147 93 91 0
93 147 146 0
149 150 94 0
94 150 95 0
150 155 101 0
96 150 101 0
95 150 96 0
102 98 96 0
102 96 101 0
99 97 98 0
102 99 98 0
103 99 102 0
153 100 158 0
100 103 158 0
100 99 103 0
100 153 152 0
155 156 101 0
101 156 102 0
102 156 157 0
102 157 103 0
103 157 159 0
103 159 158 0
163 169 106 0
108 164 106 0
106 164 163 0
110 166 108 0
108 166 164 0
110 171 166 0
170 175 104 0
104 175 113 0
105 106 169 0
170 105 169 0
104 105 170 0
106 105 107 0
106 107 108 0
108 107 109 0
108 109 110 0
116 172 115 0
115 172 109 0
172 171 109 0
171 110 109 0
116 178 172 0
119 117 111 0
112 120 111 0
111 120 119 0
120 112 180 0
112 176 180 0
112 114 176 0
114 113 175 0
114 175 176 0
121 122 116 0
121 116 115 0
178 116 183 0
183 116 122 0
119 118 117 0
119 120 181 0
123 119 181 0
186 123 181 0
119 123 118 0
181 120 180 0
125 126 122 0
125 122 121 0
183 122 188 0
188 122 126 0
128 127 124 0
192 128 124 0
123 192 124 0
186 192 123 0
129 130 126 0
129 126 125 0
188 126 189 0
126 131 189 0
126 130 131 0
131 195 189 0
193 197 128 0
197 127 128 0
197 132 127 0
193 128 192 0
133 134 130 0
133 130 129 0
130 135 131 0
130 134 135 0
195 131 201 0
201 131 135 0
138 136 198 0
136 197 198 0
136 132 197 0
203 138 198 0
139 140 134 0
139 134 133 0
134 141 135 0
134 140 141 0
201 135 205 0
205 135 141 0
138 137 136 0
142 137 138 0
203 142 138 0
208 142 203 0
143 144 140 0
143 140 139 0
206 141 210 0
141 144 210 0
141 140 144 0
141 206 205 0
208 145 142 0
213 145 208 0
146 148 144 0
146 144 143 0
210 144 216 0
216 144 148 0
151 149 214 0
149 213 214 0
149 145 213 0
220 151 214 0
152 154 147 0
154 222 147 0
147 222 146 0
222 217 146 0
217 148 146 0
148 217 216 0
151 150 149 0
155 150 151 0
220 155 151 0
226 155 220 0
158 160 153 0
160 229 153 0
153 229 152 0
229 223 152 0
223 154 152 0
154 223 222 0
226 227 155 0
155 227 156 0
227 233 161 0
157 227 161 0
156 227 157 0
162 159 157 0
162 157 161 0
162 236 159 0
159 236 158 0
236 230 158 0
230 160 158 0
160 230 229 0
233 234 161 0
161 234 162 0
162 234 237 0
162 237 236 0
240 243 165 0
167 241 165 0
165 241 240 0
168 242 167 0
167 242 241 0
168 246 242 0
244 248 163 0
163 248 169 0
164 165 243 0
244 164 243 0
163 164 244 0
165 164 166 0
165 166 167 0
167 166 171 0
173 167 171 0
168 167 173 0
246 168 247 0
168 174 247 0
168 173 174 0
174 250 247 0
177 175 170 0
251 177 170 0
169 251 170 0
248 251 169 0
172 173 171 0
173 172 178 0
179 173 178 0
174 173 179 0
250 174 253 0
253 174 179 0
182 180 176 0
256 182 176 0
256 176 175 0
252 256 175 0
177 252 175 0
252 177 251 0
183 184 179 0
183 179 178 0
253 179 254 0
179 185 254 0
179 184 185 0
185 259 254 0
187 186 181 0
260 187 181 0
260 181 180 0
257 260 180 0
182 257 180 0
257 182 256 0
188 190 184 0
188 184 183 0
184 191 185 0
184 190 191 0
259 185 263 0
263 185 191 0
194 192 187 0
187 192 186 0
187 260 265 0
187 265 194 0
189 190 188 0
190 189 195 0
196 190 195 0
191 190 196 0
263 191 267 0
267 191 196 0
199 197 193 0
192 194 193 0
194 199 193 0
194 200 199 0
194 265 269 0
194 269 200 0
201 202 196 0
201 196 195 0
267 196 271 0
271 196 202 0
199 198 197 0
198 199 203 0
199 204 203 0
199 200 204 0
200 269 273 0
200 273 204 0
205 207 202 0
205 202 201 0
271 202 275 0
275 202 207 0
209 208 204 0
204 208 203 0
204 273 277 0
204 277 209 0
210 211 206 0
207 205 206 0
211 207 206 0
212 207 211 0
275 207 279 0
279 207 212 0
215 213 209 0
209 213 208 0
209 277 281 0
209 281 215 0
216 218 211 0
216 211 210 0
211 219 212 0
211 218 219 0
279 212 284 0
284 212 219 0
215 214 213 0
282 221 220 0
282 220 214 0
281 282 214 0
215 281 214 0
286 221 282 0
222 224 217 0
218 216 217 0
224 218 217 0
225 218 224 0
285 219 288 0
219 225 288 0
219 218 225 0
219 285 284 0
228 226 221 0
221 226 220 0
221 286 291 0
221 291 228 0
229 231 223 0
224 222 223 0
231 224 223 0
232 224 231 0
289 225 294 0
225 232 294 0
225 224 232 0
225 289 288 0
228 227 226 0
292 235 233 0
292 233 227 0
291 292 227 0
228 291 227 0
297 235 292 0
236 238 230 0
231 229 230 0
238 231 230 0
239 231 238 0
295 232 301 0
232 239 301 0
232 231 239 0
232 295 294 0
235 234 233 0
297 298 235 0
298 234 235 0
298 237 234 0
236 237 238 0
237 300 238 0
237 298 300 0
238 300 239 0
239 300 302 0
239 302 301 0
245 243 240 0
245 240 305 0
240 303 305 0
240 241 303 0
304 241 242 0
304 303 241 0
242 246 304 0
304 246 308 0
249 248 244 0
312 249 244 0
312 244 243 0
306 312 243 0
245 306 243 0
306 245 305 0
309 308 246 0
309 246 247 0
247 250 309 0
309 250 315 0
313 318 249 0
318 248 249 0
318 251 248 0
313 249 312 0
253 255 316 0
315 253 316 0
250 253 315 0
255 321 316 0
258 256 252 0
323 258 252 0
251 323 252 0
318 323 251 0
254 255 253 0
254 259 255 0
259 321 255 0
259 326 321 0
261 260 257 0
256 258 257 0
258 261 257 0
258 262 261 0
258 323 329 0
258 329 262 0
263 264 327 0
326 263 327 0
259 263 326 0
264 332 327 0
266 265 261 0
261 265 260 0
262 330 335 0
266 262 335 0
261 262 266 0
330 262 329 0
267 268 264 0
267 264 263 0
332 264 337 0
337 264 268 0
270 269 266 0
266 269 265 0
266 335 340 0
266 340 270 0
271 272 268 0
271 268 267 0
337 268 342 0
342 268 272 0
274 273 270 0
270 273 269 0
270 340 345 0
270 345 274 0
275 276 272 0
275 272 271 0
342 272 347 0
347 272 276 0
278 277 274 0
274 277 273 0
274 345 349 0
274 349 278 0
279 280 276 0
279 276 275 0
347 276 351 0
351 276 280 0
283 281 278 0
278 281 277 0
278 349 354 0
278 354 283 0
358 352 280 0
279 358 280 0
284 358 279 0
280 352 351 0
283 282 281 0
355 287 286 0
355 286 282 0
354 355 282 0
283 354 282 0
360 287 355 0
288 290 285 0
290 362 285 0
362 284 285 0
362 358 284 0
293 291 287 0
287 291 286 0
287 360 364 0
287 364 293 0
294 296 289 0
296 368 289 0
289 368 288 0
368 363 288 0
363 290 288 0
290 363 362 0
293 292 291 0
365 299 297 0
365 297 292 0
364 365 292 0
293 364 292 0
371 299 365 0
374 367 295 0
374 295 301 0
294 295 296 0
295 369 296 0
295 367 369 0
296 369 368 0
299 298 297 0
371 372 299 0
372 298 299 0
372 300 298 0
300 375 302 0
372 375 300 0
301 302 374 0
374 302 375 0
307 305 303 0
307 303 381 0
303 378 381 0
303 304 378 0
310 379 308 0
379 304 308 0
379 378 304 0
311 380 310 0
310 380 379 0
311 385 380 0
314 312 306 0
387 314 306 0
387 306 305 0
382 387 305 0
307 382 305 0
382 307 381 0
309 310 308 0
310 309 315 0
317 310 315 0
311 310 317 0
385 311 391 0
391 311 317 0
319 318 313 0
312 314 313 0
314 319 313 0
314 320 319 0
314 387 394 0
314 394 320 0
316 317 315 0
322 393 321 0
321 393 316 0
393 391 316 0
391 317 316 0
322 399 393 0
324 323 319 0
319 323 318 0
325 319 320 0
324 319 325 0
320 394 401 0
320 401 325 0
326 328 322 0
326 322 321 0
399 322 405 0
405 322 328 0
331 329 324 0
324 329 323 0
325 402 408 0
331 325 408 0
324 325 331 0
402 325 401 0
327 328 326 0
333 406 332 0
332 406 327 0
406 405 327 0
405 328 327 0
334 407 333 0
333 407 406 0
334 412 407 0
336 335 330 0
413 336 330 0
413 330 329 0
409 413 329 0
331 409 329 0
409 331 408 0
337 338 333 0
337 333 332 0
333 339 334 0
333 338 339 0
412 334 415 0
415 334 339 0
341 340 336 0
336 340 335 0
336 413 416 0
336 416 341 0
342 343 338 0
342 338 337 0
338 344 339 0
338 343 344 0
415 339 417 0
417 339 344 0
346 345 341 0
341 345 340 0
341 416 419 0
341 419 346 0
347 348 343 0
347 343 342 0
418 344 421 0
344 348 421 0
344 343 348 0
344 418 417 0
350 349 346 0
346 349 345 0
346 419 423 0
346 423 350 0
351 353 348 0
351 348 347 0
421 348 426 0
426 348 353 0
356 354 350 0
350 354 349 0
350 423 424 0
357 350 424 0
356 350 357 0
428 357 424 0
358 359 352 0
359 431 352 0
352 431 351 0
431 427 351 0
427 353 351 0
353 427 426 0
356 355 354 0
355 356 360 0
356 361 360 0
356 357 361 0
357 428 434 0
357 434 361 0
437 432 359 0
358 437 359 0
362 437 358 0
359 432 431 0
366 364 361 0
361 364 360 0
361 434 439 0
361 439 366 0
368 370 363 0
370 445 363 0
445 362 363 0
445 437 362 0
366 365 364 0
440 373 371 0
440 371 365 0
439 440 365 0
366 439 365 0
442 376 373 0
442 373 440 0
442 374 376 0
442 367 374 0
442 447 377 0
367 442 377 0
367 377 448 0
444 367 448 0
369 367 444 0
368 369 370 0
369 446 370 0
369 444 446 0
370 446 445 0
373 372 371 0
372 373 375 0
375 373 376 0
375 447 376 0
375 449 447 0
375 374 377 0
449 375 377 0
377 449 448 0
383 381 378 0
379 384 378 0
378 384 383 0
380 386 379 0
379 386 384 0
385 386 380 0
388 387 382 0
381 383 382 0
383 388 382 0
383 389 388 0
390 383 384 0
389 383 390 0
392 384 386 0
390 384 392 0
391 392 385 0
385 392 386 0
395 394 388 0
388 394 387 0
396 388 389 0
395 388 396 0
397 389 390 0
396 389 397 0
398 390 392 0
397 390 398 0
393 400 391 0
400 392 391 0
400 398 392 0
399 400 393 0
403 401 395 0
395 401 394 0
404 395 396 0
403 395 404 0
397 451 454 0
404 397 454 0
396 397 404 0
451 397 398 0
451 398 452 0
452 398 400 0
452 400 453 0
400 399 453 0
399 458 453 0
399 405 458 0
410 408 402 0
401 403 402 0
403 410 402 0
403 411 410 0
404 455 462 0
411 404 462 0
403 404 411 0
455 404 454 0
459 458 405 0
459 405 406 0
460 406 407 0
460 459 406 0
407 412 460 0
460 412 466 0
414 413 409 0
468 414 409 0
468 409 408 0
461 468 408 0
410 461 408 0
461 410 411 0
461 411 463 0
463 411 462 0
415 466 412 0
415 472 466 0
469 474 414 0
474 413 414 0
474 416 413 0
469 414 468 0
417 472 415 0
417 479 472 0
420 419 475 0
419 474 475 0
419 416 474 0
481 420 475 0
421 422 418 0
422 484 418 0
484 417 418 0
484 479 417 0
425 423 420 0
420 423 419 0
420 481 486 0
420 486 425 0
491 485 422 0
421 491 422 0
426 491 421 0
422 485 484 0
425 424 423 0
487 429 428 0
487 428 424 0
486 487 424 0
425 486 424 0
489 430 429 0
489 429 487 0
493 430 489 0
431 433 427 0
433 495 427 0
495 426 427 0
495 491 426 0
435 434 429 0
429 434 428 0
436 429 430 0
435 429 436 0
430 493 498 0
430 498 436 0
437 438 432 0
438 500 432 0
432 500 431 0
500 496 431 0
496 433 431 0
433 496 495 0
441 439 435 0
435 439 434 0
443 435 436 0
441 435 443 0
436 498 502 0
436 502 443 0
506 501 438 0
437 506 438 0
445 506 437 0
438 501 500 0
441 440 439 0
440 441 442 0
442 441 443 0
503 450 447 0
503 447 442 0
502 503 442 0
443 502 442 0
444 448 450 0
503 444 450 0
505 444 503 0
444 507 446 0
505 507 444 0
445 446 506 0
506 446 507 0
450 449 447 0
449 450 448 0
456 454 451 0
452 457 451 0
451 457 456 0
457 452 509 0
452 508 509 0
452 453 508 0
453 458 508 0
508 458 511 0
464 462 455 0
454 456 455 0
456 464 455 0
456 465 464 0
457 510 517 0
465 457 517 0
456 457 465 0
510 457 509 0
513 511 458 0
513 458 459 0
514 459 460 0
514 513 459 0
467 515 466 0
515 460 466 0
515 514 460 0
467 523 515 0
470 468 461 0
463 471 461 0
461 471 470 0
525 471 463 0
525 463 462 0
516 525 462 0
464 516 462 0
516 464 465 0
516 465 518 0
518 465 517 0
472 473 467 0
472 467 466 0
523 467 530 0
530 467 473 0
476 474 469 0
468 470 469 0
470 476 469 0
470 477 476 0
478 470 471 0
477 470 478 0
471 525 531 0
471 531 478 0
479 480 473 0
479 473 472 0
530 473 534 0
534 473 480 0
476 475 474 0
475 476 481 0
476 482 481 0
476 477 482 0
483 477 478 0
482 477 483 0
478 531 538 0
478 538 483 0
541 535 480 0
479 541 480 0
484 541 479 0
480 535 534 0
488 486 482 0
482 486 481 0
490 482 483 0
488 482 490 0
483 538 543 0
483 543 490 0
491 492 485 0
492 549 485 0
549 484 485 0
549 541 484 0
488 487 486 0
487 488 489 0
489 488 490 0
544 494 493 0
544 493 489 0
543 544 489 0
490 543 489 0
550 494 544 0
495 497 492 0
495 492 491 0
549 492 555 0
555 492 497 0
499 498 494 0
494 498 493 0
494 550 557 0
494 557 499 0
560 554 496 0
560 496 500 0
495 496 497 0
496 556 497 0
496 554 556 0
497 556 555 0
504 502 499 0
499 502 498 0
499 557 563 0
499 563 504 0
566 561 501 0
566 501 506 0
500 501 560 0
560 501 561 0
504 503 502 0
563 564 504 0
564 503 504 0
564 505 503 0
505 567 507 0
564 567 505 0
506 507 566 0
566 507 567 0
512 509 508 0
511 512 508 0
519 517 510 0
509 512 510 0
512 519 510 0
512 520 519 0
513 521 511 0
521 512 511 0
521 520 512 0
514 522 513 0
513 522 521 0
515 524 514 0
514 524 522 0
523 524 515 0
526 525 516 0
518 527 516 0
516 527 526 0
517 519 518 0
519 527 518 0
519 528 527 0
529 519 520 0
528 519 529 0
521 569 573 0
529 521 573 0
520 521 529 0
569 521 522 0
569 522 570 0
570 522 524 0
570 524 571 0
524 523 571 0
523 577 571 0
523 530 577 0
532 531 526 0
526 531 525 0
533 526 527 0
532 526 533 0
528 572 581 0
533 528 581 0
527 528 533 0
572 528 529 0
572 529 574 0
574 529 573 0
534 536 579 0
577 534 579 0
530 534 577 0
537 580 536 0
536 580 579 0
537 586 580 0
539 538 532 0
532 538 531 0
540 532 533 0
539 532 540 0
533 581 588 0
533 588 540 0
541 542 535 0
542 595 535 0
535 595 534 0
595 585 534 0
585 536 534 0
536 585 537 0
537 585 587 0
537 587 586 0
545 543 539 0
539 543 538 0
546 539 540 0
545 539 546 0
540 588 589 0
547 540 589 0
546 540 547 0
591 548 547 0
591 547 589 0
598 548 591 0
600 596 542 0
541 600 542 0
549 600 541 0
542 596 595 0
545 544 543 0
544 545 550 0
545 551 550 0
545 546 551 0
552 546 547 0
551 546 552 0
553 547 548 0
552 547 553 0
548 598 602 0
548 602 553 0
555 600 549 0
555 605 600 0
558 557 551 0
551 557 550 0
559 551 552 0
558 551 559 0
562 552 553 0
559 552 562 0
603 554 560 0
553 603 560 0
562 553 560 0
603 553 602 0
554 606 556 0
603 606 554 0
555 556 605 0
605 556 606 0
565 563 558 0
558 563 557 0
568 558 559 0
565 558 568 0
566 568 561 0
568 562 561 0
568 559 562 0
561 562 560 0
565 564 563 0
564 565 567 0
567 565 568 0
567 568 566 0
575 573 569 0
570 576 569 0
569 576 575 0
571 578 570 0
570 578 576 0
577 578 571 0
582 581 572 0
574 583 572 0
572 583 582 0
573 575 574 0
575 583 574 0
575 584 583 0
576 608 612 0
584 576 612 0
575 576 584 0
608 576 578 0
608 578 609 0
609 578 577 0
579 609 577 0
610 609 579 0
611 579 580 0
611 610 579 0
580 586 611 0
611 586 619 0
590 588 582 0
582 588 581 0
592 582 583 0
590 582 592 0
593 583 584 0
592 583 593 0
584 612 613 0
594 584 613 0
593 584 594 0
615 597 594 0
615 594 613 0
585 595 597 0
615 585 597 0
617 585 615 0
585 620 587 0
617 620 585 0
586 587 619 0
619 587 620 0
590 589 588 0
589 590 591 0
591 590 592 0
591 592 598 0
592 599 598 0
592 593 599 0
601 593 594 0
599 593 601 0
600 601 596 0
601 597 596 0
601 594 597 0
596 597 595 0
604 602 599 0
599 602 598 0
607 599 601 0
604 599 607 0
605 607 600 0
600 607 601 0
604 603 602 0
603 604 606 0
606 604 607 0
606 607 605 0
614 612 608 0
609 616 608 0
608 616 614 0
610 618 609 0
609 618 616 0
611 621 610 0
610 621 618 0
619 621 611 0
614 613 612 0
613 614 615 0
615 614 616 0
615 616 617 0
617 616 618 0
617 618 620 0
620 618 621 0
620 621 619 0
