#!ascii version in FreeSurfer format (SUMA)
860 1720
-8.693474  -58.846317  -27.228371  0
-8.943474  -58.846317  -26.978371  0
-6.193474  -59.346317  -27.228371  0
-5.943474  -59.346317  -26.978371  0
-7.943474  -59.596317  -27.228371  0
-8.693474  -59.346317  -27.228371  0
-8.443474  -59.596317  -27.228371  0
-8.943474  -59.346317  -26.978371  0
-6.193474  -59.846317  -27.228371  0
-5.943474  -59.846317  -26.978371  0
-6.443474  -60.096317  -27.228371  0
-6.943474  -60.096317  -27.228371  0
-7.693474  -59.846317  -27.228371  0
-7.443474  -60.096317  -27.228371  0
-7.943474  -59.846317  -26.978371  0
-8.443474  -59.846317  -26.978371  0
-6.443474  -60.346317  -26.978371  0
-6.943474  -60.346317  -26.978371  0
-7.443474  -60.346317  -26.978371  0
-7.943474  -60.346317  -26.978371  0
-5.943474  -55.596317  -26.728371  0
-6.443474  -55.596317  -26.728371  0
-6.943474  -55.596317  -26.728371  0
-7.443474  -55.596317  -26.728371  0
-7.443474  -55.346317  -26.478371  0
-7.943474  -55.596317  -26.728371  0
-7.943474  -55.346317  -26.478371  0
-8.443474  -55.596317  -26.728371  0
-8.443474  -55.346317  -26.478371  0
-8.943474  -55.596317  -26.728371  0
-8.943474  -55.346317  -26.478371  0
-5.693474  -55.846317  -26.728371  0
-5.443474  -56.096317  -26.728371  0
-9.193474  -55.846317  -26.728371  0
-9.443474  -55.846317  -26.478371  0
-5.193474  -56.346317  -26.728371  0
-9.193474  -56.346317  -26.728371  0
-9.443474  -56.346317  -26.478371  0
-5.193474  -56.846317  -26.728371  0
-5.443474  -56.846317  -26.478371  0
-9.193474  -56.846317  -26.728371  0
-9.443474  -56.846317  -26.478371  0
-5.193474  -57.346317  -26.728371  0
-9.193474  -57.346317  -26.728371  0
-9.443474  -57.346317  -26.478371  0
-9.943474  -57.346317  -26.478371  0
-5.193474  -57.846317  -26.728371  0
-9.193474  -57.846317  -26.728371  0
-9.443474  -57.846317  -26.478371  0
-9.943474  -57.846317  -26.478371  0
-5.193474  -58.346317  -26.728371  0
-5.443474  -58.596317  -26.728371  0
-9.193474  -58.346317  -26.728371  0
-9.443474  -58.346317  -26.478371  0
-9.943474  -58.346317  -26.478371  0
-5.693474  -58.846317  -26.728371  0
-9.193474  -58.846317  -26.728371  0
-9.443474  -58.846317  -26.478371  0
-5.693474  -59.346317  -26.728371  0
-9.193474  -59.346317  -26.728371  0
-8.943474  -59.596317  -26.728371  0
-9.443474  -59.346317  -26.478371  0
-5.693474  -59.846317  -26.728371  0
-5.943474  -60.096317  -26.728371  0
-8.693474  -59.846317  -26.728371  0
-8.443474  -60.096317  -26.728371  0
-8.943474  -59.846317  -26.478371  0
-6.193474  -60.346317  -26.728371  0
-6.443474  -60.596317  -26.728371  0
-6.943474  -60.596317  -26.728371  0
-7.443474  -60.596317  -26.728371  0
-8.193474  -60.346317  -26.728371  0
-7.943474  -60.596317  -26.728371  0
-8.443474  -60.346317  -26.478371  0
-6.943474  -60.846317  -26.478371  0
-7.443474  -60.846317  -26.478371  0
-7.943474  -60.846317  -26.478371  0
-7.443474  -55.096317  -26.228371  0
-7.943474  -55.096317  -26.228371  0
-7.943474  -54.846317  -25.978371  0
-8.443474  -55.096317  -26.228371  0
-8.443474  -54.846317  -25.978371  0
-8.943474  -55.096317  -26.228371  0
-8.943474  -54.846317  -25.978371  0
-9.443474  -54.846317  -25.978371  0
-5.943474  -55.596317  -26.228371  0
-6.443474  -55.596317  -26.228371  0
-7.193474  -55.346317  -26.228371  0
-6.943474  -55.596317  -26.228371  0
-9.193474  -55.346317  -26.228371  0
-9.443474  -55.596317  -26.228371  0
-9.443474  -55.346317  -25.978371  0
-9.943474  -55.346317  -25.978371  0
-5.693474  -55.846317  -26.228371  0
-5.443474  -56.096317  -26.228371  0
-5.943474  -55.846317  -25.978371  0
-6.443474  -55.846317  -25.978371  0
-9.693474  -55.846317  -26.228371  0
-9.943474  -55.846317  -25.978371  0
-5.193474  -56.346317  -26.228371  0
-5.443474  -56.596317  -26.228371  0
-5.443474  -56.346317  -25.978371  0
-9.693474  -56.346317  -26.228371  0
-9.943474  -56.346317  -25.978371  0
-10.443474  -56.346317  -25.978371  0
-5.693474  -56.846317  -26.228371  0
-5.443474  -57.096317  -26.228371  0
-9.693474  -56.846317  -26.228371  0
-9.943474  -57.096317  -26.228371  0
-9.943474  -56.846317  -25.978371  0
-10.443474  -56.846317  -25.978371  0
-5.193474  -57.346317  -26.228371  0
-5.443474  -57.346317  -25.978371  0
-10.193474  -57.346317  -26.228371  0
-10.443474  -57.346317  -25.978371  0
-5.193474  -57.846317  -26.228371  0
-10.193474  -57.846317  -26.228371  0
-10.443474  -57.846317  -25.978371  0
-5.193474  -58.346317  -26.228371  0
-5.443474  -58.596317  -26.228371  0
-5.443474  -58.346317  -25.978371  0
-10.193474  -58.346317  -26.228371  0
-9.943474  -58.596317  -26.228371  0
-10.443474  -58.346317  -25.978371  0
-5.693474  -58.846317  -26.228371  0
-9.693474  -58.846317  -26.228371  0
-9.943474  -58.846317  -25.978371  0
-10.443474  -58.846317  -25.978371  0
-5.693474  -59.346317  -26.228371  0
-9.693474  -59.346317  -26.228371  0
-9.443474  -59.596317  -26.228371  0
-9.943474  -59.346317  -25.978371  0
-10.443474  -59.346317  -25.978371  0
-5.693474  -59.846317  -26.228371  0
-5.943474  -60.096317  -26.228371  0
-5.943474  -59.846317  -25.978371  0
-9.193474  -59.846317  -26.228371  0
-8.943474  -60.096317  -26.228371  0
-9.443474  -59.846317  -25.978371  0
-9.943474  -59.846317  -25.978371  0
-6.193474  -60.346317  -26.228371  0
-6.443474  -60.596317  -26.228371  0
-8.693474  -60.346317  -26.228371  0
-8.443474  -60.596317  -26.228371  0
-8.943474  -60.346317  -25.978371  0
-9.443474  -60.346317  -25.978371  0
-6.693474  -60.846317  -26.228371  0
-6.943474  -61.096317  -26.228371  0
-7.443474  -61.096317  -26.228371  0
-8.193474  -60.846317  -26.228371  0
-7.943474  -61.096317  -26.228371  0
-8.443474  -60.846317  -25.978371  0
-8.943474  -60.846317  -25.978371  0
-7.443474  -61.346317  -25.978371  0
-7.943474  -61.346317  -25.978371  0
-7.943474  -54.596317  -25.728371  0
-8.443474  -54.596317  -25.728371  0
-8.443474  -54.346317  -25.478371  0
-8.943474  -54.596317  -25.728371  0
-8.943474  -54.346317  -25.478371  0
-9.443474  -54.596317  -25.728371  0
-9.443474  -54.346317  -25.478371  0
-7.693474  -54.846317  -25.728371  0
-7.443474  -55.096317  -25.728371  0
-9.693474  -54.846317  -25.728371  0
-9.943474  -55.096317  -25.728371  0
-9.943474  -54.846317  -25.478371  0
-7.193474  -55.346317  -25.728371  0
-6.943474  -55.596317  -25.728371  0
-10.193474  -55.346317  -25.728371  0
-10.443474  -55.346317  -25.478371  0
-5.943474  -56.096317  -25.728371  0
-6.693474  -55.846317  -25.728371  0
-6.443474  -56.096317  -25.728371  0
-6.943474  -55.846317  -25.478371  0
-10.193474  -55.846317  -25.728371  0
-10.443474  -56.096317  -25.728371  0
-10.443474  -55.846317  -25.478371  0
-5.693474  -56.346317  -25.728371  0
-5.943474  -56.346317  -25.478371  0
-6.443474  -56.346317  -25.478371  0
-10.693474  -56.346317  -25.728371  0
-10.943474  -56.346317  -25.478371  0
-5.693474  -56.846317  -25.728371  0
-5.943474  -56.846317  -25.478371  0
-10.693474  -56.846317  -25.728371  0
-10.943474  -56.846317  -25.478371  0
-5.693474  -57.346317  -25.728371  0
-5.443474  -57.596317  -25.728371  0
-5.943474  -57.346317  -25.478371  0
-10.693474  -57.346317  -25.728371  0
-10.943474  -57.346317  -25.478371  0
-5.193474  -57.846317  -25.728371  0
-5.443474  -58.096317  -25.728371  0
-5.443474  -57.846317  -25.478371  0
-10.693474  -57.846317  -25.728371  0
-10.943474  -57.846317  -25.478371  0
-5.693474  -58.346317  -25.728371  0
-5.943474  -58.346317  -25.478371  0
-10.693474  -58.346317  -25.728371  0
-10.943474  -58.346317  -25.478371  0
-5.693474  -58.846317  -25.728371  0
-5.943474  -58.846317  -25.478371  0
-10.693474  -58.846317  -25.728371  0
-10.943474  -58.846317  -25.478371  0
-5.693474  -59.346317  -25.728371  0
-5.943474  -59.596317  -25.728371  0
-5.943474  -59.346317  -25.478371  0
-10.693474  -59.346317  -25.728371  0
-10.443474  -59.596317  -25.728371  0
-10.943474  -59.346317  -25.478371  0
-6.193474  -59.846317  -25.728371  0
-6.443474  -59.846317  -25.478371  0
-10.193474  -59.846317  -25.728371  0
-9.943474  -60.096317  -25.728371  0
-10.443474  -59.846317  -25.478371  0
-6.193474  -60.346317  -25.728371  0
-6.443474  -60.596317  -25.728371  0
-6.443474  -60.346317  -25.478371  0
-9.693474  -60.346317  -25.728371  0
-9.443474  -60.596317  -25.728371  0
-9.943474  -60.346317  -25.478371  0
-6.693474  -60.846317  -25.728371  0
-6.943474  -61.096317  -25.728371  0
-6.943474  -60.846317  -25.478371  0
-8.443474  -61.096317  -25.728371  0
-9.193474  -60.846317  -25.728371  0
-8.943474  -61.096317  -25.728371  0
-9.443474  -60.846317  -25.478371  0
-7.193474  -61.346317  -25.728371  0
-7.443474  -61.596317  -25.728371  0
-7.443474  -61.346317  -25.478371  0
-8.193474  -61.346317  -25.728371  0
-7.943474  -61.596317  -25.728371  0
-8.443474  -61.346317  -25.478371  0
-8.943474  -61.346317  -25.478371  0
-8.443474  -54.096317  -25.228371  0
-8.943474  -54.096317  -25.228371  0
-9.443474  -54.096317  -25.228371  0
-8.193474  -54.346317  -25.228371  0
-7.943474  -54.596317  -25.228371  0
-8.443474  -54.346317  -24.978371  0
-9.693474  -54.346317  -25.228371  0
-9.943474  -54.596317  -25.228371  0
-7.693474  -54.846317  -25.228371  0
-7.443474  -55.096317  -25.228371  0
-7.943474  -54.846317  -24.978371  0
-10.193474  -54.846317  -25.228371  0
-10.443474  -55.096317  -25.228371  0
-10.443474  -54.846317  -24.978371  0
-7.193474  -55.346317  -25.228371  0
-7.443474  -55.346317  -24.978371  0
-10.693474  -55.346317  -25.228371  0
-7.193474  -55.846317  -25.228371  0
-6.943474  -56.096317  -25.228371  0
-10.693474  -55.846317  -25.228371  0
-10.943474  -56.096317  -25.228371  0
-10.943474  -55.846317  -24.978371  0
-6.693474  -56.346317  -25.228371  0
-6.443474  -56.596317  -25.228371  0
-6.943474  -56.346317  -24.978371  0
-11.193474  -56.346317  -25.228371  0
-6.193474  -56.846317  -25.228371  0
-6.443474  -56.846317  -24.978371  0
-11.193474  -56.846317  -25.228371  0
-11.443474  -56.846317  -24.978371  0
-11.943474  -56.846317  -24.978371  0
-6.193474  -57.346317  -25.228371  0
-5.943474  -57.596317  -25.228371  0
-6.443474  -57.346317  -24.978371  0
-11.193474  -57.346317  -25.228371  0
-11.443474  -57.346317  -24.978371  0
-11.943474  -57.346317  -24.978371  0
-5.693474  -57.846317  -25.228371  0
-5.943474  -58.096317  -25.228371  0
-5.943474  -57.846317  -24.978371  0
-6.443474  -57.846317  -24.978371  0
-11.193474  -57.846317  -25.228371  0
-11.443474  -57.846317  -24.978371  0
-11.943474  -57.846317  -24.978371  0
-6.193474  -58.346317  -25.228371  0
-6.443474  -58.346317  -24.978371  0
-11.193474  -58.346317  -25.228371  0
-11.443474  -58.346317  -24.978371  0
-6.193474  -58.846317  -25.228371  0
-6.443474  -58.846317  -24.978371  0
-11.193474  -58.846317  -25.228371  0
-11.443474  -58.846317  -24.978371  0
-6.193474  -59.346317  -25.228371  0
-6.443474  -59.596317  -25.228371  0
-6.443474  -59.346317  -24.978371  0
-11.193474  -59.346317  -25.228371  0
-10.943474  -59.596317  -25.228371  0
-6.693474  -59.846317  -25.228371  0
-6.943474  -59.846317  -24.978371  0
-10.693474  -59.846317  -25.228371  0
-10.443474  -60.096317  -25.228371  0
-10.943474  -59.846317  -24.978371  0
-6.693474  -60.346317  -25.228371  0
-6.943474  -60.596317  -25.228371  0
-6.943474  -60.346317  -24.978371  0
-10.193474  -60.346317  -25.228371  0
-9.943474  -60.596317  -25.228371  0
-10.443474  -60.346317  -24.978371  0
-7.193474  -60.846317  -25.228371  0
-7.443474  -61.096317  -25.228371  0
-7.443474  -60.846317  -24.978371  0
-9.693474  -60.846317  -25.228371  0
-9.443474  -61.096317  -25.228371  0
-9.943474  -60.846317  -24.978371  0
-7.693474  -61.346317  -25.228371  0
-7.943474  -61.596317  -25.228371  0
-7.943474  -61.346317  -24.978371  0
-8.443474  -61.596317  -25.228371  0
-9.193474  -61.346317  -25.228371  0
-8.943474  -61.596317  -25.228371  0
-8.943474  -54.096317  -24.728371  0
-9.443474  -54.096317  -24.728371  0
-8.693474  -54.346317  -24.728371  0
-8.443474  -54.596317  -24.728371  0
-8.943474  -54.346317  -24.478371  0
-9.693474  -54.346317  -24.728371  0
-9.943474  -54.596317  -24.728371  0
-9.943474  -54.346317  -24.478371  0
-10.443474  -54.596317  -24.728371  0
-10.443474  -54.346317  -24.478371  0
-8.193474  -54.846317  -24.728371  0
-7.943474  -55.096317  -24.728371  0
-8.443474  -54.846317  -24.478371  0
-10.693474  -54.846317  -24.728371  0
-10.943474  -54.846317  -24.478371  0
-7.693474  -55.346317  -24.728371  0
-7.443474  -55.596317  -24.728371  0
-7.943474  -55.346317  -24.478371  0
-10.693474  -55.346317  -24.728371  0
-10.943474  -55.596317  -24.728371  0
-10.943474  -55.346317  -24.478371  0
-7.193474  -55.846317  -24.728371  0
-7.443474  -55.846317  -24.478371  0
-11.193474  -55.846317  -24.728371  0
-11.443474  -55.846317  -24.478371  0
-7.193474  -56.346317  -24.728371  0
-6.943474  -56.596317  -24.728371  0
-7.443474  -56.346317  -24.478371  0
-11.193474  -56.346317  -24.728371  0
-11.443474  -56.596317  -24.728371  0
-11.443474  -56.346317  -24.478371  0
-11.943474  -56.596317  -24.728371  0
-11.943474  -56.346317  -24.478371  0
-6.693474  -56.846317  -24.728371  0
-6.943474  -56.846317  -24.478371  0
-7.443474  -56.846317  -24.478371  0
-12.193474  -56.846317  -24.728371  0
-12.443474  -56.846317  -24.478371  0
-6.693474  -57.346317  -24.728371  0
-6.943474  -57.346317  -24.478371  0
-12.193474  -57.346317  -24.728371  0
-12.443474  -57.346317  -24.478371  0
-6.693474  -57.846317  -24.728371  0
-6.943474  -57.846317  -24.478371  0
-12.193474  -57.846317  -24.728371  0
-11.943474  -58.096317  -24.728371  0
-12.443474  -57.846317  -24.478371  0
-6.693474  -58.346317  -24.728371  0
-6.943474  -58.346317  -24.478371  0
-11.693474  -58.346317  -24.728371  0
-11.943474  -58.346317  -24.478371  0
-6.693474  -58.846317  -24.728371  0
-6.943474  -58.846317  -24.478371  0
-11.693474  -58.846317  -24.728371  0
-11.443474  -59.096317  -24.728371  0
-11.943474  -58.846317  -24.478371  0
-6.693474  -59.346317  -24.728371  0
-6.943474  -59.596317  -24.728371  0
-6.943474  -59.346317  -24.478371  0
-11.193474  -59.346317  -24.728371  0
-11.443474  -59.346317  -24.478371  0
-7.193474  -59.846317  -24.728371  0
-7.443474  -59.846317  -24.478371  0
-11.193474  -59.846317  -24.728371  0
-10.943474  -60.096317  -24.728371  0
-7.193474  -60.346317  -24.728371  0
-7.443474  -60.596317  -24.728371  0
-7.443474  -60.346317  -24.478371  0
-10.693474  -60.346317  -24.728371  0
-10.443474  -60.596317  -24.728371  0
-10.943474  -60.346317  -24.478371  0
-7.693474  -60.846317  -24.728371  0
-7.943474  -61.096317  -24.728371  0
-7.943474  -60.846317  -24.478371  0
-9.443474  -61.096317  -24.728371  0
-10.193474  -60.846317  -24.728371  0
-9.943474  -61.096317  -24.728371  0
-10.443474  -60.846317  -24.478371  0
-8.193474  -61.346317  -24.728371  0
-8.443474  -61.596317  -24.728371  0
-8.443474  -61.346317  -24.478371  0
-9.193474  -61.346317  -24.728371  0
-8.943474  -61.596317  -24.728371  0
-8.943474  -61.346317  -24.478371  0
-9.443474  -61.346317  -24.478371  0
-9.443474  -54.096317  -24.228371  0
-9.943474  -54.096317  -24.228371  0
-10.443474  -54.096317  -24.228371  0
-9.193474  -54.346317  -24.228371  0
-8.943474  -54.596317  -24.228371  0
-9.443474  -54.346317  -23.978371  0
-9.943474  -54.346317  -23.978371  0
-10.693474  -54.346317  -24.228371  0
-10.443474  -54.346317  -23.978371  0
-10.943474  -54.596317  -24.228371  0
-8.693474  -54.846317  -24.228371  0
-8.443474  -55.096317  -24.228371  0
-8.943474  -54.846317  -23.978371  0
-11.193474  -54.846317  -24.228371  0
-10.943474  -54.846317  -23.978371  0
-8.193474  -55.346317  -24.228371  0
-7.943474  -55.596317  -24.228371  0
-8.443474  -55.346317  -23.978371  0
-11.193474  -55.346317  -24.228371  0
-10.943474  -55.346317  -23.978371  0
-11.443474  -55.596317  -24.228371  0
-7.693474  -55.846317  -24.228371  0
-7.943474  -55.846317  -23.978371  0
-8.443474  -55.846317  -23.978371  0
-11.693474  -55.846317  -24.228371  0
-11.443474  -55.846317  -23.978371  0
-11.943474  -56.096317  -24.228371  0
-7.693474  -56.346317  -24.228371  0
-7.943474  -56.346317  -23.978371  0
-8.443474  -56.346317  -23.978371  0
-12.193474  -56.346317  -24.228371  0
-12.443474  -56.596317  -24.228371  0
-7.693474  -56.846317  -24.228371  0
-7.443474  -57.096317  -24.228371  0
-7.943474  -56.846317  -23.978371  0
-12.693474  -56.846317  -24.228371  0
-7.193474  -57.346317  -24.228371  0
-7.443474  -57.346317  -23.978371  0
-12.693474  -57.346317  -24.228371  0
-7.193474  -57.846317  -24.228371  0
-12.693474  -57.846317  -24.228371  0
-12.443474  -58.096317  -24.228371  0
-7.193474  -58.346317  -24.228371  0
-7.443474  -58.346317  -23.978371  0
-12.193474  -58.346317  -24.228371  0
-12.443474  -58.346317  -23.978371  0
-7.193474  -58.846317  -24.228371  0
-7.443474  -58.846317  -23.978371  0
-12.193474  -58.846317  -24.228371  0
-11.943474  -59.096317  -24.228371  0
-7.193474  -59.346317  -24.228371  0
-7.443474  -59.596317  -24.228371  0
-7.443474  -59.346317  -23.978371  0
-7.943474  -59.346317  -23.978371  0
-11.693474  -59.346317  -24.228371  0
-11.443474  -59.596317  -24.228371  0
-11.943474  -59.346317  -23.978371  0
-7.693474  -59.846317  -24.228371  0
-7.943474  -59.846317  -23.978371  0
-11.193474  -59.846317  -24.228371  0
-11.443474  -59.846317  -23.978371  0
-7.693474  -60.346317  -24.228371  0
-7.943474  -60.596317  -24.228371  0
-7.943474  -60.346317  -23.978371  0
-11.193474  -60.346317  -24.228371  0
-10.943474  -60.596317  -24.228371  0
-8.193474  -60.846317  -24.228371  0
-8.443474  -61.096317  -24.228371  0
-8.443474  -60.846317  -23.978371  0
-8.943474  -61.096317  -24.228371  0
-8.943474  -60.846317  -23.978371  0
-9.943474  -61.096317  -24.228371  0
-10.693474  -60.846317  -24.228371  0
-10.443474  -61.096317  -24.228371  0
-9.193474  -61.346317  -24.228371  0
-9.693474  -61.346317  -24.228371  0
-9.443474  -61.596317  -24.228371  0
-9.443474  -61.346317  -23.978371  0
-9.443474  -54.596317  -23.728371  0
-9.943474  -54.596317  -23.728371  0
-10.443474  -54.596317  -23.728371  0
-9.193474  -54.846317  -23.728371  0
-8.943474  -55.096317  -23.728371  0
-9.443474  -54.846317  -23.478371  0
-9.943474  -54.846317  -23.478371  0
-10.693474  -54.846317  -23.728371  0
-10.443474  -54.846317  -23.478371  0
-8.693474  -55.346317  -23.728371  0
-8.943474  -55.346317  -23.478371  0
-9.443474  -55.346317  -23.478371  0
-9.943474  -55.346317  -23.478371  0
-10.693474  -55.346317  -23.728371  0
-10.443474  -55.346317  -23.478371  0
-10.943474  -55.596317  -23.728371  0
-8.693474  -55.846317  -23.728371  0
-8.943474  -55.846317  -23.478371  0
-9.443474  -55.846317  -23.478371  0
-9.943474  -55.846317  -23.478371  0
-10.443474  -55.846317  -23.478371  0
-11.193474  -55.846317  -23.728371  0
-11.443474  -56.096317  -23.728371  0
-11.943474  -56.096317  -23.728371  0
-8.693474  -56.346317  -23.728371  0
-8.443474  -56.596317  -23.728371  0
-8.943474  -56.346317  -23.478371  0
-9.443474  -56.346317  -23.478371  0
-12.193474  -56.346317  -23.728371  0
-12.443474  -56.596317  -23.728371  0
-12.443474  -56.346317  -23.478371  0
-8.193474  -56.846317  -23.728371  0
-7.943474  -57.096317  -23.728371  0
-8.443474  -56.846317  -23.478371  0
-8.943474  -56.846317  -23.478371  0
-12.693474  -56.846317  -23.728371  0
-12.943474  -56.846317  -23.478371  0
-7.693474  -57.346317  -23.728371  0
-7.443474  -57.596317  -23.728371  0
-7.943474  -57.346317  -23.478371  0
-12.693474  -57.346317  -23.728371  0
-12.943474  -57.346317  -23.478371  0
-7.193474  -57.846317  -23.728371  0
-7.443474  -58.096317  -23.728371  0
-7.443474  -57.846317  -23.478371  0
-12.693474  -57.846317  -23.728371  0
-12.943474  -57.846317  -23.478371  0
-13.443474  -57.846317  -23.478371  0
-7.693474  -58.346317  -23.728371  0
-7.943474  -58.346317  -23.478371  0
-12.693474  -58.346317  -23.728371  0
-12.443474  -58.596317  -23.728371  0
-7.693474  -58.846317  -23.728371  0
-7.943474  -59.096317  -23.728371  0
-7.943474  -58.846317  -23.478371  0
-12.193474  -58.846317  -23.728371  0
-12.443474  -58.846317  -23.478371  0
-8.193474  -59.346317  -23.728371  0
-8.443474  -59.346317  -23.478371  0
-8.943474  -59.346317  -23.478371  0
-12.193474  -59.346317  -23.728371  0
-11.943474  -59.596317  -23.728371  0
-12.443474  -59.346317  -23.478371  0
-8.193474  -59.846317  -23.728371  0
-8.443474  -59.846317  -23.478371  0
-8.943474  -59.846317  -23.478371  0
-11.693474  -59.846317  -23.728371  0
-11.443474  -60.096317  -23.728371  0
-11.943474  -59.846317  -23.478371  0
-8.193474  -60.346317  -23.728371  0
-8.443474  -60.596317  -23.728371  0
-8.443474  -60.346317  -23.478371  0
-8.943474  -60.596317  -23.728371  0
-8.943474  -60.346317  -23.478371  0
-11.193474  -60.346317  -23.728371  0
-10.943474  -60.596317  -23.728371  0
-9.193474  -60.846317  -23.728371  0
-9.443474  -61.096317  -23.728371  0
-9.443474  -60.846317  -23.478371  0
-9.943474  -61.096317  -23.728371  0
-10.693474  -60.846317  -23.728371  0
-10.443474  -61.096317  -23.728371  0
-10.943474  -55.596317  -23.228371  0
-9.943474  -56.096317  -23.228371  0
-10.693474  -55.846317  -23.228371  0
-10.443474  -56.096317  -23.228371  0
-11.193474  -55.846317  -23.228371  0
-10.943474  -55.846317  -22.978371  0
-11.443474  -56.096317  -23.228371  0
-11.943474  -56.096317  -23.228371  0
-12.443474  -56.096317  -23.228371  0
-9.693474  -56.346317  -23.228371  0
-9.443474  -56.596317  -23.228371  0
-9.943474  -56.346317  -22.978371  0
-10.443474  -56.346317  -22.978371  0
-11.443474  -56.346317  -22.978371  0
-11.943474  -56.346317  -22.978371  0
-12.693474  -56.346317  -23.228371  0
-12.443474  -56.346317  -22.978371  0
-12.943474  -56.596317  -23.228371  0
-8.443474  -57.096317  -23.228371  0
-9.193474  -56.846317  -23.228371  0
-8.943474  -57.096317  -23.228371  0
-9.443474  -56.846317  -22.978371  0
-9.943474  -56.846317  -22.978371  0
-13.193474  -56.846317  -23.228371  0
-12.943474  -56.846317  -22.978371  0
-8.193474  -57.346317  -23.228371  0
-7.943474  -57.596317  -23.228371  0
-8.443474  -57.346317  -22.978371  0
-8.943474  -57.346317  -22.978371  0
-13.193474  -57.346317  -23.228371  0
-13.443474  -57.596317  -23.228371  0
-13.443474  -57.346317  -22.978371  0
-7.693474  -57.846317  -23.228371  0
-7.943474  -58.096317  -23.228371  0
-7.943474  -57.846317  -22.978371  0
-8.443474  -57.846317  -22.978371  0
-8.943474  -57.846317  -22.978371  0
-12.943474  -58.096317  -23.228371  0
-13.693474  -57.846317  -23.228371  0
-13.443474  -58.096317  -23.228371  0
-13.943474  -57.846317  -22.978371  0
-8.193474  -58.346317  -23.228371  0
-8.443474  -58.346317  -22.978371  0
-8.943474  -58.346317  -22.978371  0
-12.693474  -58.346317  -23.228371  0
-12.943474  -58.346317  -22.978371  0
-13.443474  -58.346317  -22.978371  0
-8.193474  -58.846317  -23.228371  0
-8.443474  -59.096317  -23.228371  0
-8.443474  -58.846317  -22.978371  0
-8.943474  -59.096317  -23.228371  0
-8.943474  -58.846317  -22.978371  0
-12.693474  -58.846317  -23.228371  0
-9.193474  -59.346317  -23.228371  0
-9.443474  -59.346317  -22.978371  0
-12.693474  -59.346317  -23.228371  0
-12.443474  -59.596317  -23.228371  0
-9.193474  -59.846317  -23.228371  0
-9.443474  -59.846317  -22.978371  0
-11.443474  -60.096317  -23.228371  0
-12.193474  -59.846317  -23.228371  0
-11.943474  -60.096317  -23.228371  0
-9.193474  -60.346317  -23.228371  0
-9.443474  -60.596317  -23.228371  0
-9.443474  -60.346317  -22.978371  0
-11.193474  -60.346317  -23.228371  0
-10.943474  -60.596317  -23.228371  0
-10.943474  -60.346317  -22.978371  0
-9.693474  -60.846317  -23.228371  0
-9.943474  -61.096317  -23.228371  0
-9.943474  -60.846317  -22.978371  0
-10.693474  -60.846317  -23.228371  0
-10.443474  -61.096317  -23.228371  0
-10.443474  -60.846317  -22.978371  0
-10.943474  -56.096317  -22.728371  0
-10.693474  -56.346317  -22.728371  0
-10.443474  -56.596317  -22.728371  0
-11.193474  -56.346317  -22.728371  0
-10.943474  -56.346317  -22.478371  0
-11.443474  -56.596317  -22.728371  0
-11.943474  -56.596317  -22.728371  0
-12.443474  -56.596317  -22.728371  0
-9.443474  -57.096317  -22.728371  0
-10.193474  -56.846317  -22.728371  0
-9.943474  -57.096317  -22.728371  0
-10.443474  -56.846317  -22.478371  0
-10.943474  -56.846317  -22.478371  0
-11.443474  -56.846317  -22.478371  0
-11.943474  -56.846317  -22.478371  0
-12.693474  -56.846317  -22.728371  0
-12.443474  -56.846317  -22.478371  0
-12.943474  -57.096317  -22.728371  0
-13.443474  -57.096317  -22.728371  0
-9.193474  -57.346317  -22.728371  0
-9.443474  -57.346317  -22.478371  0
-9.943474  -57.346317  -22.478371  0
-10.443474  -57.346317  -22.478371  0
-10.943474  -57.346317  -22.478371  0
-13.693474  -57.346317  -22.728371  0
-13.943474  -57.596317  -22.728371  0
-9.193474  -57.846317  -22.728371  0
-9.443474  -57.846317  -22.478371  0
-9.943474  -57.846317  -22.478371  0
-14.193474  -57.846317  -22.728371  0
-13.943474  -58.096317  -22.728371  0
-9.193474  -58.346317  -22.728371  0
-9.443474  -58.346317  -22.478371  0
-9.943474  -58.346317  -22.478371  0
-12.943474  -58.596317  -22.728371  0
-13.693474  -58.346317  -22.728371  0
-13.443474  -58.596317  -22.728371  0
-9.193474  -58.846317  -22.728371  0
-9.443474  -59.096317  -22.728371  0
-9.443474  -58.846317  -22.478371  0
-9.943474  -58.846317  -22.478371  0
-10.443474  -58.846317  -22.478371  0
-10.943474  -58.846317  -22.478371  0
-12.693474  -58.846317  -22.728371  0
-12.443474  -58.846317  -22.478371  0
-9.693474  -59.346317  -22.728371  0
-9.943474  -59.346317  -22.478371  0
-10.443474  -59.346317  -22.478371  0
-10.943474  -59.346317  -22.478371  0
-12.693474  -59.346317  -22.728371  0
-12.443474  -59.596317  -22.728371  0
-12.443474  -59.346317  -22.478371  0
-9.693474  -59.846317  -22.728371  0
-9.943474  -59.846317  -22.478371  0
-10.443474  -59.846317  -22.478371  0
-10.943474  -60.096317  -22.728371  0
-10.943474  -59.846317  -22.478371  0
-11.443474  -60.096317  -22.728371  0
-11.443474  -59.846317  -22.478371  0
-12.193474  -59.846317  -22.728371  0
-11.943474  -60.096317  -22.728371  0
-11.943474  -59.846317  -22.478371  0
-9.693474  -60.346317  -22.728371  0
-9.943474  -60.596317  -22.728371  0
-9.943474  -60.346317  -22.478371  0
-10.693474  -60.346317  -22.728371  0
-10.443474  -60.596317  -22.728371  0
-10.443474  -60.346317  -22.478371  0
-11.443474  -57.096317  -22.228371  0
-11.943474  -57.096317  -22.228371  0
-12.443474  -57.096317  -22.228371  0
-12.943474  -57.096317  -22.228371  0
-13.443474  -57.096317  -22.228371  0
-10.443474  -57.596317  -22.228371  0
-11.193474  -57.346317  -22.228371  0
-10.943474  -57.596317  -22.228371  0
-11.443474  -57.346317  -21.978371  0
-11.943474  -57.346317  -21.978371  0
-12.443474  -57.346317  -21.978371  0
-12.943474  -57.346317  -21.978371  0
-13.693474  -57.346317  -22.228371  0
-13.443474  -57.346317  -21.978371  0
-13.943474  -57.596317  -22.228371  0
-10.193474  -57.846317  -22.228371  0
-10.443474  -57.846317  -21.978371  0
-10.943474  -57.846317  -21.978371  0
-11.443474  -57.846317  -21.978371  0
-14.193474  -57.846317  -22.228371  0
-13.943474  -58.096317  -22.228371  0
-13.943474  -57.846317  -21.978371  0
-10.193474  -58.346317  -22.228371  0
-10.443474  -58.596317  -22.228371  0
-10.443474  -58.346317  -21.978371  0
-10.943474  -58.596317  -22.228371  0
-10.943474  -58.346317  -21.978371  0
-11.443474  -58.346317  -21.978371  0
-11.943474  -58.346317  -21.978371  0
-12.443474  -58.596317  -22.228371  0
-12.443474  -58.346317  -21.978371  0
-12.943474  -58.596317  -22.228371  0
-12.943474  -58.346317  -21.978371  0
-13.693474  -58.346317  -22.228371  0
-13.443474  -58.596317  -22.228371  0
-13.443474  -58.346317  -21.978371  0
-11.193474  -58.846317  -22.228371  0
-11.443474  -58.846317  -21.978371  0
-12.193474  -58.846317  -22.228371  0
-11.943474  -58.846317  -21.978371  0
-11.193474  -59.346317  -22.228371  0
-11.443474  -59.596317  -22.228371  0
-11.443474  -59.346317  -21.978371  0
-12.193474  -59.346317  -22.228371  0
-11.943474  -59.596317  -22.228371  0
-11.943474  -59.346317  -21.978371  0
-11.943474  -57.596317  -21.728371  0
-12.443474  -57.596317  -21.728371  0
-12.943474  -57.596317  -21.728371  0
-13.443474  -57.596317  -21.728371  0
-11.693474  -57.846317  -21.728371  0
-11.943474  -58.096317  -21.728371  0
-11.943474  -57.846317  -21.478371  0
-12.443474  -58.096317  -21.728371  0
-12.443474  -57.846317  -21.478371  0
-12.943474  -58.096317  -21.728371  0
-12.943474  -57.846317  -21.478371  0
-13.693474  -57.846317  -21.728371  0
-13.443474  -58.096317  -21.728371  0
-13.443474  -57.846317  -21.478371  0
16 24 0 0
1 18 0 0
0 18 16 0
2 20 1 0
1 20 18 0
2 27 20 0
0 24 3 0
3 24 32 0
26 1 34 0
1 3 34 0
1 0 3 0
1 26 2 0
2 26 28 0
2 28 27 0
32 35 3 0
3 43 35 0
3 4 43 0
3 34 36 0
4 3 36 0
5 38 4 0
4 38 36 0
5 46 38 0
43 45 4 0
4 45 5 0
5 45 47 0
5 47 46 0
59 71 6 0
7 61 6 0
6 61 59 0
8 63 7 0
7 63 61 0
9 65 8 0
8 65 63 0
10 67 9 0
9 67 65 0
10 73 67 0
6 71 11 0
11 71 76 0
6 12 7 0
6 11 12 0
7 13 8 0
7 12 13 0
8 14 9 0
8 13 14 0
9 15 10 0
9 14 15 0
73 10 78 0
78 10 15 0
11 76 17 0
17 76 81 0
11 19 12 0
11 17 19 0
12 21 13 0
12 19 21 0
13 22 14 0
13 21 22 0
14 23 15 0
14 22 23 0
78 15 84 0
84 15 23 0
82 88 25 0
82 25 81 0
81 25 17 0
25 24 17 0
24 16 17 0
17 16 18 0
17 18 19 0
19 18 20 0
19 20 21 0
21 20 27 0
29 21 27 0
22 21 29 0
22 30 23 0
22 29 30 0
84 23 85 0
23 31 85 0
23 30 31 0
31 89 85 0
25 88 33 0
33 88 91 0
33 32 24 0
33 24 25 0
34 37 26 0
39 28 26 0
39 26 37 0
29 27 28 0
39 29 28 0
40 29 39 0
29 41 30 0
29 40 41 0
30 42 31 0
30 41 42 0
89 31 93 0
93 31 42 0
91 92 33 0
92 95 44 0
92 44 35 0
33 92 35 0
32 33 35 0
44 34 35 0
44 37 34 0
44 43 36 0
37 44 36 0
37 36 38 0
37 38 39 0
39 38 46 0
48 39 46 0
40 39 48 0
40 49 41 0
40 48 49 0
41 50 42 0
41 49 50 0
93 42 97 0
97 42 50 0
95 96 44 0
96 99 51 0
96 51 45 0
44 96 45 0
43 44 45 0
52 47 45 0
52 45 51 0
48 46 47 0
52 48 47 0
53 48 52 0
48 54 49 0
48 53 54 0
49 55 50 0
49 54 55 0
97 50 102 0
102 50 55 0
51 99 56 0
56 99 105 0
51 57 52 0
51 56 57 0
52 58 53 0
52 57 58 0
101 54 109 0
54 58 109 0
54 53 58 0
54 101 55 0
55 101 103 0
55 103 102 0
105 107 56 0
56 107 57 0
57 107 108 0
57 108 58 0
58 108 110 0
58 110 109 0
117 128 60 0
62 118 60 0
60 118 117 0
64 119 62 0
62 119 118 0
66 120 64 0
64 120 119 0
68 122 66 0
66 122 120 0
69 124 68 0
68 124 122 0
70 126 69 0
69 126 124 0
70 130 126 0
129 132 72 0
129 72 128 0
128 72 60 0
72 71 60 0
71 59 60 0
60 59 61 0
60 61 62 0
62 61 63 0
62 63 64 0
64 63 65 0
64 65 66 0
66 65 67 0
66 67 68 0
68 67 73 0
74 68 73 0
69 68 74 0
69 75 70 0
69 74 75 0
130 70 133 0
133 70 75 0
72 132 77 0
77 132 135 0
77 76 71 0
77 71 72 0
78 79 74 0
78 74 73 0
74 80 75 0
74 79 80 0
133 75 137 0
137 75 80 0
77 135 83 0
83 135 139 0
83 81 76 0
83 76 77 0
84 86 79 0
84 79 78 0
79 87 80 0
79 86 87 0
137 80 140 0
140 80 87 0
83 139 82 0
139 88 82 0
139 143 88 0
83 82 81 0
85 86 84 0
86 85 89 0
90 86 89 0
87 86 90 0
140 87 144 0
144 87 90 0
143 91 88 0
147 91 143 0
93 94 90 0
93 90 89 0
144 90 149 0
149 90 94 0
147 148 91 0
91 148 92 0
95 92 148 0
95 148 152 0
97 98 94 0
97 94 93 0
149 94 153 0
153 94 98 0
96 95 100 0
95 155 100 0
95 152 155 0
100 99 96 0
102 104 98 0
102 98 97 0
153 98 156 0
156 98 104 0
100 155 106 0
106 155 159 0
106 105 99 0
106 99 100 0
109 111 101 0
112 103 101 0
112 101 111 0
112 161 103 0
103 161 102 0
161 157 102 0
157 104 102 0
104 157 156 0
159 160 106 0
160 164 113 0
160 113 107 0
106 160 107 0
105 106 107 0
114 108 107 0
114 107 113 0
115 110 108 0
115 108 114 0
111 109 110 0
115 111 110 0
116 111 115 0
162 112 168 0
112 116 168 0
112 111 116 0
112 162 161 0
164 165 113 0
113 165 114 0
114 165 166 0
114 166 115 0
115 166 167 0
115 167 116 0
116 167 169 0
116 169 168 0
174 184 121 0
123 175 121 0
121 175 174 0
125 177 123 0
123 177 175 0
127 179 125 0
125 179 177 0
127 186 179 0
182 190 117 0
117 190 128 0
183 117 118 0
183 182 117 0
185 118 119 0
185 183 118 0
120 121 184 0
185 120 184 0
119 120 185 0
121 120 122 0
121 122 123 0
123 122 124 0
123 124 125 0
125 124 126 0
125 126 127 0
131 187 130 0
130 187 126 0
187 186 126 0
186 127 126 0
131 194 187 0
191 196 129 0
129 196 132 0
129 128 190 0
129 190 191 0
133 134 131 0
133 131 130 0
194 131 199 0
199 131 134 0
136 135 197 0
135 196 197 0
135 132 196 0
202 136 197 0
137 138 134 0
137 134 133 0
199 134 204 0
204 134 138 0
203 208 136 0
208 135 136 0
208 139 135 0
203 136 202 0
140 141 138 0
140 138 137 0
204 138 205 0
138 142 205 0
138 141 142 0
142 210 205 0
208 143 139 0
212 143 208 0
144 145 141 0
144 141 140 0
141 146 142 0
141 145 146 0
210 142 213 0
213 142 146 0
212 147 143 0
215 147 212 0
149 150 145 0
149 145 144 0
145 151 146 0
145 150 151 0
213 146 218 0
218 146 151 0
215 216 147 0
147 216 148 0
152 148 216 0
152 216 221 0
153 154 150 0
153 150 149 0
219 151 222 0
151 154 222 0
151 150 154 0
151 219 218 0
221 155 152 0
225 155 221 0
156 158 154 0
156 154 153 0
222 154 226 0
226 154 158 0
225 159 155 0
230 159 225 0
161 163 157 0
163 233 157 0
157 233 156 0
233 227 156 0
227 158 156 0
158 227 226 0
230 231 159 0
159 231 160 0
164 160 231 0
164 231 237 0
168 170 162 0
170 239 162 0
162 239 161 0
239 234 161 0
234 163 161 0
163 234 233 0
237 238 164 0
164 238 165 0
238 243 171 0
166 238 171 0
165 238 166 0
172 167 166 0
172 166 171 0
173 169 167 0
173 167 172 0
173 246 169 0
169 246 168 0
246 240 168 0
240 170 168 0
170 240 239 0
243 244 171 0
171 244 172 0
172 244 245 0
172 245 173 0
173 245 247 0
173 247 246 0
252 259 176 0
178 253 176 0
176 253 252 0
180 255 178 0
178 255 253 0
181 257 180 0
180 257 255 0
181 261 257 0
260 264 174 0
174 264 184 0
175 176 259 0
260 175 259 0
174 175 260 0
176 175 177 0
176 177 178 0
178 177 179 0
178 179 180 0
180 179 186 0
188 180 186 0
181 180 188 0
261 181 262 0
181 189 262 0
181 188 189 0
189 266 262 0
192 190 182 0
183 193 182 0
182 193 192 0
193 183 269 0
183 265 269 0
183 185 265 0
185 184 264 0
185 264 265 0
187 188 186 0
188 187 194 0
195 188 194 0
189 188 195 0
266 189 272 0
272 189 195 0
198 196 191 0
275 198 191 0
275 191 190 0
268 275 190 0
192 268 190 0
268 192 193 0
268 193 270 0
270 193 269 0
199 200 195 0
199 195 194 0
272 195 273 0
195 201 273 0
195 200 201 0
201 278 273 0
198 197 196 0
202 197 198 0
275 202 198 0
280 202 275 0
204 206 200 0
204 200 199 0
200 207 201 0
200 206 207 0
278 201 282 0
282 201 207 0
209 208 203 0
284 209 203 0
202 284 203 0
280 284 202 0
205 206 204 0
206 205 210 0
211 206 210 0
207 206 211 0
282 207 287 0
287 207 211 0
285 289 209 0
289 208 209 0
289 212 208 0
285 209 284 0
213 214 211 0
213 211 210 0
287 211 292 0
292 211 214 0
217 215 290 0
215 289 290 0
215 212 289 0
294 217 290 0
218 220 214 0
218 214 213 0
292 214 296 0
296 214 220 0
217 216 215 0
221 216 217 0
294 221 217 0
298 221 294 0
222 223 219 0
220 218 219 0
223 220 219 0
224 220 223 0
296 220 300 0
300 220 224 0
298 225 221 0
302 225 298 0
226 228 223 0
226 223 222 0
223 229 224 0
223 228 229 0
300 224 305 0
305 224 229 0
232 230 303 0
230 302 303 0
230 225 302 0
308 232 303 0
233 235 227 0
228 226 227 0
235 228 227 0
236 228 235 0
306 229 310 0
229 236 310 0
229 228 236 0
229 306 305 0
232 231 230 0
237 231 232 0
308 237 232 0
313 237 308 0
239 241 234 0
235 233 234 0
241 235 234 0
242 235 241 0
311 236 316 0
236 242 316 0
236 235 242 0
236 311 310 0
313 314 237 0
237 314 238 0
243 238 314 0
243 314 319 0
246 248 240 0
241 239 240 0
248 241 240 0
249 241 248 0
317 242 323 0
242 249 323 0
242 241 249 0
242 317 316 0
319 320 243 0
243 320 244 0
320 326 250 0
245 320 250 0
244 320 245 0
251 247 245 0
251 245 250 0
251 329 247 0
247 329 246 0
329 322 246 0
322 248 246 0
248 322 249 0
249 322 324 0
249 324 323 0
326 327 250 0
250 327 251 0
251 327 330 0
251 330 329 0
333 336 254 0
256 334 254 0
254 334 333 0
258 335 256 0
256 335 334 0
258 339 335 0
337 341 252 0
252 341 259 0
253 254 336 0
337 253 336 0
252 253 337 0
254 253 255 0
254 255 256 0
256 255 257 0
256 257 258 0
263 340 261 0
261 340 257 0
340 339 257 0
339 258 257 0
263 344 340 0
342 347 260 0
260 347 264 0
260 259 341 0
260 341 342 0
262 263 261 0
267 345 266 0
266 345 262 0
345 344 262 0
344 263 262 0
267 349 345 0
271 269 265 0
350 271 265 0
264 350 265 0
347 350 264 0
272 274 267 0
272 267 266 0
349 267 352 0
352 267 274 0
276 275 268 0
270 277 268 0
268 277 276 0
355 277 270 0
355 270 269 0
351 355 269 0
271 351 269 0
351 271 350 0
273 274 272 0
279 353 278 0
278 353 273 0
353 352 273 0
352 274 273 0
279 358 353 0
281 280 276 0
276 280 275 0
277 356 359 0
281 277 359 0
276 277 281 0
356 277 355 0
282 283 279 0
282 279 278 0
358 279 361 0
361 279 283 0
286 284 281 0
281 284 280 0
281 359 364 0
281 364 286 0
287 288 283 0
287 283 282 0
361 283 367 0
367 283 288 0
291 289 285 0
370 291 285 0
370 285 284 0
365 370 284 0
286 365 284 0
365 286 364 0
292 293 288 0
292 288 287 0
367 288 374 0
374 288 293 0
291 290 289 0
371 295 294 0
371 294 290 0
370 371 290 0
291 370 290 0
377 295 371 0
296 297 293 0
296 293 292 0
374 293 379 0
379 293 297 0
299 298 295 0
295 298 294 0
295 377 381 0
295 381 299 0
300 301 297 0
300 297 296 0
379 297 383 0
383 297 301 0
304 302 299 0
299 302 298 0
299 381 385 0
299 385 304 0
305 307 301 0
305 301 300 0
383 301 388 0
388 301 307 0
304 303 302 0
386 309 308 0
386 308 303 0
385 386 303 0
304 385 303 0
390 309 386 0
310 312 306 0
312 392 306 0
306 392 305 0
392 389 305 0
389 307 305 0
307 389 388 0
315 313 309 0
309 313 308 0
309 390 395 0
309 395 315 0
316 318 311 0
318 398 311 0
311 398 310 0
398 393 310 0
393 312 310 0
312 393 392 0
315 314 313 0
396 321 319 0
396 319 314 0
395 396 314 0
315 395 314 0
401 321 396 0
323 325 317 0
325 404 317 0
317 404 316 0
404 399 316 0
399 318 316 0
318 399 398 0
321 320 319 0
402 328 326 0
402 326 320 0
401 402 320 0
321 401 320 0
407 328 402 0
329 331 322 0
332 324 322 0
332 322 331 0
332 411 324 0
324 411 323 0
411 405 323 0
405 325 323 0
325 405 404 0
328 327 326 0
407 408 328 0
408 327 328 0
408 330 327 0
329 330 331 0
330 410 331 0
330 408 410 0
331 410 332 0
332 410 412 0
332 412 411 0
338 336 333 0
338 333 415 0
333 413 415 0
333 334 413 0
414 334 335 0
414 413 334 0
335 339 414 0
414 339 418 0
343 341 337 0
423 343 337 0
423 337 336 0
416 423 336 0
338 416 336 0
416 338 415 0
419 418 339 0
419 339 340 0
346 421 344 0
421 340 344 0
421 419 340 0
346 426 421 0
348 347 342 0
428 348 342 0
428 342 341 0
424 428 341 0
343 424 341 0
424 343 423 0
345 346 344 0
345 349 346 0
349 426 346 0
349 431 426 0
429 434 348 0
434 347 348 0
434 350 347 0
429 348 428 0
352 354 432 0
431 352 432 0
349 352 431 0
354 436 432 0
357 355 351 0
438 357 351 0
350 438 351 0
434 438 350 0
353 354 352 0
353 358 354 0
358 436 354 0
358 441 436 0
360 359 356 0
446 360 356 0
446 356 355 0
439 446 355 0
357 439 355 0
439 357 438 0
361 362 442 0
441 361 442 0
358 361 441 0
363 444 362 0
362 444 442 0
363 449 444 0
366 364 360 0
360 364 359 0
360 446 451 0
360 451 366 0
367 368 362 0
367 362 361 0
362 369 363 0
362 368 369 0
449 363 453 0
453 363 369 0
372 370 365 0
364 366 365 0
366 372 365 0
366 373 372 0
366 451 455 0
366 455 373 0
374 375 368 0
374 368 367 0
368 376 369 0
368 375 376 0
453 369 457 0
457 369 376 0
372 371 370 0
371 372 377 0
372 378 377 0
372 373 378 0
373 455 460 0
373 460 378 0
379 380 375 0
379 375 374 0
458 376 462 0
376 380 462 0
376 375 380 0
376 458 457 0
382 381 378 0
378 381 377 0
378 460 464 0
378 464 382 0
383 384 380 0
383 380 379 0
462 380 466 0
466 380 384 0
387 385 382 0
382 385 381 0
382 464 469 0
382 469 387 0
472 467 384 0
383 472 384 0
388 472 383 0
384 467 466 0
387 386 385 0
470 391 390 0
470 390 386 0
469 470 386 0
387 469 386 0
474 391 470 0
392 394 389 0
394 476 389 0
476 388 389 0
476 472 388 0
397 395 391 0
391 395 390 0
391 474 478 0
391 478 397 0
398 400 393 0
400 481 393 0
393 481 392 0
481 477 392 0
477 394 392 0
394 477 476 0
397 396 395 0
479 403 401 0
479 401 396 0
478 479 396 0
397 478 396 0
484 403 479 0
404 406 399 0
406 488 399 0
399 488 398 0
488 482 398 0
482 400 398 0
400 482 481 0
403 402 401 0
485 409 407 0
485 407 402 0
484 485 402 0
403 484 402 0
491 409 485 0
494 487 405 0
494 405 411 0
404 405 406 0
405 489 406 0
405 487 489 0
406 489 488 0
409 408 407 0
491 492 409 0
492 408 409 0
492 410 408 0
410 495 412 0
492 495 410 0
411 412 494 0
494 412 495 0
417 415 413 0
417 413 501 0
413 498 501 0
413 414 498 0
420 499 418 0
499 414 418 0
499 498 414 0
422 500 420 0
420 500 499 0
422 505 500 0
425 423 416 0
508 425 416 0
508 416 415 0
502 508 415 0
417 502 415 0
502 417 501 0
419 420 418 0
420 419 421 0
420 421 422 0
427 507 426 0
426 507 421 0
507 505 421 0
505 422 421 0
427 511 507 0
430 428 424 0
513 430 424 0
513 424 423 0
509 513 423 0
425 509 423 0
509 425 508 0
431 433 427 0
431 427 426 0
511 427 516 0
516 427 433 0
435 434 429 0
519 435 429 0
519 429 428 0
514 519 428 0
430 514 428 0
514 430 513 0
432 433 431 0
437 518 436 0
436 518 432 0
518 516 432 0
516 433 432 0
437 522 518 0
440 438 435 0
435 438 434 0
435 519 525 0
435 525 440 0
441 443 437 0
441 437 436 0
522 437 524 0
437 445 524 0
437 443 445 0
445 528 524 0
447 446 439 0
438 440 439 0
440 447 439 0
440 448 447 0
440 525 530 0
440 530 448 0
442 443 441 0
443 442 444 0
443 444 445 0
450 529 449 0
449 529 444 0
529 528 444 0
528 445 444 0
450 533 529 0
452 451 447 0
447 451 446 0
448 531 534 0
452 448 534 0
447 448 452 0
531 448 530 0
453 454 450 0
453 450 449 0
533 450 536 0
536 450 454 0
456 455 452 0
452 455 451 0
452 534 537 0
452 537 456 0
457 459 454 0
457 454 453 0
536 454 538 0
538 454 459 0
461 460 456 0
456 460 455 0
456 537 540 0
456 540 461 0
462 463 458 0
463 542 458 0
458 542 457 0
542 539 457 0
539 459 457 0
459 539 538 0
465 464 461 0
461 464 460 0
461 540 544 0
461 544 465 0
466 468 463 0
466 463 462 0
542 463 546 0
546 463 468 0
471 469 465 0
465 469 464 0
465 544 548 0
465 548 471 0
472 473 467 0
473 552 467 0
467 552 466 0
552 547 466 0
547 468 466 0
468 547 546 0
471 470 469 0
549 475 474 0
549 474 470 0
548 549 470 0
471 548 470 0
555 475 549 0
557 553 473 0
472 557 473 0
476 557 472 0
473 553 552 0
480 478 475 0
475 478 474 0
475 555 559 0
475 559 480 0
481 483 477 0
483 562 477 0
562 476 477 0
562 557 476 0
480 479 478 0
560 486 484 0
560 484 479 0
559 560 479 0
480 559 479 0
564 486 560 0
488 490 482 0
490 570 482 0
482 570 481 0
570 563 481 0
563 483 481 0
483 563 562 0
486 485 484 0
565 493 491 0
565 491 485 0
564 565 485 0
486 564 485 0
567 496 493 0
567 493 565 0
567 494 496 0
567 487 494 0
567 572 497 0
487 567 497 0
487 497 573 0
569 487 573 0
489 487 569 0
488 489 490 0
489 571 490 0
489 569 571 0
490 571 570 0
493 492 491 0
492 493 495 0
495 493 496 0
495 572 496 0
495 574 572 0
495 494 497 0
574 495 497 0
497 574 573 0
503 501 498 0
499 504 498 0
498 504 503 0
500 506 499 0
499 506 504 0
505 506 500 0
510 508 502 0
579 510 502 0
579 502 501 0
576 579 501 0
503 576 501 0
576 503 504 0
576 504 577 0
577 504 506 0
577 506 578 0
583 578 512 0
512 578 507 0
578 506 507 0
506 505 507 0
511 512 507 0
515 513 509 0
585 515 509 0
585 509 508 0
580 585 508 0
510 580 508 0
580 510 579 0
583 512 517 0
583 517 589 0
516 517 511 0
511 517 512 0
520 519 514 0
513 515 514 0
515 520 514 0
515 521 520 0
515 585 592 0
515 592 521 0
591 589 517 0
597 591 523 0
523 591 518 0
591 517 518 0
517 516 518 0
522 523 518 0
526 525 520 0
520 525 519 0
527 520 521 0
526 520 527 0
521 592 600 0
521 600 527 0
598 597 523 0
598 523 522 0
524 598 522 0
599 598 524 0
524 528 599 0
599 528 604 0
532 530 526 0
526 530 525 0
527 601 607 0
532 527 607 0
526 527 532 0
601 527 600 0
605 604 528 0
605 528 529 0
529 533 605 0
605 533 611 0
535 534 531 0
613 535 531 0
613 531 530 0
608 613 530 0
532 608 530 0
608 532 607 0
536 611 533 0
536 616 611 0
614 618 535 0
618 534 535 0
618 537 534 0
614 535 613 0
538 616 536 0
538 621 616 0
541 540 619 0
540 618 619 0
540 537 618 0
624 541 619 0
542 543 539 0
543 626 539 0
626 538 539 0
626 621 538 0
545 544 541 0
541 544 540 0
541 624 628 0
541 628 545 0
631 627 543 0
542 631 543 0
546 631 542 0
543 627 626 0
550 548 545 0
545 548 544 0
545 628 629 0
551 545 629 0
550 545 551 0
633 551 629 0
552 554 547 0
554 636 547 0
636 546 547 0
636 631 546 0
550 549 548 0
549 550 555 0
550 556 555 0
550 551 556 0
551 633 639 0
551 639 556 0
557 558 553 0
558 642 553 0
553 642 552 0
642 637 552 0
637 554 552 0
554 637 636 0
561 559 556 0
556 559 555 0
556 639 645 0
556 645 561 0
650 643 558 0
557 650 558 0
562 650 557 0
558 643 642 0
561 560 559 0
646 566 564 0
646 564 560 0
645 646 560 0
561 645 560 0
648 568 566 0
648 566 646 0
652 568 648 0
656 651 563 0
656 563 570 0
562 563 650 0
650 563 651 0
566 565 564 0
565 566 567 0
567 566 568 0
653 575 572 0
653 572 567 0
652 653 567 0
568 652 567 0
569 573 575 0
653 569 575 0
655 569 653 0
569 657 571 0
655 657 569 0
570 571 656 0
656 571 657 0
575 574 572 0
574 575 573 0
581 579 576 0
577 582 576 0
576 582 581 0
578 584 577 0
577 584 582 0
583 584 578 0
586 585 580 0
579 581 580 0
581 586 580 0
581 587 586 0
588 581 582 0
587 581 588 0
590 582 584 0
588 582 590 0
589 590 583 0
583 590 584 0
593 592 586 0
586 592 585 0
594 586 587 0
593 586 594 0
595 587 588 0
594 587 595 0
596 588 590 0
595 588 596 0
596 590 589 0
658 596 589 0
591 658 589 0
660 596 658 0
591 597 658 0
658 597 662 0
602 600 593 0
593 600 592 0
603 593 594 0
602 593 603 0
595 659 667 0
603 595 667 0
594 595 603 0
659 595 596 0
659 596 661 0
661 596 660 0
664 662 597 0
664 597 598 0
665 598 599 0
665 664 598 0
606 666 604 0
666 599 604 0
666 665 599 0
606 673 666 0
609 607 601 0
600 602 601 0
602 609 601 0
602 610 609 0
603 668 677 0
610 603 677 0
602 603 610 0
668 603 667 0
605 606 604 0
612 675 611 0
611 675 605 0
675 673 605 0
673 606 605 0
612 681 675 0
615 613 608 0
683 615 608 0
683 608 607 0
676 683 607 0
609 676 607 0
676 609 610 0
676 610 678 0
678 610 677 0
616 617 612 0
616 612 611 0
681 612 687 0
687 612 617 0
620 618 614 0
690 620 614 0
690 614 613 0
684 690 613 0
615 684 613 0
684 615 683 0
621 622 617 0
621 617 616 0
687 617 688 0
617 623 688 0
617 622 623 0
623 696 688 0
620 619 618 0
691 625 624 0
691 624 619 0
690 691 619 0
620 690 619 0
699 625 691 0
702 695 622 0
621 702 622 0
626 702 621 0
622 695 623 0
623 695 697 0
623 697 696 0
630 628 625 0
625 628 624 0
625 699 705 0
625 705 630 0
631 632 627 0
632 710 627 0
710 626 627 0
710 702 626 0
630 629 628 0
706 634 633 0
706 633 629 0
705 706 629 0
630 705 629 0
708 635 634 0
708 634 706 0
711 635 708 0
636 638 632 0
636 632 631 0
710 632 713 0
713 632 638 0
640 639 634 0
634 639 633 0
641 634 635 0
640 634 641 0
635 711 715 0
635 715 641 0
642 644 637 0
644 718 637 0
637 718 636 0
718 714 636 0
714 638 636 0
638 714 713 0
647 645 640 0
640 645 639 0
649 640 641 0
647 640 649 0
641 715 720 0
641 720 649 0
723 717 643 0
723 643 650 0
642 643 644 0
643 719 644 0
643 717 719 0
644 719 718 0
647 646 645 0
646 647 648 0
648 647 649 0
721 654 652 0
721 652 648 0
720 721 648 0
649 720 648 0
726 654 721 0
729 724 651 0
729 651 656 0
650 651 723 0
723 651 724 0
654 653 652 0
726 727 654 0
727 653 654 0
727 655 653 0
655 730 657 0
727 730 655 0
656 657 729 0
729 657 730 0
663 660 658 0
662 663 658 0
669 667 659 0
661 670 659 0
659 670 669 0
733 670 661 0
733 661 660 0
732 733 660 0
663 732 660 0
735 732 671 0
671 732 664 0
732 663 664 0
663 662 664 0
665 672 664 0
664 672 671 0
666 674 665 0
665 674 672 0
673 674 666 0
679 677 668 0
667 669 668 0
669 679 668 0
669 680 679 0
670 734 741 0
680 670 741 0
669 670 680 0
734 670 733 0
737 735 671 0
737 671 672 0
737 672 738 0
738 672 674 0
738 674 739 0
747 739 682 0
682 739 675 0
739 674 675 0
674 673 675 0
681 682 675 0
685 683 676 0
678 686 676 0
676 686 685 0
751 686 678 0
751 678 677 0
740 751 677 0
679 740 677 0
740 679 680 0
740 680 742 0
742 680 741 0
749 747 682 0
681 687 682 0
687 750 682 0
750 749 682 0
750 687 689 0
689 756 750 0
692 690 684 0
683 685 684 0
685 692 684 0
685 693 692 0
694 685 686 0
693 685 694 0
686 751 758 0
686 758 694 0
688 689 687 0
698 757 696 0
696 757 688 0
757 756 688 0
756 689 688 0
698 761 757 0
692 691 690 0
691 692 699 0
692 700 699 0
692 693 700 0
