#!ascii version in FreeSurfer format (SUMA)
616 1228
-5.001621  -56.243004  -36.814423  0
-5.313547  -56.232685  -36.765717  0
-4.901553  -56.688320  -36.887573  0
-5.366882  -56.672920  -36.875664  0
-4.836312  -57.135288  -36.870461  0
-5.295123  -57.163731  -36.944370  0
-5.801267  -57.208702  -36.869831  0
-5.215918  -57.630039  -36.883839  0
-5.656792  -57.572414  -36.924751  0
-6.101268  -57.708794  -36.819790  0
-5.290229  -58.028755  -36.807652  0
-5.704494  -57.993824  -36.838223  0
-4.864476  -55.973473  -36.697182  0
-4.802312  -55.733826  -36.436718  0
-5.199583  -55.864433  -36.586643  0
-5.143587  -55.600868  -36.393909  0
-4.618937  -56.227669  -36.694988  0
-4.361427  -55.982258  -36.377266  0
-5.528900  -56.093918  -36.603008  0
-5.936640  -56.255466  -36.440174  0
-6.285316  -56.253120  -36.234123  0
-4.526066  -56.752045  -36.742016  0
-4.263617  -56.430923  -36.473499  0
-5.636050  -56.447468  -36.706310  0
-5.775167  -56.820091  -36.782406  0
-6.031308  -56.734879  -36.598503  0
-6.393847  -56.682129  -36.339375  0
-4.547982  -57.080357  -36.736820  0
-4.314540  -56.964027  -36.461864  0
-4.681415  -57.424606  -36.678593  0
-6.059948  -57.068840  -36.724918  0
-6.198435  -57.371342  -36.745895  0
-6.392906  -57.199200  -36.549511  0
-6.739610  -57.171547  -36.297836  0
-4.971776  -57.871773  -36.717632  0
-4.658899  -57.746742  -36.485966  0
-6.415839  -57.606289  -36.665977  0
-6.406487  -57.917210  -36.675522  0
-6.708516  -57.761448  -36.446743  0
-5.124623  -58.119377  -36.699989  0
-4.868501  -58.114616  -36.453648  0
-5.365187  -58.323532  -36.622868  0
-6.149497  -58.084160  -36.755108  0
-5.904405  -58.305233  -36.687885  0
-6.374529  -58.306763  -36.541386  0
-6.827802  -58.275803  -36.343231  0
-5.271230  -58.631466  -36.381298  0
-5.780692  -58.614597  -36.458076  0
-6.264439  -58.697868  -36.375774  0
-6.668205  -58.625755  -36.302586  0
-4.807503  -55.478718  -36.004105  0
-5.145352  -55.439758  -36.136547  0
-6.434154  -55.234230  -35.871815  0
-6.960682  -55.218521  -35.830341  0
-7.406045  -55.267105  -35.797165  0
-4.500423  -55.679382  -36.163895  0
-4.233600  -55.868835  -36.006874  0
-5.441915  -55.534756  -36.239716  0
-5.679608  -55.823921  -36.366879  0
-5.941396  -55.467625  -36.036438  0
-6.103199  -55.909557  -36.198185  0
-6.419307  -55.731335  -36.027569  0
-6.859652  -55.668324  -35.940548  0
-7.309489  -55.651024  -35.889427  0
-7.688081  -55.640591  -35.817394  0
-4.119749  -56.180355  -36.189640  0
-6.438589  -56.082668  -36.110619  0
-6.840096  -56.193272  -36.013912  0
-7.293017  -56.136692  -35.920727  0
-7.696914  -56.082645  -35.837082  0
-4.072825  -56.561241  -36.112762  0
-6.609588  -56.442913  -36.140228  0
-6.749602  -56.813103  -36.177608  0
-6.982444  -56.734112  -36.054317  0
-7.328615  -56.672222  -35.938522  0
-7.718503  -56.593258  -35.828423  0
-4.122837  -57.033649  -35.971878  0
-4.378331  -57.423260  -36.280457  0
-6.993621  -57.090240  -36.131058  0
-7.346095  -57.239967  -35.997158  0
-7.737326  -57.125122  -35.828339  0
-4.486705  -57.833549  -36.124939  0
-7.080467  -57.523643  -36.184292  0
-7.432270  -57.841866  -36.023754  0
-7.754574  -57.671104  -35.839928  0
-4.619256  -58.285297  -35.965260  0
-4.974161  -58.479946  -36.306553  0
-7.123617  -58.056511  -36.200665  0
-7.429354  -58.332481  -36.010712  0
-7.743527  -58.203629  -35.833370  0
-5.061957  -58.697033  -36.233219  0
-4.866903  -58.686794  -36.015797  0
-5.304236  -58.890697  -36.137913  0
-5.943350  -58.937656  -36.209713  0
-6.448061  -58.928055  -36.177662  0
-7.122720  -58.613777  -36.074951  0
-6.823792  -58.902706  -36.069122  0
-7.420795  -58.626812  -35.949192  0
-7.647976  -58.618118  -35.814171  0
-5.186543  -59.168488  -35.864807  0
-5.620792  -59.197399  -35.944496  0
-6.184164  -59.199677  -35.975388  0
-6.658901  -59.181499  -35.906158  0
-6.334704  -54.911205  -35.714668  0
-6.337890  -54.686699  -35.442944  0
-6.662742  -54.865822  -35.686611  0
-6.877550  -54.579899  -35.438377  0
-7.229036  -54.831112  -35.593468  0
-7.195387  -54.554394  -35.392967  0
-4.858438  -55.415455  -35.509972  0
-5.123752  -55.322445  -35.760422  0
-6.050676  -55.032150  -35.730377  0
-5.547723  -55.221180  -35.748741  0
-5.870138  -54.895149  -35.412224  0
-7.607893  -55.073589  -35.649048  0
-7.722309  -55.341003  -35.738995  0
-7.996490  -55.229118  -35.510323  0
-8.352120  -55.281826  -35.292603  0
-4.501395  -55.602474  -35.759369  0
-4.238210  -55.864506  -35.546146  0
-7.960056  -55.579216  -35.687859  0
-8.368300  -55.734463  -35.451355  0
-4.054961  -56.188313  -35.820534  0
-8.041654  -55.979572  -35.705471  0
-8.408437  -56.328762  -35.534985  0
-8.751604  -56.200970  -35.303799  0
-4.016003  -56.620377  -35.648464  0
-8.077101  -56.482887  -35.705582  0
-8.400622  -56.839092  -35.540955  0
-8.722747  -56.676010  -35.360188  0
-4.081850  -57.121822  -35.461945  0
-4.225196  -57.485275  -35.822861  0
-8.081058  -56.987083  -35.689777  0
-8.342628  -57.268105  -35.543186  0
-8.650010  -57.206402  -35.360035  0
-4.342441  -57.898979  -35.628498  0
-4.177915  -57.546085  -35.457432  0
-8.084324  -57.490105  -35.668293  0
-8.414170  -57.726185  -35.442345  0
-4.455660  -58.242386  -35.579571  0
-8.075600  -58.029884  -35.634476  0
-8.349324  -58.314793  -35.383759  0
-4.606551  -58.651398  -35.527054  0
-4.918066  -58.989838  -35.812149  0
-7.455298  -58.908878  -35.759079  0
-8.030274  -58.621231  -35.540047  0
-7.761699  -58.900414  -35.601933  0
-8.318502  -58.659386  -35.318890  0
-5.001615  -59.214111  -35.718071  0
-4.833438  -59.157078  -35.505302  0
-5.251638  -59.406582  -35.611435  0
-5.880330  -59.460449  -35.719307  0
-6.409325  -59.456081  -35.708691  0
-7.122398  -59.174404  -35.690117  0
-6.802855  -59.444874  -35.607346  0
-7.437916  -59.183186  -35.529728  0
-7.680752  -59.157951  -35.421814  0
-5.216834  -59.658703  -35.294945  0
-5.616771  -59.692524  -35.438217  0
-6.129555  -59.716423  -35.467838  0
-6.606356  -59.720688  -35.394886  0
-6.381842  -54.499844  -34.961536  0
-6.781988  -54.415092  -35.100407  0
-7.219884  -54.416958  -35.136055  0
-6.058474  -54.691864  -35.132393  0
-5.811585  -54.895130  -34.971046  0
-7.518154  -54.559658  -35.238007  0
-7.758949  -54.828293  -35.381054  0
-7.985894  -54.578049  -34.999836  0
-8.288869  -54.867008  -35.073456  0
-8.288903  -54.589813  -34.844509  0
-4.954770  -55.467743  -34.989639  0
-5.598183  -55.068714  -35.231182  0
-5.266497  -55.272560  -35.238785  0
-8.571098  -55.143810  -35.049622  0
-8.827446  -55.276836  -34.899120  0
-4.586898  -55.665672  -35.152157  0
-4.288254  -55.965874  -35.145760  0
-4.817959  -55.608543  -34.824951  0
-8.615590  -55.463276  -35.174038  0
-8.857809  -55.783936  -35.098019  0
-8.827851  -55.519039  -35.018436  0
-4.093304  -56.230091  -35.369709  0
-4.244300  -56.320496  -34.963726  0
-9.069457  -56.137379  -35.052895  0
-9.332347  -56.320000  -34.878754  0
-4.083669  -56.668873  -35.200516  0
-4.255893  -56.783028  -34.850643  0
-9.038690  -56.504177  -35.144753  0
-9.296235  -56.757130  -34.945477  0
-4.132580  -57.049530  -35.079018  0
-4.282714  -57.257168  -34.869579  0
-8.981596  -56.954170  -35.169117  0
-8.896255  -57.344151  -35.165260  0
-9.203650  -57.298065  -34.938633  0
-4.169156  -57.408169  -35.167500  0
-4.249933  -57.734581  -35.272457  0
-4.296855  -57.637424  -35.014847  0
-8.704418  -57.607090  -35.251446  0
-8.918200  -57.712883  -35.057354  0
-9.183040  -57.823330  -34.813885  0
-4.408759  -58.083553  -35.176498  0
-8.642983  -58.047424  -35.195194  0
-8.913386  -58.237473  -34.899105  0
-4.515884  -58.556396  -35.032978  0
-8.583775  -58.627399  -35.060417  0
-8.282843  -58.913345  -35.204525  0
-8.847435  -58.622337  -34.814541  0
-4.648180  -59.026005  -35.049229  0
-4.919230  -59.431580  -35.202217  0
-7.533266  -59.461388  -35.132401  0
-7.991053  -59.052975  -35.324512  0
-7.964895  -59.322159  -35.023933  0
-8.230642  -59.183403  -35.015491  0
-5.090929  -59.691521  -34.949314  0
-5.455780  -59.846657  -35.109161  0
-5.857630  -59.885174  -35.231091  0
-6.300541  -59.988655  -35.127087  0
-7.082345  -59.702206  -35.190289  0
-6.745434  -59.965584  -35.097183  0
-7.397838  -59.734150  -34.915962  0
-6.253261  -60.199783  -34.795525  0
-6.625554  -60.196564  -34.832909  0
-6.466568  -54.489605  -34.501648  0
-6.809942  -54.348507  -34.630089  0
-7.264607  -54.304295  -34.684814  0
-7.775444  -54.372734  -34.724571  0
-8.300502  -54.442806  -34.593769  0
-6.110037  -54.722092  -34.633331  0
-5.841892  -54.990276  -34.567234  0
-6.314332  -54.623936  -34.369270  0
-8.570994  -54.595570  -34.632145  0
-8.845359  -54.863777  -34.626644  0
-8.851565  -54.581921  -34.398949  0
-5.594062  -55.205090  -34.661060  0
-5.263483  -55.450031  -34.640217  0
-5.795781  -55.149784  -34.367275  0
-9.103388  -55.154907  -34.571877  0
-9.374103  -55.285553  -34.383999  0
-5.040545  -55.667252  -34.530846  0
-4.771264  -55.832081  -34.646259  0
-5.269792  -55.631046  -34.332054  0
-9.088991  -55.498055  -34.765217  0
-9.353036  -55.852928  -34.690105  0
-9.360397  -55.540623  -34.533173  0
-4.498084  -56.035603  -34.797897  0
-4.756995  -56.240055  -34.428986  0
-9.610179  -56.167435  -34.591328  0
-9.876217  -56.328289  -34.398239  0
-4.487048  -56.489933  -34.622952  0
-4.766284  -56.734741  -34.331203  0
-9.595345  -56.544327  -34.689472  0
-9.866092  -56.784882  -34.467049  0
-4.498977  -57.015255  -34.588371  0
-4.771582  -57.279167  -34.341625  0
-9.567047  -57.026733  -34.702526  0
-9.854313  -57.283157  -34.432121  0
-4.498271  -57.619785  -34.705566  0
-4.770628  -57.841076  -34.379608  0
-9.561774  -57.626026  -34.577812  0
-9.373532  -58.014908  -34.596428  0
-9.851250  -57.616192  -34.360130  0
-4.563646  -58.206116  -34.719864  0
-4.760713  -58.381191  -34.395939  0
-9.179073  -58.202003  -34.683212  0
-9.371531  -58.384422  -34.443672  0
-4.599454  -58.701958  -34.704048  0
-4.748035  -58.846630  -34.417770  0
-9.105153  -58.639526  -34.556717  0
-8.806119  -58.906982  -34.695320  0
-9.361856  -58.665276  -34.318451  0
-4.658940  -59.051659  -34.657940  0
-4.862777  -59.361595  -34.662685  0
-4.754727  -59.124275  -34.480839  0
-8.001229  -59.591702  -34.545231  0
-8.511143  -59.072807  -34.856079  0
-8.402660  -59.359840  -34.593300  0
-8.737163  -59.196762  -34.515415  0
-5.121785  -59.673222  -34.567081  0
-5.378098  -59.869183  -34.693245  0
-5.355441  -59.762638  -34.332363  0
-5.839625  -60.031654  -34.840042  0
-7.646700  -59.806011  -34.588718  0
-7.330485  -59.963123  -34.717701  0
-7.900336  -59.789356  -34.330326  0
-6.101339  -60.215157  -34.490135  0
-6.489617  -60.329769  -34.520893  0
-7.008898  -60.096245  -34.812489  0
-6.919704  -60.315609  -34.484482  0
-7.240652  -60.210453  -34.479752  0
-6.881658  -54.442707  -34.094933  0
-7.302901  -54.313297  -34.160072  0
-7.810446  -54.286148  -34.154175  0
-8.330385  -54.319221  -34.142475  0
-8.777835  -54.430191  -34.176609  0
-6.548146  -54.641960  -34.072456  0
-6.272750  -54.821697  -34.159004  0
-6.808055  -54.597099  -33.857693  0
-9.109883  -54.590744  -34.142727  0
-9.372282  -54.876080  -34.100697  0
-9.360057  -54.591347  -33.859837  0
-6.034461  -55.092533  -34.145851  0
-5.784906  -55.350742  -34.132153  0
-6.267040  -55.030861  -33.930004  0
-9.632091  -55.160484  -34.046146  0
-9.875055  -55.267529  -33.843170  0
-5.542909  -55.610546  -34.125141  0
-5.283292  -55.868984  -34.127029  0
-5.793572  -55.565739  -33.888931  0
-9.640489  -55.493080  -34.243690  0
-9.879876  -55.851429  -34.196659  0
-9.907789  -55.510696  -33.982147  0
-5.024467  -56.041626  -34.263943  0
-5.297710  -56.282192  -33.928864  0
-10.127204  -56.175751  -34.118717  0
-10.369424  -56.321514  -33.886887  0
-5.034704  -56.495338  -34.113926  0
-5.306552  -56.753048  -33.848186  0
-10.141404  -56.565411  -34.196732  0
-10.387437  -56.796215  -33.929588  0
-5.044561  -56.998360  -34.075329  0
-5.309010  -57.254135  -33.841774  0
-10.134830  -57.062912  -34.205971  0
-10.365501  -57.286942  -33.906898  0
-5.042437  -57.526997  -34.090618  0
-5.301269  -57.778172  -33.850060  0
-10.113933  -57.615784  -34.076595  0
-9.851241  -57.926617  -34.218319  0
-10.346601  -57.592319  -33.821484  0
-5.023925  -58.066353  -34.107697  0
-5.278936  -58.310539  -33.856300  0
-9.607017  -58.159344  -34.335903  0
-9.847259  -58.359322  -33.981358  0
-4.992459  -58.591530  -34.132359  0
-5.247823  -58.807396  -33.892868  0
-9.607934  -58.657574  -34.050285  0
-9.330920  -58.920132  -34.172760  0
-9.845031  -58.633774  -33.788589  0
-4.978096  -59.074528  -34.223652  0
-5.253853  -59.435345  -34.127960  0
-5.229342  -59.126225  -33.962566  0
-8.463618  -59.596436  -34.042107  0
-9.032419  -59.076939  -34.336426  0
-8.882342  -59.367512  -34.089714  0
-9.239439  -59.202732  -33.992077  0
-5.534447  -59.688869  -34.027977  0
-5.768430  -59.941650  -34.217033  0
-5.734819  -59.718834  -33.876060  0
-8.111784  -59.807301  -34.026505  0
-7.818647  -59.977020  -34.156799  0
-8.347613  -59.745056  -33.812534  0
-6.143504  -60.180153  -34.153286  0
-6.363608  -60.320572  -34.260769  0
-6.492106  -60.233540  -33.929241  0
-6.793932  -60.368923  -34.115173  0
-6.863799  -60.279171  -33.744064  0
-7.526647  -60.112473  -34.319901  0
-7.306425  -60.319958  -34.100712  0
-7.673203  -60.193802  -33.984402  0
-7.338381  -54.444439  -33.699604  0
-7.839551  -54.387501  -33.577312  0
-8.357670  -54.317142  -33.619907  0
-8.837409  -54.345200  -33.663857  0
-9.202826  -54.454552  -33.750629  0
-7.091063  -54.644215  -33.604057  0
-6.775624  -54.833862  -33.664967  0
-7.370939  -54.588947  -33.445370  0
-7.639715  -54.585529  -33.313484  0
-9.519967  -54.631794  -33.545788  0
-9.738255  -54.951664  -33.682495  0
-6.471499  -54.965862  -33.806049  0
-6.292832  -55.263824  -33.723644  0
-6.663774  -55.285816  -33.448574  0
-9.960721  -55.111607  -33.500721  0
-6.005771  -55.473087  -33.796139  0
-5.853484  -55.787251  -33.707294  0
-6.265598  -55.718590  -33.475071  0
-6.663847  -55.759327  -33.234398  0
-10.115025  -55.472828  -33.639202  0
-10.269899  -55.912163  -33.816422  0
-10.377532  -55.712059  -33.437752  0
-5.577154  -56.052994  -33.792545  0
-5.939344  -56.245132  -33.476681  0
-6.378009  -56.178013  -33.239883  0
-10.507068  -56.060307  -33.522766  0
-5.578483  -56.511131  -33.655632  0
-5.809070  -56.729744  -33.456997  0
-6.133245  -56.708134  -33.240566  0
-10.570518  -56.497864  -33.580276  0
-5.568514  -56.990097  -33.619282  0
-5.860158  -57.190430  -33.369827  0
-10.560080  -56.983360  -33.582561  0
-5.567310  -57.500999  -33.610332  0
-5.811259  -57.764156  -33.366104  0
-10.487013  -57.436115  -33.565285  0
-10.319202  -57.809330  -33.564671  0
-5.552898  -58.037949  -33.605751  0
-5.801960  -58.297161  -33.352654  0
-10.069788  -58.106258  -33.798035  0
-5.534595  -58.563766  -33.613522  0
-5.795311  -58.789749  -33.378605  0
-9.991613  -58.505222  -33.575905  0
-9.818837  -58.853432  -33.504879  0
-5.507509  -59.062195  -33.696835  0
-5.749880  -59.425659  -33.642540  0
-5.779707  -59.105808  -33.448898  0
-8.858316  -59.548252  -33.530674  0
-9.519230  -59.074463  -33.765469  0
-9.274635  -59.342224  -33.621334  0
-6.003946  -59.721680  -33.683502  0
-6.234427  -59.990379  -33.802593  0
-6.435866  -59.723671  -33.386108  0
-6.765463  -60.005058  -33.469349  0
-6.734970  -59.723377  -33.206066  0
-8.511846  -59.702194  -33.639126  0
-8.198017  -59.875450  -33.527718  0
-7.130718  -60.203667  -33.503078  0
-7.213020  -60.333485  -33.746704  0
-7.510506  -60.188671  -33.443237  0
-7.915197  -60.068642  -33.788067  0
-7.613528  -60.260593  -33.720108  0
-7.849123  -60.108356  -33.494514  0
-8.385742  -54.448082  -33.155907  0
-8.839513  -54.411274  -33.209236  0
-9.256227  -54.452984  -33.329674  0
-7.442480  -54.854176  -33.211464  0
-8.085855  -54.643520  -33.022629  0
-7.797503  -54.834103  -33.011379  0
-8.418481  -54.597897  -32.884308  0
-8.738819  -54.588604  -32.858826  0
-9.510436  -54.584568  -33.194649  0
-9.262239  -54.615002  -32.952049  0
-9.734006  -54.841953  -33.173176  0
-7.068614  -55.043373  -33.329037  0
-7.353052  -55.319778  -33.039680  0
-7.728673  -55.197826  -32.867744  0
-10.041575  -55.159096  -33.238190  0
-9.885768  -55.096737  -32.856979  0
-10.220663  -55.419006  -33.080051  0
-6.994771  -55.484528  -33.166534  0
-6.904002  -55.835743  -33.090534  0
-7.181746  -55.761417  -32.974773  0
-7.573951  -55.711250  -32.772690  0
-10.492250  -55.809597  -33.061535  0
-10.300193  -55.539764  -32.747074  0
-6.690667  -56.087475  -33.107704  0
-6.919780  -56.136940  -32.973598  0
-7.246160  -56.160408  -32.781067  0
-10.626166  -56.212440  -33.227097  0
-6.571483  -56.551075  -32.987087  0
-6.311391  -56.949707  -33.025173  0
-6.923340  -56.461224  -32.807285  0
-10.660480  -56.608402  -33.168304  0
-6.119592  -57.132141  -33.147770  0
-6.281805  -57.321316  -32.936573  0
-10.619134  -57.098953  -33.146843  0
-6.057173  -57.529606  -33.136211  0
-6.274805  -57.776653  -32.868240  0
-10.501647  -57.533283  -33.157013  0
-10.371342  -57.835098  -33.108517  0
-10.455277  -57.595943  -32.817051  0
-6.047215  -58.032413  -33.105717  0
-6.314218  -58.278770  -32.835373  0
-10.184477  -58.189472  -33.226128  0
-6.068270  -58.549694  -33.103661  0
-6.402483  -58.791977  -32.854389  0
-10.016873  -58.632671  -33.107185  0
-9.862767  -58.957272  -32.997944  0
-6.064252  -59.052708  -33.212048  0
-6.228257  -59.429966  -33.287319  0
-6.413983  -59.164970  -32.994267  0
-6.709184  -59.428162  -32.988316  0
-6.637599  -59.079281  -32.794792  0
-8.809569  -59.537899  -32.947857  0
-9.613237  -59.178661  -33.281200  0
-9.278052  -59.392212  -33.121761  0
-7.044075  -59.724113  -33.067654  0
-7.305813  -59.989941  -33.234322  0
-7.531495  -59.719948  -32.923222  0
-7.827814  -59.939041  -33.195637  0
-8.024619  -59.695366  -32.877296  0
-8.535755  -59.707161  -33.276012  0
-8.225762  -59.797421  -33.137215  0
-8.410818  -59.666573  -32.950359  0
-8.473846  -54.849251  -32.665855  0
-8.984791  -54.845562  -32.598785  0
-9.476716  -54.903316  -32.700840  0
-8.079319  -55.030998  -32.738548  0
-8.337288  -55.208889  -32.486229  0
-8.702967  -55.192570  -32.345123  0
-9.625365  -55.129177  -32.506966  0
-9.210055  -55.117256  -32.367924  0
-9.972325  -55.331295  -32.561298  0
-8.045325  -55.548977  -32.512203  0
-7.792738  -55.955338  -32.536476  0
-8.403727  -55.452038  -32.309406  0
-10.180537  -55.542542  -32.400558  0
-10.412846  -55.742805  -32.615822  0
-7.551864  -56.102303  -32.642658  0
-7.412317  -56.360809  -32.586067  0
-7.693547  -56.336349  -32.402073  0
-10.577818  -56.147808  -32.723076  0
-7.158850  -56.628738  -32.550182  0
-6.797985  -56.843475  -32.654678  0
-7.442688  -56.584999  -32.408665  0
-7.632725  -56.671719  -32.210590  0
-10.639923  -56.682877  -32.670448  0
-6.512526  -57.072315  -32.784744  0
-6.739490  -57.294075  -32.468739  0
-10.565143  -57.192120  -32.657310  0
-10.418940  -57.469677  -32.453724  0
-6.495703  -57.528660  -32.651352  0
-6.764283  -57.767117  -32.352474  0
-10.298242  -57.867184  -32.738022  0
-6.540612  -58.018269  -32.582893  0
-6.908424  -58.306351  -32.317726  0
-10.079308  -58.311893  -32.659878  0
-9.962702  -58.203598  -32.263474  0
-6.624880  -58.505928  -32.590687  0
-6.708714  -58.860603  -32.641228  0
-6.965756  -58.778942  -32.457439  0
-7.347865  -58.735710  -32.235786  0
-9.960859  -58.740120  -32.754978  0
-9.857223  -58.923145  -32.710014  0
-9.799269  -58.701107  -32.442547  0
-6.931378  -59.121441  -32.654198  0
-7.217629  -59.433041  -32.756535  0
-7.342833  -59.118294  -32.479565  0
-7.727403  -59.445385  -32.632973  0
-7.880810  -59.129303  -32.333920  0
-8.327763  -59.472668  -32.635834  0
-8.496854  -59.221790  -32.326649  0
-8.800436  -59.396976  -32.564754  0
-8.995156  -59.194164  -32.343803  0
-9.624815  -59.125710  -32.775494  0
-9.199746  -59.332699  -32.670101  0
-9.421209  -59.045513  -32.395481  0
-8.966551  -55.438480  -32.106701  0
-9.516271  -55.372242  -32.190468  0
-9.909671  -55.453060  -32.228409  0
-8.608280  -55.527832  -32.151394  0
-8.348688  -55.765930  -32.181995  0
-8.677217  -55.792870  -31.967939  0
-9.169544  -55.740978  -31.834797  0
-10.050965  -55.574627  -32.158451  0
-9.779721  -55.643276  -31.945234  0
-10.262753  -55.831867  -32.166210  0
-8.039038  -56.066994  -32.272373  0
-8.346937  -56.148033  -31.974192  0
-8.719657  -56.152378  -31.716650  0
-10.507254  -56.309986  -32.200073  0
-10.291393  -56.117207  -31.837006  0
-7.403225  -56.929298  -32.191017  0
-8.005597  -56.573109  -31.999933  0
-7.721504  -56.907310  -31.995285  0
-8.383875  -56.455784  -31.768017  0
-10.531992  -56.799164  -32.213707  0
-10.357657  -56.511593  -31.825829  0
-7.042326  -57.092972  -32.324535  0
-7.354158  -57.392422  -32.012344  0
-7.696147  -57.257957  -31.864761  0
-10.478660  -57.157887  -32.247536  0
-10.373669  -57.340908  -32.176281  0
-10.281725  -57.114143  -31.915485  0
-7.020875  -57.547745  -32.165916  0
-7.387564  -57.851921  -31.941114  0
-7.820291  -57.752930  -31.770845  0
-10.178867  -57.733414  -32.233082  0
-9.953519  -57.973450  -32.064861  0
-9.884062  -57.690865  -31.815256  0
-7.085846  -58.004459  -32.105072  0
-7.224151  -58.373341  -32.103230  0
-7.442193  -58.265545  -31.970205  0
-7.832249  -58.221661  -31.854921  0
-8.367678  -58.202518  -31.739809  0
-8.965529  -58.246243  -31.728868  0
-9.716019  -58.288525  -32.044071  0
-9.446054  -58.087036  -31.762806  0
-7.490833  -58.564098  -32.049660  0
-7.731353  -58.809635  -32.113499  0
-7.812445  -58.585625  -31.975492  0
-8.156234  -58.922058  -32.106831  0
-8.281582  -58.617207  -31.925800  0
-8.674592  -58.958694  -32.104153  0
-8.809155  -58.616436  -31.910378  0
-9.508343  -58.728649  -32.167278  0
-9.151050  -58.893917  -32.124760  0
-9.292400  -58.516605  -31.940767  0
-9.520602  -55.927372  -31.605886  0
-9.977709  -55.931252  -31.708670  0
-9.110791  -56.072372  -31.572628  0
-8.909273  -56.363125  -31.501183  0
-9.330641  -56.329521  -31.416267  0
-10.082570  -56.268997  -31.567867  0
-9.754435  -56.138958  -31.474649  0
-8.622326  -56.522415  -31.580276  0
-8.369131  -56.799961  -31.641922  0
-8.894183  -56.797035  -31.413858  0
-9.393598  -56.726158  -31.334763  0
-10.076329  -56.729836  -31.559578  0
-9.751601  -56.498211  -31.395672  0
-8.024295  -57.065708  -31.746466  0
-8.481210  -57.264904  -31.495110  0
-8.945404  -57.260445  -31.373421  0
-9.254459  -57.058117  -31.335634  0
-9.978354  -57.179642  -31.600315  0
-9.718543  -57.419334  -31.529320  0
-9.678729  -57.003395  -31.400980  0
-8.082043  -57.488251  -31.627310  0
-8.248048  -57.830750  -31.606104  0
-8.433156  -57.656425  -31.507469  0
-8.655746  -57.939449  -31.567085  0
-8.820813  -57.609283  -31.446442  0
-9.531079  -57.728603  -31.591753  0
-9.137110  -57.879311  -31.560047  0
-9.317485  -57.447227  -31.421015  0
12 16 0 0
1 14 0 0
0 14 12 0
1 18 14 0
0 16 2 0
2 16 21 0
0 3 1 0
0 2 3 0
18 1 23 0
23 1 3 0
2 21 4 0
4 21 27 0
2 5 3 0
2 4 5 0
23 3 24 0
3 6 24 0
3 5 6 0
6 30 24 0
27 29 4 0
34 7 29 0
7 4 29 0
7 5 4 0
5 8 6 0
5 7 8 0
30 6 31 0
6 9 31 0
6 8 9 0
9 36 31 0
7 34 10 0
10 34 39 0
7 11 8 0
7 10 11 0
37 9 42 0
9 11 42 0
9 8 11 0
9 37 36 0
39 41 10 0
10 41 11 0
11 41 43 0
11 43 42 0
50 55 13 0
15 51 13 0
13 51 50 0
15 57 51 0
56 65 17 0
56 17 55 0
55 17 13 0
17 16 13 0
16 12 13 0
13 12 14 0
13 14 15 0
19 58 18 0
18 58 14 0
58 57 14 0
57 15 14 0
20 60 19 0
19 60 58 0
20 66 60 0
17 65 22 0
22 65 70 0
22 21 16 0
22 16 17 0
23 25 19 0
23 19 18 0
19 26 20 0
19 25 26 0
66 20 71 0
71 20 26 0
22 70 28 0
28 70 76 0
28 27 21 0
28 21 22 0
24 25 23 0
25 24 30 0
32 25 30 0
26 25 32 0
71 26 72 0
26 33 72 0
26 32 33 0
33 78 72 0
76 77 28 0
77 81 35 0
77 35 29 0
28 77 29 0
27 28 29 0
35 34 29 0
31 32 30 0
32 31 36 0
38 32 36 0
33 32 38 0
78 33 82 0
82 33 38 0
35 81 40 0
40 81 85 0
40 39 34 0
40 34 35 0
42 44 37 0
38 36 37 0
44 38 37 0
45 38 44 0
82 38 87 0
87 38 45 0
85 86 40 0
86 90 46 0
86 46 41 0
40 86 41 0
39 40 41 0
47 43 41 0
47 41 46 0
44 42 43 0
47 44 43 0
48 44 47 0
44 49 45 0
44 48 49 0
87 45 95 0
95 45 49 0
90 92 46 0
46 92 47 0
47 92 93 0
47 93 48 0
48 93 94 0
48 94 49 0
49 94 96 0
49 96 95 0
103 111 52 0
53 105 52 0
52 105 103 0
54 107 53 0
53 107 105 0
54 114 107 0
109 118 50 0
50 118 55 0
110 50 51 0
110 109 50 0
59 112 57 0
112 51 57 0
112 110 51 0
112 59 111 0
59 52 111 0
59 61 52 0
52 62 53 0
52 61 62 0
53 63 54 0
53 62 63 0
114 54 115 0
54 64 115 0
54 63 64 0
64 120 115 0
119 122 56 0
56 122 65 0
56 55 118 0
56 118 119 0
58 59 57 0
59 58 60 0
59 60 61 0
61 60 66 0
67 61 66 0
62 61 67 0
62 68 63 0
62 67 68 0
63 69 64 0
63 68 69 0
120 64 123 0
123 64 69 0
122 70 65 0
126 70 122 0
71 73 67 0
71 67 66 0
67 74 68 0
67 73 74 0
68 75 69 0
68 74 75 0
123 69 127 0
127 69 75 0
126 76 70 0
130 76 126 0
72 73 71 0
73 72 78 0
79 73 78 0
74 73 79 0
74 80 75 0
74 79 80 0
127 75 132 0
132 75 80 0
130 131 76 0
76 131 77 0
81 77 131 0
81 131 135 0
82 83 79 0
82 79 78 0
79 84 80 0
79 83 84 0
132 80 137 0
137 80 84 0
135 85 81 0
139 85 135 0
87 88 83 0
87 83 82 0
83 89 84 0
83 88 89 0
137 84 140 0
140 84 89 0
86 85 91 0
85 142 91 0
85 139 142 0
91 90 86 0
95 97 88 0
95 88 87 0
88 98 89 0
88 97 98 0
140 89 145 0
145 89 98 0
142 143 91 0
143 148 99 0
143 99 92 0
91 143 92 0
90 91 92 0
100 93 92 0
100 92 99 0
101 94 93 0
101 93 100 0
102 96 94 0
102 94 101 0
102 153 96 0
96 153 95 0
153 144 95 0
144 97 95 0
97 144 98 0
98 144 146 0
98 146 145 0
148 150 99 0
99 150 100 0
100 150 151 0
100 151 101 0
101 151 152 0
101 152 102 0
102 152 154 0
102 154 153 0
161 164 104 0
106 162 104 0
104 162 161 0
108 163 106 0
106 163 162 0
108 166 163 0
165 172 113 0
165 113 164 0
164 113 104 0
113 111 104 0
111 103 104 0
104 103 105 0
104 105 106 0
106 105 107 0
106 107 108 0
116 167 114 0
114 167 107 0
167 166 107 0
166 108 107 0
117 169 116 0
116 169 167 0
117 174 169 0
171 176 109 0
109 176 118 0
173 109 110 0
173 171 109 0
112 113 172 0
173 112 172 0
110 112 173 0
113 112 111 0
115 116 114 0
116 115 120 0
121 116 120 0
117 116 121 0
174 117 179 0
179 117 121 0
177 182 119 0
119 182 122 0
119 118 176 0
119 176 177 0
123 124 121 0
123 121 120 0
179 121 180 0
121 125 180 0
121 124 125 0
125 184 180 0
182 126 122 0
186 126 182 0
127 128 124 0
127 124 123 0
124 129 125 0
124 128 129 0
184 125 188 0
188 125 129 0
186 130 126 0
190 130 186 0
132 133 128 0
132 128 127 0
128 134 129 0
128 133 134 0
188 129 192 0
192 129 134 0
131 130 136 0
130 195 136 0
130 190 195 0
136 135 131 0
137 138 133 0
137 133 132 0
193 134 198 0
134 138 198 0
134 133 138 0
134 193 192 0
195 196 136 0
135 136 196 0
201 135 196 0
139 135 201 0
140 141 138 0
140 138 137 0
198 138 202 0
202 138 141 0
201 142 139 0
204 142 201 0
145 147 141 0
145 141 140 0
202 141 205 0
205 141 147 0
143 142 149 0
142 208 149 0
142 204 208 0
149 148 143 0
153 155 144 0
156 146 144 0
156 144 155 0
156 211 146 0
146 211 145 0
211 206 145 0
206 147 145 0
147 206 205 0
208 209 149 0
209 214 157 0
209 157 150 0
149 209 150 0
148 149 150 0
158 151 150 0
158 150 157 0
159 152 151 0
159 151 158 0
160 154 152 0
160 152 159 0
160 218 154 0
154 218 153 0
218 210 153 0
210 155 153 0
155 210 156 0
156 210 212 0
156 212 211 0
214 215 157 0
157 215 158 0
158 215 216 0
158 216 159 0
159 216 217 0
159 217 160 0
160 217 219 0
160 219 218 0
223 228 161 0
161 228 164 0
224 161 162 0
224 223 161 0
225 162 163 0
225 224 162 0
168 226 166 0
226 163 166 0
226 225 163 0
170 227 168 0
168 227 226 0
170 231 227 0
229 234 165 0
165 234 172 0
165 164 228 0
165 228 229 0
167 168 166 0
168 167 169 0
168 169 170 0
175 232 174 0
174 232 169 0
232 231 169 0
231 170 169 0
175 237 232 0
178 176 171 0
178 171 239 0
171 235 239 0
171 173 235 0
173 172 234 0
173 234 235 0
179 181 175 0
179 175 174 0
237 175 242 0
242 175 181 0
183 182 177 0
245 183 177 0
245 177 176 0
240 245 176 0
178 240 176 0
240 178 239 0
180 181 179 0
185 243 184 0
184 243 180 0
243 242 180 0
242 181 180 0
185 247 243 0
187 186 183 0
183 186 182 0
183 245 249 0
183 249 187 0
188 189 185 0
188 185 184 0
247 185 251 0
251 185 189 0
191 190 187 0
187 190 186 0
187 249 253 0
187 253 191 0
192 194 189 0
192 189 188 0
251 189 255 0
255 189 194 0
197 195 191 0
191 195 190 0
191 253 257 0
191 257 197 0
198 199 193 0
194 192 193 0
199 194 193 0
200 194 199 0
255 194 259 0
259 194 200 0
197 196 195 0
201 196 197 0
257 201 197 0
262 201 257 0
202 203 199 0
202 199 198 0
260 200 264 0
200 203 264 0
200 199 203 0
200 260 259 0
262 204 201 0
266 204 262 0
205 207 203 0
205 203 202 0
264 203 268 0
268 203 207 0
266 208 204 0
271 208 266 0
211 213 206 0
213 275 206 0
206 275 205 0
275 269 205 0
269 207 205 0
207 269 268 0
271 272 208 0
208 272 209 0
214 209 272 0
214 272 278 0
218 220 210 0
210 220 282 0
274 210 282 0
212 210 274 0
211 212 213 0
212 276 213 0
212 274 276 0
213 276 275 0
278 279 214 0
214 279 215 0
215 281 216 0
279 281 215 0
281 285 221 0
217 281 221 0
216 281 217 0
222 219 217 0
222 217 221 0
222 287 219 0
219 287 218 0
287 283 218 0
283 220 218 0
220 283 282 0
285 286 221 0
221 286 222 0
222 286 288 0
222 288 287 0
230 228 223 0
230 223 295 0
223 290 295 0
223 224 290 0
291 224 225 0
291 290 224 0
292 225 226 0
292 291 225 0
293 226 227 0
293 292 226 0
233 294 231 0
294 227 231 0
294 293 227 0
233 298 294 0
236 234 229 0
301 236 229 0
301 229 228 0
296 301 228 0
230 296 228 0
296 230 295 0
232 233 231 0
238 299 237 0
237 299 232 0
299 298 232 0
298 233 232 0
238 304 299 0
241 239 235 0
306 241 235 0
306 235 234 0
302 306 234 0
236 302 234 0
302 236 301 0
242 244 238 0
242 238 237 0
304 238 309 0
309 238 244 0
246 245 240 0
312 246 240 0
312 240 239 0
307 312 239 0
241 307 239 0
307 241 306 0
243 244 242 0
248 310 247 0
247 310 243 0
310 309 243 0
309 244 243 0
248 314 310 0
250 249 246 0
246 249 245 0
246 312 316 0
246 316 250 0
251 252 248 0
251 248 247 0
314 248 318 0
318 248 252 0
254 253 250 0
250 253 249 0
250 316 320 0
250 320 254 0
255 256 252 0
255 252 251 0
318 252 322 0
322 252 256 0
258 257 254 0
254 257 253 0
254 320 324 0
254 324 258 0
259 261 256 0
259 256 255 0
322 256 326 0
326 256 261 0
263 262 258 0
258 262 257 0
258 324 329 0
258 329 263 0
264 265 260 0
265 331 260 0
260 331 259 0
331 327 259 0
327 261 259 0
261 327 326 0
267 266 263 0
263 266 262 0
263 329 333 0
263 333 267 0
268 270 265 0
268 265 264 0
331 265 335 0
335 265 270 0
273 271 267 0
267 271 266 0
267 333 338 0
267 338 273 0
275 277 269 0
277 342 269 0
269 342 268 0
342 336 268 0
336 270 268 0
270 336 335 0
273 272 271 0
339 280 278 0
339 278 272 0
338 339 272 0
273 338 272 0
345 280 339 0
282 284 274 0
274 284 348 0
341 274 348 0
276 274 341 0
275 276 277 0
276 343 277 0
276 341 343 0
277 343 342 0
280 279 278 0
345 346 280 0
346 279 280 0
346 281 279 0
285 281 346 0
285 346 351 0
287 289 283 0
289 356 283 0
283 356 282 0
356 349 282 0
349 284 282 0
284 349 348 0
351 352 285 0
285 352 286 0
286 354 288 0
352 354 286 0
287 288 289 0
288 357 289 0
288 354 357 0
289 357 356 0
297 295 290 0
297 290 364 0
290 359 364 0
290 291 359 0
360 291 292 0
360 359 291 0
361 292 293 0
361 360 292 0
362 293 294 0
362 361 293 0
300 363 298 0
363 294 298 0
363 362 294 0
300 368 363 0
303 301 296 0
370 303 296 0
370 296 295 0
365 370 295 0
297 365 295 0
365 297 364 0
299 300 298 0
305 369 304 0
304 369 299 0
369 368 299 0
368 300 299 0
305 373 369 0
308 306 302 0
374 308 302 0
374 302 301 0
371 374 301 0
303 371 301 0
371 303 370 0
309 311 305 0
309 305 304 0
373 305 378 0
378 305 311 0
313 312 307 0
381 313 307 0
381 307 306 0
375 381 306 0
308 375 306 0
375 308 374 0
310 311 309 0
315 379 314 0
314 379 310 0
379 378 310 0
378 311 310 0
315 384 379 0
317 316 313 0
313 316 312 0
313 381 385 0
313 385 317 0
318 319 315 0
318 315 314 0
384 315 388 0
388 315 319 0
321 320 317 0
317 320 316 0
317 385 389 0
317 389 321 0
322 323 319 0
322 319 318 0
388 319 391 0
391 319 323 0
325 324 321 0
321 324 320 0
321 389 392 0
321 392 325 0
326 328 323 0
326 323 322 0
391 323 394 0
394 323 328 0
330 329 325 0
325 329 324 0
325 392 396 0
325 396 330 0
331 332 327 0
332 398 327 0
327 398 326 0
398 395 326 0
395 328 326 0
328 395 394 0
334 333 330 0
330 333 329 0
330 396 399 0
330 399 334 0
335 337 332 0
335 332 331 0
398 332 401 0
401 332 337 0
340 338 334 0
334 338 333 0
334 399 403 0
334 403 340 0
342 344 336 0
344 407 336 0
336 407 335 0
407 402 335 0
402 337 335 0
337 402 401 0
340 339 338 0
404 347 345 0
404 345 339 0
403 404 339 0
340 403 339 0
409 347 404 0
348 350 341 0
341 350 414 0
406 341 414 0
343 341 406 0
342 343 344 0
343 408 344 0
343 406 408 0
344 408 407 0
347 346 345 0
410 353 351 0
410 351 346 0
409 410 346 0
347 409 346 0
412 355 353 0
412 353 410 0
416 355 412 0
356 358 349 0
358 419 349 0
349 419 348 0
419 415 348 0
415 350 348 0
350 415 414 0
353 352 351 0
352 353 354 0
354 353 355 0
416 417 355 0
417 354 355 0
417 357 354 0
356 357 358 0
357 420 358 0
357 417 420 0
358 420 419 0
366 364 359 0
360 367 359 0
359 367 366 0
367 360 426 0
360 422 426 0
360 361 422 0
423 361 362 0
423 422 361 0
424 362 363 0
424 423 362 0
363 368 424 0
424 368 430 0
372 370 365 0
433 372 365 0
433 365 364 0
425 433 364 0
366 425 364 0
425 366 367 0
425 367 427 0
427 367 426 0
432 430 368 0
432 368 369 0
369 373 432 0
432 373 436 0
376 374 371 0
370 372 371 0
372 376 371 0
372 377 376 0
372 433 439 0
372 439 377 0
378 380 438 0
436 378 438 0
373 378 436 0
380 443 438 0
382 381 375 0
374 376 375 0
376 382 375 0
376 383 382 0
377 440 445 0
383 377 445 0
376 377 383 0
440 377 439 0
379 380 378 0
379 384 380 0
384 443 380 0
384 448 443 0
386 385 382 0
382 385 381 0
387 382 383 0
386 382 387 0
383 445 449 0
383 449 387 0
388 448 384 0
388 452 448 0
390 389 386 0
386 389 385 0
387 450 453 0
390 387 453 0
386 387 390 0
450 387 449 0
391 452 388 0
391 455 452 0
393 392 390 0
390 392 389 0
390 453 456 0
390 456 393 0
394 455 391 0
394 458 455 0
397 396 393 0
393 396 392 0
393 456 461 0
393 461 397 0
463 459 395 0
463 395 398 0
394 395 458 0
458 395 459 0
400 399 397 0
397 399 396 0
397 461 464 0
397 464 400 0
401 463 398 0
401 466 463 0
405 403 400 0
400 403 399 0
400 464 468 0
400 468 405 0
474 467 402 0
474 402 407 0
401 402 466 0
466 402 467 0
405 404 403 0
469 411 409 0
469 409 404 0
468 469 404 0
405 468 404 0
471 413 411 0
471 411 469 0
476 413 471 0
481 473 406 0
481 406 414 0
406 475 408 0
473 475 406 0
407 408 474 0
474 408 475 0
411 410 409 0
410 411 412 0
412 411 413 0
477 418 416 0
477 416 412 0
476 477 412 0
413 476 412 0
479 421 418 0
479 418 477 0
415 419 421 0
479 415 421 0
482 415 479 0
414 415 481 0
481 415 482 0
418 417 416 0
417 418 420 0
420 418 421 0
420 421 419 0
428 426 422 0
423 429 422 0
422 429 428 0
424 431 423 0
423 431 429 0
430 431 424 0
434 433 425 0
427 435 425 0
425 435 434 0
487 435 427 0
487 427 426 0
484 487 426 0
428 484 426 0
484 428 429 0
484 429 485 0
485 429 431 0
485 431 486 0
490 486 437 0
437 486 432 0
486 431 432 0
431 430 432 0
436 437 432 0
441 439 434 0
434 439 433 0
442 434 435 0
441 434 442 0
435 487 493 0
435 493 442 0
492 490 437 0
496 492 444 0
444 492 438 0
492 437 438 0
437 436 438 0
443 444 438 0
446 445 440 0
439 441 440 0
441 446 440 0
441 447 446 0
442 494 498 0
447 442 498 0
441 442 447 0
494 442 493 0
497 496 444 0
444 443 497 0
443 501 497 0
443 448 501 0
451 449 446 0
446 449 445 0
447 499 502 0
451 447 502 0
446 447 451 0
499 447 498 0
452 501 448 0
452 506 501 0
454 453 450 0
507 454 450 0
507 450 449 0
503 507 449 0
451 503 449 0
503 451 502 0
455 506 452 0
455 509 506 0
457 456 454 0
454 456 453 0
454 507 511 0
454 511 457 0
513 510 460 0
510 509 460 0
509 458 460 0
509 455 458 0
462 461 457 0
457 461 456 0
457 511 514 0
457 514 462 0
513 460 459 0
463 513 459 0
516 513 463 0
459 460 458 0
465 464 462 0
462 464 461 0
462 514 518 0
462 518 465 0
466 516 463 0
466 522 516 0
470 468 465 0
465 468 464 0
465 518 519 0
472 465 519 0
470 465 472 0
525 472 519 0
534 523 467 0
534 467 474 0
466 467 522 0
522 467 523 0
470 469 468 0
469 470 471 0
471 470 472 0
526 478 476 0
526 476 471 0
525 526 471 0
472 525 471 0
528 480 478 0
528 478 526 0
530 483 480 0
530 480 528 0
473 481 483 0
530 473 483 0
532 473 530 0
473 535 475 0
532 535 473 0
474 475 534 0
534 475 535 0
478 477 476 0
477 478 479 0
479 478 480 0
479 480 482 0
482 480 483 0
482 483 481 0
488 487 484 0
485 489 484 0
484 489 488 0
486 491 485 0
485 491 489 0
490 491 486 0
495 493 488 0
488 493 487 0
489 537 540 0
495 489 540 0
488 489 495 0
537 489 491 0
537 491 538 0
538 491 490 0
492 538 490 0
539 538 492 0
492 496 539 0
539 496 544 0
500 498 494 0
547 500 494 0
547 494 493 0
541 547 493 0
495 541 493 0
541 495 540 0
546 544 496 0
546 496 497 0
497 501 546 0
546 501 550 0
504 502 499 0
498 500 499 0
500 504 499 0
500 505 504 0
500 547 553 0
500 553 505 0
506 550 501 0
506 556 550 0
508 507 503 0
558 508 503 0
558 503 502 0
552 558 502 0
504 552 502 0
552 504 505 0
552 505 554 0
554 505 553 0
509 556 506 0
509 561 556 0
512 511 508 0
508 511 507 0
508 558 564 0
508 564 512 0
567 562 510 0
567 510 513 0
509 510 561 0
561 510 562 0
515 514 512 0
512 514 511 0
512 564 570 0
512 570 515 0
576 568 517 0
568 567 517 0
567 516 517 0
567 513 516 0
520 518 515 0
515 518 514 0
515 570 571 0
521 515 571 0
520 515 521 0
578 521 571 0
576 517 524 0
576 524 585 0
522 524 516 0
516 524 517 0
520 519 518 0
519 520 525 0
520 527 525 0
520 521 527 0
521 578 579 0
529 521 579 0
527 521 529 0
581 531 529 0
581 529 579 0
583 533 531 0
583 531 581 0
586 536 533 0
586 533 583 0
536 586 585 0
536 585 524 0
534 536 524 0
523 534 524 0
523 524 522 0
527 526 525 0
526 527 528 0
528 527 529 0
528 529 530 0
530 529 531 0
530 531 532 0
532 531 533 0
532 533 535 0
535 533 536 0
535 536 534 0
542 540 537 0
538 543 537 0
537 543 542 0
539 545 538 0
538 545 543 0
544 545 539 0
548 547 541 0
540 542 541 0
542 548 541 0
542 549 548 0
543 588 590 0
549 543 590 0
542 543 549 0
588 543 545 0
588 545 589 0
593 589 551 0
551 589 546 0
589 545 546 0
545 544 546 0
550 551 546 0
555 553 548 0
548 553 547 0
549 591 595 0
555 549 595 0
548 549 555 0
591 549 590 0
593 551 557 0
593 557 599 0
556 557 550 0
550 557 551 0
559 558 552 0
554 560 552 0
552 560 559 0
601 560 554 0
601 554 553 0
596 601 553 0
555 596 553 0
596 555 595 0
599 557 563 0
599 563 605 0
561 563 556 0
556 563 557 0
565 564 559 0
559 564 558 0
566 559 560 0
565 559 566 0
560 601 608 0
560 608 566 0
613 606 569 0
569 606 605 0
569 605 563 0
567 569 563 0
562 567 563 0
562 563 561 0
572 570 565 0
565 570 564 0
573 565 566 0
572 565 573 0
566 608 609 0
574 566 609 0
573 566 574 0
611 575 574 0
611 574 609 0
614 577 575 0
614 575 611 0
577 614 613 0
577 613 569 0
576 577 569 0
568 576 569 0
568 569 567 0
572 571 570 0
571 572 578 0
572 580 578 0
572 573 580 0
582 573 574 0
580 573 582 0
584 574 575 0
582 574 584 0
587 575 577 0
584 575 587 0
585 587 576 0
576 587 577 0
580 579 578 0
579 580 581 0
581 580 582 0
581 582 583 0
583 582 584 0
583 584 586 0
586 584 587 0
586 587 585 0
592 590 588 0
589 594 588 0
588 594 592 0
593 594 589 0
597 595 591 0
590 592 591 0
592 597 591 0
592 598 597 0
600 592 594 0
598 592 600 0
599 600 593 0
593 600 594 0
602 601 596 0
595 597 596 0
597 602 596 0
597 603 602 0
604 597 598 0
603 597 604 0
607 598 600 0
604 598 607 0
605 607 599 0
599 607 600 0
610 608 602 0
602 608 601 0
612 602 603 0
610 602 612 0
615 603 604 0
612 603 615 0
613 615 606 0
615 607 606 0
615 604 607 0
606 607 605 0
610 609 608 0
609 610 611 0
611 610 612 0
611 612 614 0
614 612 615 0
614 615 613 0
