#!ascii version in FreeSurfer format (SUMA)
412 822
9.185249  -54.151493  -35.396866  0
10.685249  -53.651493  -34.896866  0
10.185249  -53.651493  -34.896866  0
9.685249  -53.651493  -34.896866  0
9.185249  -53.901493  -35.146866  0
9.185249  -53.651493  -34.896866  0
10.685249  -54.151493  -34.896866  0
10.185249  -54.151493  -34.896866  0
9.435249  -54.151493  -35.146866  0
9.685249  -54.151493  -34.896866  0
8.935249  -54.151493  -35.146866  0
9.185249  -54.401493  -35.146866  0
10.685249  -54.651493  -34.896866  0
10.185249  -54.651493  -34.896866  0
9.685249  -54.651493  -34.896866  0
9.185249  -54.651493  -34.896866  0
10.685249  -55.151493  -34.896866  0
10.185249  -55.151493  -34.896866  0
9.685249  -55.151493  -34.896866  0
10.185249  -55.651493  -34.896866  0
9.685249  -55.651493  -34.896866  0
9.185249  -55.651493  -34.896866  0
10.185249  -56.151493  -34.896866  0
9.685249  -56.151493  -34.896866  0
10.685249  -52.151493  -34.396866  0
10.685249  -52.651493  -34.396866  0
10.185249  -52.651493  -34.396866  0
9.685249  -52.651493  -34.396866  0
10.685249  -53.401493  -34.646866  0
10.685249  -53.151493  -34.396866  0
10.185249  -53.401493  -34.646866  0
10.185249  -53.151493  -34.396866  0
9.685249  -53.401493  -34.646866  0
9.685249  -53.151493  -34.396866  0
9.185249  -53.401493  -34.646866  0
10.935249  -53.651493  -34.646866  0
11.185249  -53.651493  -34.396866  0
8.935249  -53.651493  -34.646866  0
11.685249  -54.151493  -34.396866  0
10.935249  -54.151493  -34.646866  0
11.185249  -54.151493  -34.396866  0
8.935249  -54.151493  -34.646866  0
11.685249  -54.651493  -34.396866  0
10.935249  -54.651493  -34.646866  0
11.185249  -54.651493  -34.396866  0
8.935249  -54.651493  -34.646866  0
9.185249  -54.901493  -34.646866  0
11.685249  -55.151493  -34.396866  0
10.935249  -55.151493  -34.646866  0
11.185249  -55.151493  -34.396866  0
10.685249  -55.401493  -34.646866  0
9.435249  -55.151493  -34.646866  0
9.185249  -55.401493  -34.646866  0
9.185249  -55.151493  -34.396866  0
11.185249  -55.651493  -34.396866  0
10.435249  -55.651493  -34.646866  0
10.685249  -55.651493  -34.396866  0
8.935249  -55.651493  -34.646866  0
9.185249  -55.901493  -34.646866  0
11.185249  -56.151493  -34.396866  0
10.435249  -56.151493  -34.646866  0
10.685249  -56.151493  -34.396866  0
10.185249  -56.401493  -34.646866  0
9.435249  -56.151493  -34.646866  0
9.685249  -56.401493  -34.646866  0
10.685249  -51.901493  -34.146866  0
10.935249  -52.151493  -34.146866  0
11.185249  -52.151493  -33.896866  0
10.435249  -52.151493  -34.146866  0
10.185249  -52.401493  -34.146866  0
10.185249  -52.151493  -33.896866  0
9.685249  -52.401493  -34.146866  0
11.685249  -52.651493  -33.896866  0
10.935249  -52.651493  -34.146866  0
11.185249  -52.651493  -33.896866  0
9.435249  -52.651493  -34.146866  0
11.685249  -53.151493  -33.896866  0
10.935249  -53.151493  -34.146866  0
11.185249  -53.401493  -34.146866  0
11.185249  -53.151493  -33.896866  0
9.435249  -53.151493  -34.146866  0
9.185249  -53.401493  -34.146866  0
12.185249  -53.651493  -33.896866  0
11.435249  -53.651493  -34.146866  0
11.685249  -53.901493  -34.146866  0
11.685249  -53.651493  -33.896866  0
8.935249  -53.651493  -34.146866  0
9.185249  -53.651493  -33.896866  0
11.935249  -54.151493  -34.146866  0
12.185249  -54.151493  -33.896866  0
8.935249  -54.151493  -34.146866  0
12.685249  -54.651493  -33.896866  0
11.935249  -54.651493  -34.146866  0
12.185249  -54.651493  -33.896866  0
8.935249  -54.651493  -34.146866  0
9.185249  -54.651493  -33.896866  0
12.685249  -55.151493  -33.896866  0
11.935249  -55.151493  -34.146866  0
12.185249  -55.151493  -33.896866  0
11.685249  -55.401493  -34.146866  0
8.935249  -55.151493  -34.146866  0
9.185249  -55.151493  -33.896866  0
12.185249  -55.651493  -33.896866  0
11.435249  -55.651493  -34.146866  0
11.685249  -55.651493  -33.896866  0
8.935249  -55.651493  -34.146866  0
9.185249  -55.901493  -34.146866  0
11.435249  -56.151493  -34.146866  0
11.685249  -56.151493  -33.896866  0
11.185249  -56.401493  -34.146866  0
10.685249  -56.401493  -34.146866  0
10.185249  -56.401493  -34.146866  0
9.435249  -56.151493  -34.146866  0
9.685249  -56.401493  -34.146866  0
9.685249  -56.151493  -33.896866  0
10.685249  -56.651493  -33.896866  0
10.185249  -56.651493  -33.896866  0
11.185249  -51.901493  -33.646866  0
11.185249  -51.651493  -33.396866  0
10.685249  -51.901493  -33.646866  0
10.185249  -51.901493  -33.646866  0
11.435249  -52.151493  -33.646866  0
11.685249  -52.401493  -33.646866  0
11.685249  -52.151493  -33.396866  0
9.935249  -52.151493  -33.646866  0
9.685249  -52.401493  -33.646866  0
11.935249  -52.651493  -33.646866  0
12.185249  -52.651493  -33.396866  0
9.435249  -52.651493  -33.646866  0
9.685249  -52.651493  -33.396866  0
12.685249  -53.151493  -33.396866  0
11.935249  -53.151493  -33.646866  0
12.185249  -53.401493  -33.646866  0
12.185249  -53.151493  -33.396866  0
9.435249  -53.151493  -33.646866  0
9.685249  -53.151493  -33.396866  0
12.435249  -53.651493  -33.646866  0
12.685249  -53.651493  -33.396866  0
9.435249  -53.651493  -33.646866  0
9.185249  -53.901493  -33.646866  0
12.435249  -54.151493  -33.646866  0
12.685249  -54.401493  -33.646866  0
12.685249  -54.151493  -33.396866  0
8.935249  -54.151493  -33.646866  0
9.185249  -54.401493  -33.646866  0
9.185249  -54.151493  -33.396866  0
12.935249  -54.651493  -33.646866  0
13.185249  -54.651493  -33.396866  0
9.435249  -54.651493  -33.646866  0
12.935249  -55.151493  -33.646866  0
13.185249  -55.151493  -33.396866  0
12.685249  -55.401493  -33.646866  0
9.435249  -55.151493  -33.646866  0
9.185249  -55.401493  -33.646866  0
12.435249  -55.651493  -33.646866  0
12.685249  -55.651493  -33.396866  0
12.185249  -55.901493  -33.646866  0
9.685249  -55.901493  -33.646866  0
8.935249  -55.651493  -33.646866  0
9.185249  -55.901493  -33.646866  0
9.185249  -55.651493  -33.396866  0
11.935249  -56.151493  -33.646866  0
12.185249  -56.151493  -33.396866  0
11.685249  -56.401493  -33.646866  0
11.185249  -56.401493  -33.646866  0
9.935249  -56.151493  -33.646866  0
10.935249  -56.651493  -33.646866  0
11.185249  -56.651493  -33.396866  0
10.685249  -56.901493  -33.646866  0
9.935249  -56.651493  -33.646866  0
10.185249  -56.901493  -33.646866  0
10.185249  -56.651493  -33.396866  0
11.185249  -51.401493  -33.146866  0
12.185249  -51.651493  -32.896866  0
11.435249  -51.651493  -33.146866  0
11.685249  -51.901493  -33.146866  0
11.685249  -51.651493  -32.896866  0
10.935249  -51.651493  -33.146866  0
11.185249  -51.651493  -32.896866  0
10.685249  -51.901493  -33.146866  0
10.185249  -51.901493  -33.146866  0
11.935249  -52.151493  -33.146866  0
12.185249  -52.401493  -33.146866  0
12.185249  -52.151493  -32.896866  0
9.935249  -52.151493  -33.146866  0
10.185249  -52.151493  -32.896866  0
12.435249  -52.651493  -33.146866  0
12.685249  -52.901493  -33.146866  0
9.935249  -52.651493  -33.146866  0
10.185249  -52.651493  -32.896866  0
12.935249  -53.151493  -33.146866  0
13.185249  -53.151493  -32.896866  0
9.935249  -53.151493  -33.146866  0
10.185249  -53.151493  -32.896866  0
9.685249  -53.401493  -33.146866  0
12.935249  -53.651493  -33.146866  0
13.185249  -53.651493  -32.896866  0
9.435249  -53.651493  -33.146866  0
9.685249  -53.651493  -32.896866  0
12.935249  -54.151493  -33.146866  0
13.185249  -54.401493  -33.146866  0
13.185249  -54.151493  -32.896866  0
9.435249  -54.151493  -33.146866  0
9.685249  -54.151493  -32.896866  0
13.435249  -54.651493  -33.146866  0
9.435249  -54.651493  -33.146866  0
9.685249  -54.651493  -32.896866  0
13.435249  -55.151493  -33.146866  0
13.185249  -55.401493  -33.146866  0
9.435249  -55.151493  -33.146866  0
9.685249  -55.151493  -32.896866  0
12.935249  -55.651493  -33.146866  0
12.685249  -55.901493  -33.146866  0
10.185249  -55.651493  -32.896866  0
9.435249  -55.651493  -33.146866  0
9.685249  -55.901493  -33.146866  0
9.685249  -55.651493  -32.896866  0
12.435249  -56.151493  -33.146866  0
12.185249  -56.401493  -33.146866  0
11.685249  -56.401493  -33.146866  0
9.935249  -56.151493  -33.146866  0
10.185249  -56.401493  -33.146866  0
10.185249  -56.151493  -32.896866  0
11.435249  -56.651493  -33.146866  0
11.685249  -56.651493  -32.896866  0
11.185249  -56.901493  -33.146866  0
10.435249  -56.651493  -33.146866  0
10.685249  -56.901493  -33.146866  0
10.685249  -56.651493  -32.896866  0
12.185249  -51.401493  -32.646866  0
11.685249  -51.401493  -32.646866  0
12.435249  -51.651493  -32.646866  0
11.435249  -51.651493  -32.646866  0
11.685249  -51.651493  -32.396866  0
11.185249  -51.901493  -32.646866  0
10.685249  -51.901493  -32.646866  0
12.435249  -52.151493  -32.646866  0
11.185249  -52.151493  -32.396866  0
10.435249  -52.151493  -32.646866  0
10.685249  -52.151493  -32.396866  0
13.185249  -52.901493  -32.646866  0
12.435249  -52.651493  -32.646866  0
12.685249  -52.901493  -32.646866  0
12.685249  -52.651493  -32.396866  0
10.435249  -52.651493  -32.646866  0
10.685249  -52.651493  -32.396866  0
13.435249  -53.151493  -32.646866  0
10.435249  -53.151493  -32.646866  0
10.685249  -53.151493  -32.396866  0
10.185249  -53.401493  -32.646866  0
13.435249  -53.651493  -32.646866  0
9.935249  -53.651493  -32.646866  0
10.185249  -53.651493  -32.396866  0
13.435249  -54.151493  -32.646866  0
9.935249  -54.151493  -32.646866  0
10.185249  -54.151493  -32.396866  0
13.435249  -54.651493  -32.646866  0
13.685249  -54.651493  -32.396866  0
9.935249  -54.651493  -32.646866  0
10.185249  -54.651493  -32.396866  0
13.435249  -55.151493  -32.646866  0
13.185249  -55.401493  -32.646866  0
9.935249  -55.151493  -32.646866  0
10.185249  -55.401493  -32.646866  0
10.185249  -55.151493  -32.396866  0
12.935249  -55.651493  -32.646866  0
13.185249  -55.651493  -32.396866  0
12.685249  -55.901493  -32.646866  0
10.435249  -55.651493  -32.646866  0
10.685249  -55.651493  -32.396866  0
12.435249  -56.151493  -32.646866  0
12.685249  -56.151493  -32.396866  0
12.185249  -56.401493  -32.646866  0
10.435249  -56.151493  -32.646866  0
10.685249  -56.401493  -32.646866  0
10.685249  -56.151493  -32.396866  0
11.935249  -56.651493  -32.646866  0
11.685249  -56.901493  -32.646866  0
10.935249  -56.651493  -32.646866  0
11.185249  -56.901493  -32.646866  0
11.185249  -56.651493  -32.396866  0
12.185249  -51.401493  -32.146866  0
12.435249  -51.651493  -32.146866  0
11.935249  -51.651493  -32.146866  0
12.185249  -51.651493  -31.896866  0
11.685249  -51.901493  -32.146866  0
12.435249  -52.151493  -32.146866  0
12.685249  -52.401493  -32.146866  0
12.185249  -52.151493  -31.896866  0
11.435249  -52.151493  -32.146866  0
11.685249  -52.151493  -31.896866  0
11.185249  -52.401493  -32.146866  0
12.935249  -52.651493  -32.146866  0
13.185249  -52.901493  -32.146866  0
10.935249  -52.651493  -32.146866  0
11.185249  -52.651493  -31.896866  0
13.435249  -53.151493  -32.146866  0
13.185249  -53.151493  -31.896866  0
10.935249  -53.151493  -32.146866  0
11.185249  -53.151493  -31.896866  0
10.685249  -53.401493  -32.146866  0
13.435249  -53.651493  -32.146866  0
13.185249  -53.651493  -31.896866  0
10.435249  -53.651493  -32.146866  0
10.685249  -53.651493  -31.896866  0
13.435249  -54.151493  -32.146866  0
13.685249  -54.401493  -32.146866  0
10.435249  -54.151493  -32.146866  0
10.685249  -54.151493  -31.896866  0
13.935249  -54.651493  -32.146866  0
13.685249  -54.901493  -32.146866  0
10.435249  -54.651493  -32.146866  0
10.685249  -54.651493  -31.896866  0
13.435249  -55.151493  -32.146866  0
10.435249  -55.151493  -32.146866  0
10.685249  -55.401493  -32.146866  0
10.685249  -55.151493  -31.896866  0
13.435249  -55.651493  -32.146866  0
13.185249  -55.901493  -32.146866  0
10.935249  -55.651493  -32.146866  0
11.185249  -55.651493  -31.896866  0
12.935249  -56.151493  -32.146866  0
12.685249  -56.401493  -32.146866  0
12.185249  -56.401493  -32.146866  0
11.685249  -56.151493  -31.896866  0
10.935249  -56.151493  -32.146866  0
11.185249  -56.401493  -32.146866  0
11.185249  -56.151493  -31.896866  0
11.935249  -56.651493  -32.146866  0
11.435249  -56.651493  -32.146866  0
11.685249  -56.901493  -32.146866  0
11.685249  -56.651493  -31.896866  0
12.685249  -52.401493  -31.646866  0
12.185249  -52.401493  -31.646866  0
11.685249  -52.401493  -31.646866  0
12.935249  -52.651493  -31.646866  0
12.685249  -52.651493  -31.396866  0
12.185249  -52.651493  -31.396866  0
11.435249  -52.651493  -31.646866  0
11.685249  -52.651493  -31.396866  0
12.935249  -53.151493  -31.646866  0
12.685249  -53.151493  -31.396866  0
12.185249  -53.151493  -31.396866  0
11.435249  -53.151493  -31.646866  0
11.685249  -53.151493  -31.396866  0
11.185249  -53.401493  -31.646866  0
12.935249  -53.651493  -31.646866  0
13.185249  -53.901493  -31.646866  0
12.685249  -53.651493  -31.396866  0
11.685249  -53.651493  -31.396866  0
10.935249  -53.651493  -31.646866  0
11.185249  -53.651493  -31.396866  0
13.435249  -54.151493  -31.646866  0
13.685249  -54.401493  -31.646866  0
13.185249  -54.151493  -31.396866  0
12.685249  -54.151493  -31.396866  0
11.685249  -54.151493  -31.396866  0
10.935249  -54.151493  -31.646866  0
11.185249  -54.151493  -31.396866  0
13.935249  -54.651493  -31.646866  0
13.685249  -54.901493  -31.646866  0
13.685249  -54.651493  -31.396866  0
13.185249  -54.651493  -31.396866  0
10.935249  -54.651493  -31.646866  0
11.185249  -54.651493  -31.396866  0
13.435249  -55.151493  -31.646866  0
13.185249  -55.151493  -31.396866  0
11.685249  -55.151493  -31.396866  0
10.935249  -55.151493  -31.646866  0
11.185249  -55.401493  -31.646866  0
11.185249  -55.151493  -31.396866  0
13.435249  -55.651493  -31.646866  0
13.185249  -55.901493  -31.646866  0
13.185249  -55.651493  -31.396866  0
11.435249  -55.651493  -31.646866  0
11.685249  -55.901493  -31.646866  0
11.685249  -55.651493  -31.396866  0
12.935249  -56.151493  -31.646866  0
12.685249  -56.401493  -31.646866  0
12.685249  -56.151493  -31.396866  0
11.935249  -56.151493  -31.646866  0
12.185249  -56.401493  -31.646866  0
12.185249  -56.151493  -31.396866  0
12.185249  -53.401493  -31.146866  0
12.435249  -53.651493  -31.146866  0
11.935249  -53.651493  -31.146866  0
12.185249  -53.651493  -30.896866  0
12.435249  -54.151493  -31.146866  0
12.685249  -54.401493  -31.146866  0
11.935249  -54.151493  -31.146866  0
12.185249  -54.151493  -30.896866  0
11.685249  -54.401493  -31.146866  0
12.935249  -54.651493  -31.146866  0
12.685249  -54.651493  -30.896866  0
12.185249  -54.651493  -30.896866  0
11.435249  -54.651493  -31.146866  0
11.685249  -54.901493  -31.146866  0
11.685249  -54.651493  -30.896866  0
12.935249  -55.151493  -31.146866  0
11.935249  -55.151493  -31.146866  0
12.185249  -55.151493  -30.896866  0
12.935249  -55.651493  -31.146866  0
12.685249  -55.901493  -31.146866  0
12.685249  -55.651493  -30.896866  0
11.935249  -55.651493  -31.146866  0
12.185249  -55.901493  -31.146866  0
12.185249  -55.651493  -30.896866  0
12.685249  -54.901493  -30.646866  0
12.935249  -55.151493  -30.646866  0
12.435249  -55.151493  -30.646866  0
12.685249  -55.401493  -30.646866  0
12.685249  -55.151493  -30.396866  0
4 8 0 0
0 10 4 0
8 11 0 0
0 11 10 0
28 35 1 0
2 30 1 0
1 30 28 0
3 32 2 0
2 32 30 0
5 34 3 0
3 34 32 0
5 37 34 0
1 35 6 0
6 35 39 0
1 7 2 0
1 6 7 0
2 9 3 0
2 7 9 0
9 8 4 0
5 9 4 0
3 9 5 0
4 10 5 0
10 37 5 0
10 41 37 0
6 39 12 0
12 39 43 0
6 13 7 0
6 12 13 0
7 14 9 0
7 13 14 0
15 11 8 0
9 15 8 0
14 15 9 0
15 45 11 0
45 10 11 0
45 41 10 0
12 43 16 0
16 43 48 0
12 17 13 0
12 16 17 0
13 18 14 0
13 17 18 0
46 15 51 0
15 18 51 0
15 14 18 0
15 46 45 0
48 50 16 0
55 19 50 0
19 16 50 0
19 17 16 0
17 20 18 0
17 19 20 0
51 18 52 0
18 21 52 0
18 20 21 0
21 57 52 0
19 55 22 0
22 55 60 0
19 23 20 0
19 22 23 0
58 21 63 0
21 23 63 0
21 20 23 0
21 58 57 0
60 62 22 0
22 62 23 0
23 62 64 0
23 64 63 0
65 66 24 0
24 68 65 0
24 66 25 0
25 66 73 0
68 24 69 0
24 26 69 0
24 25 26 0
27 71 26 0
26 71 69 0
27 75 71 0
25 73 29 0
29 73 77 0
25 31 26 0
25 29 31 0
26 33 27 0
26 31 33 0
75 27 80 0
80 27 33 0
78 83 36 0
78 36 77 0
77 36 29 0
36 35 29 0
35 28 29 0
29 28 30 0
29 30 31 0
31 30 32 0
31 32 33 0
81 80 33 0
32 81 33 0
34 81 32 0
34 37 81 0
81 37 86 0
84 88 38 0
84 38 83 0
38 36 83 0
38 40 36 0
40 39 35 0
40 35 36 0
41 86 37 0
41 90 86 0
38 88 42 0
42 88 92 0
38 44 40 0
38 42 44 0
44 43 39 0
44 39 40 0
45 90 41 0
45 94 90 0
42 92 47 0
47 92 97 0
42 49 44 0
42 47 49 0
49 48 43 0
49 43 44 0
51 53 46 0
53 100 46 0
100 45 46 0
100 94 45 0
97 99 47 0
103 54 99 0
54 47 99 0
54 49 47 0
56 50 48 0
49 56 48 0
54 56 49 0
56 55 50 0
52 53 51 0
52 57 53 0
57 100 53 0
57 105 100 0
54 103 59 0
59 103 107 0
54 61 56 0
54 59 61 0
61 60 55 0
61 55 56 0
112 106 58 0
112 58 63 0
57 58 105 0
105 58 106 0
107 109 59 0
59 109 61 0
61 109 110 0
61 110 60 0
110 62 60 0
110 111 62 0
62 113 64 0
111 113 62 0
63 64 112 0
112 64 113 0
117 121 67 0
66 65 67 0
65 117 67 0
65 119 117 0
70 120 68 0
120 65 68 0
120 119 65 0
70 124 120 0
122 126 72 0
122 72 121 0
72 67 121 0
72 74 67 0
74 73 66 0
74 66 67 0
69 70 68 0
125 124 70 0
69 125 70 0
71 125 69 0
71 75 125 0
125 75 128 0
72 126 76 0
76 126 131 0
72 79 74 0
72 76 79 0
79 77 73 0
79 73 74 0
80 128 75 0
80 134 128 0
132 136 82 0
132 82 131 0
82 76 131 0
82 85 76 0
85 83 78 0
79 85 78 0
76 85 79 0
79 78 77 0
80 81 87 0
138 80 87 0
134 80 138 0
86 87 81 0
82 136 89 0
89 136 140 0
89 88 84 0
85 89 84 0
82 89 85 0
85 84 83 0
139 138 87 0
87 86 139 0
86 143 139 0
86 90 143 0
141 146 91 0
141 91 140 0
91 89 140 0
91 93 89 0
93 92 88 0
93 88 89 0
148 144 95 0
144 143 95 0
143 94 95 0
143 90 94 0
91 146 96 0
96 146 149 0
91 98 93 0
91 96 98 0
98 97 92 0
98 92 93 0
148 95 101 0
148 101 152 0
100 101 94 0
94 101 95 0
149 151 96 0
154 102 151 0
102 96 151 0
102 98 96 0
104 99 97 0
98 104 97 0
102 104 98 0
104 103 99 0
153 152 101 0
101 100 153 0
100 158 153 0
100 105 158 0
154 156 102 0
161 108 156 0
108 102 156 0
108 104 102 0
108 107 103 0
108 103 104 0
165 157 114 0
106 112 114 0
157 106 114 0
159 106 157 0
105 106 158 0
158 106 159 0
161 163 108 0
108 163 107 0
163 109 107 0
163 164 109 0
164 166 115 0
110 164 115 0
109 164 110 0
116 111 110 0
116 110 115 0
169 165 114 0
111 169 114 0
113 111 114 0
169 111 116 0
113 114 112 0
166 168 115 0
115 168 116 0
116 168 170 0
116 170 169 0
172 174 118 0
118 177 172 0
175 181 123 0
175 123 174 0
174 123 118 0
123 121 118 0
121 117 118 0
179 177 118 0
117 179 118 0
119 179 117 0
180 119 120 0
180 179 119 0
120 124 180 0
180 124 184 0
182 186 127 0
182 127 181 0
181 127 123 0
127 126 123 0
126 122 123 0
123 122 121 0
124 125 129 0
188 124 129 0
184 124 188 0
128 129 125 0
187 190 130 0
187 130 186 0
130 127 186 0
130 133 127 0
133 131 126 0
133 126 127 0
188 129 135 0
188 135 192 0
134 135 128 0
128 135 129 0
130 190 137 0
137 190 195 0
137 136 132 0
133 137 132 0
130 137 133 0
133 132 131 0
194 192 135 0
135 134 194 0
134 197 194 0
134 138 197 0
137 195 142 0
142 195 199 0
142 140 136 0
142 136 137 0
138 139 145 0
202 138 145 0
197 138 202 0
143 145 139 0
200 204 147 0
200 147 199 0
199 147 142 0
147 146 142 0
146 141 142 0
142 141 140 0
202 145 144 0
148 202 144 0
205 202 148 0
144 145 143 0
147 204 150 0
150 204 207 0
150 149 146 0
150 146 147 0
152 205 148 0
152 209 205 0
207 208 150 0
208 211 155 0
208 155 151 0
150 208 151 0
149 150 151 0
155 154 151 0
152 153 160 0
214 152 160 0
209 152 214 0
158 160 153 0
211 212 155 0
212 217 162 0
212 162 156 0
155 212 156 0
154 155 156 0
162 161 156 0
220 215 157 0
220 157 165 0
160 159 214 0
159 215 214 0
159 157 215 0
159 160 158 0
217 218 162 0
162 218 161 0
218 163 161 0
218 219 163 0
219 223 167 0
164 219 167 0
163 219 164 0
167 166 164 0
226 221 171 0
221 220 171 0
220 169 171 0
220 165 169 0
223 225 167 0
167 225 166 0
225 168 166 0
225 227 168 0
171 170 226 0
170 227 226 0
170 168 227 0
170 171 169 0
229 231 173 0
176 230 173 0
173 230 229 0
230 174 176 0
230 172 174 0
230 232 178 0
172 230 178 0
177 178 172 0
173 231 183 0
183 231 236 0
183 181 175 0
176 183 175 0
173 183 176 0
175 232 176 0
175 234 232 0
175 174 178 0
234 175 178 0
234 178 177 0
179 234 177 0
235 234 179 0
238 235 185 0
235 180 185 0
235 179 180 0
184 185 180 0
183 236 182 0
236 186 182 0
236 241 186 0
183 182 181 0
238 185 189 0
238 189 244 0
188 189 184 0
184 189 185 0
240 246 191 0
190 187 191 0
187 240 191 0
187 242 240 0
187 186 241 0
187 241 242 0
244 189 193 0
244 193 247 0
192 193 188 0
188 193 189 0
191 246 196 0
196 246 250 0
196 195 190 0
196 190 191 0
249 247 193 0
251 249 198 0
198 249 194 0
249 193 194 0
193 192 194 0
197 198 194 0
196 250 201 0
201 250 253 0
201 199 195 0
201 195 196 0
251 198 203 0
251 203 254 0
202 203 197 0
197 203 198 0
201 253 200 0
253 204 200 0
253 256 204 0
201 200 199 0
254 203 206 0
254 206 258 0
205 206 202 0
202 206 203 0
256 207 204 0
260 207 256 0
258 206 210 0
258 210 262 0
209 210 205 0
205 210 206 0
260 261 207 0
207 261 208 0
211 208 261 0
211 261 265 0
268 263 213 0
213 263 262 0
210 213 262 0
216 213 210 0
214 216 209 0
209 216 210 0
265 267 211 0
211 267 212 0
217 212 267 0
217 267 270 0
268 213 222 0
268 222 273 0
220 222 215 0
222 216 215 0
222 213 216 0
215 216 214 0
270 272 217 0
217 272 218 0
272 276 224 0
219 272 224 0
218 272 219 0
224 223 219 0
278 274 228 0
228 274 273 0
228 273 222 0
226 228 222 0
221 226 222 0
221 222 220 0
276 277 224 0
224 277 223 0
277 225 223 0
277 279 225 0
228 227 278 0
227 279 278 0
227 225 279 0
227 228 226 0
281 282 229 0
229 282 231 0
283 281 233 0
281 230 233 0
281 229 230 0
232 233 230 0
282 236 231 0
286 236 282 0
285 283 233 0
289 285 237 0
237 285 234 0
285 233 234 0
233 232 234 0
235 239 234 0
234 239 237 0
238 239 235 0
287 292 243 0
286 287 243 0
241 286 243 0
236 286 241 0
291 289 237 0
245 294 291 0
237 245 291 0
239 245 237 0
244 245 238 0
238 245 239 0
293 296 240 0
240 296 246 0
242 243 292 0
293 242 292 0
240 242 293 0
243 242 241 0
294 245 248 0
294 248 298 0
247 248 244 0
244 248 245 0
296 250 246 0
301 250 296 0
300 298 248 0
303 300 252 0
252 300 249 0
300 248 249 0
248 247 249 0
251 252 249 0
301 253 250 0
305 253 301 0
303 252 255 0
303 255 307 0
254 255 251 0
251 255 252 0
306 309 257 0
305 306 257 0
256 305 257 0
253 305 256 0
307 255 259 0
307 259 311 0
258 259 254 0
254 259 255 0
309 310 257 0
256 257 310 0
313 256 310 0
260 256 313 0
311 259 264 0
311 264 314 0
262 264 258 0
258 264 259 0
261 260 266 0
260 317 266 0
260 313 317 0
266 265 261 0
319 315 269 0
269 315 314 0
269 314 264 0
268 269 264 0
263 268 264 0
263 264 262 0
317 318 266 0
318 321 271 0
318 271 267 0
266 318 267 0
265 266 267 0
271 270 267 0
319 269 275 0
319 275 325 0
273 275 268 0
268 275 269 0
321 322 271 0
271 322 270 0
322 272 270 0
322 323 272 0
276 272 323 0
276 323 328 0
329 326 280 0
280 326 325 0
280 325 275 0
278 280 275 0
274 278 275 0
274 275 273 0
328 330 276 0
276 330 277 0
280 279 329 0
279 330 329 0
279 277 330 0
279 280 278 0
284 282 281 0
283 284 281 0
288 286 284 0
284 286 282 0
285 290 283 0
290 284 283 0
290 288 284 0
289 290 285 0
332 335 287 0
287 335 292 0
287 286 288 0
333 287 288 0
332 287 333 0
333 288 290 0
333 290 334 0
338 334 295 0
295 334 291 0
334 290 291 0
290 289 291 0
294 295 291 0
297 296 293 0
340 297 293 0
292 340 293 0
335 340 292 0
338 295 299 0
338 299 343 0
298 299 294 0
294 299 295 0
302 301 297 0
297 301 296 0
297 340 346 0
297 346 302 0
345 343 299 0
350 345 304 0
304 345 300 0
345 299 300 0
299 298 300 0
303 304 300 0
347 352 302 0
352 301 302 0
352 305 301 0
347 302 346 0
350 304 308 0
350 308 357 0
307 308 303 0
303 308 304 0
353 359 306 0
306 359 309 0
306 305 352 0
306 352 353 0
357 308 312 0
357 312 363 0
311 312 307 0
307 312 308 0
359 360 309 0
309 360 310 0
313 310 360 0
313 360 365 0
363 312 316 0
363 316 368 0
314 316 311 0
311 316 312 0
365 317 313 0
371 317 365 0
374 369 320 0
320 369 368 0
320 368 316 0
319 320 316 0
315 319 316 0
315 316 314 0
371 372 317 0
317 372 318 0
321 318 372 0
321 372 377 0
380 375 324 0
324 375 374 0
320 324 374 0
327 324 320 0
325 327 319 0
319 327 320 0
377 378 321 0
321 378 322 0
322 381 323 0
378 381 322 0
324 331 328 0
381 324 328 0
323 381 328 0
380 324 381 0
329 331 326 0
331 327 326 0
331 324 327 0
326 327 325 0
331 330 328 0
330 331 329 0
336 335 332 0
333 337 332 0
332 337 336 0
334 339 333 0
333 339 337 0
338 339 334 0
341 340 336 0
336 340 335 0
342 336 337 0
341 336 342 0
344 337 339 0
342 337 344 0
343 344 338 0
338 344 339 0
348 346 341 0
341 346 340 0
342 383 384 0
348 342 384 0
341 342 348 0
349 385 383 0
342 349 383 0
344 349 342 0
345 351 343 0
351 344 343 0
351 349 344 0
350 351 345 0
354 352 347 0
346 348 347 0
348 354 347 0
348 355 354 0
348 384 387 0
348 387 355 0
385 349 356 0
385 356 389 0
358 349 351 0
356 349 358 0
357 358 350 0
350 358 351 0
361 359 353 0
352 354 353 0
354 361 353 0
354 362 361 0
355 388 392 0
362 355 392 0
354 355 362 0
388 355 387 0
391 389 356 0
364 395 391 0
356 364 391 0
358 364 356 0
363 364 357 0
357 364 358 0
361 360 359 0
360 361 365 0
361 366 365 0
361 362 366 0
362 392 398 0
362 398 366 0
399 396 367 0
367 396 395 0
364 367 395 0
370 367 364 0
368 370 363 0
363 370 364 0
373 371 366 0
366 371 365 0
366 398 401 0
366 401 373 0
399 367 376 0
399 376 404 0
374 376 369 0
376 370 369 0
376 367 370 0
369 370 368 0
373 372 371 0
402 379 377 0
402 377 372 0
401 402 372 0
373 401 372 0
405 382 379 0
405 379 402 0
382 405 404 0
382 404 376 0
380 382 376 0
375 380 376 0
375 376 374 0
379 378 377 0
378 379 381 0
381 379 382 0
381 382 380 0
386 384 383 0
385 386 383 0
390 387 386 0
386 387 384 0
389 390 385 0
385 390 386 0
393 392 388 0
387 390 388 0
390 393 388 0
390 394 393 0
391 397 389 0
397 390 389 0
397 394 390 0
395 397 391 0
407 408 393 0
408 392 393 0
408 398 392 0
400 409 407 0
393 400 407 0
394 400 393 0
399 400 396 0
400 397 396 0
400 394 397 0
396 397 395 0
403 401 410 0
401 408 410 0
401 398 408 0
403 410 409 0
400 403 409 0
406 403 400 0
404 406 399 0
399 406 400 0
403 402 401 0
402 403 405 0
405 403 406 0
405 406 404 0
411 408 407 0
409 411 407 0
411 410 408 0
410 411 409 0
