#!ascii version in FreeSurfer format (SUMA)
594 1186
9.095019  -54.184807  -35.639790  0
10.478106  -53.740585  -35.315887  0
10.028667  -53.689545  -35.391125  0
9.602818  -53.612015  -35.377552  0
9.101112  -53.979588  -35.546543  0
9.279979  -53.712605  -35.420784  0
10.590025  -54.178963  -35.349640  0
10.152206  -54.117229  -35.465515  0
9.264461  -54.232571  -35.625160  0
9.589495  -54.050327  -35.529739  0
8.874202  -54.215607  -35.463406  0
9.105252  -54.376602  -35.555084  0
8.651618  -54.118782  -35.291824  0
10.617453  -54.688663  -35.357143  0
10.200771  -54.619286  -35.461197  0
9.814601  -54.504753  -35.509842  0
9.349857  -54.624294  -35.458851  0
10.590606  -55.169483  -35.335331  0
10.195075  -55.141445  -35.437649  0
9.646441  -55.101234  -35.407436  0
10.221605  -55.645771  -35.382473  0
9.828748  -55.567959  -35.415733  0
9.358056  -55.772362  -35.245338  0
10.164069  -56.054653  -35.311661  0
9.789416  -56.054848  -35.305347  0
10.453376  -52.240868  -34.738533  0
10.591723  -52.649750  -34.866741  0
10.071275  -52.582573  -34.863434  0
9.534855  -52.701740  -34.801785  0
10.650762  -53.487049  -35.182056  0
10.775410  -53.202396  -34.990273  0
10.361151  -53.385372  -35.217697  0
10.242739  -53.008114  -35.061478  0
9.867974  -53.325500  -35.228703  0
9.705135  -52.983482  -35.024445  0
9.265625  -53.332848  -35.109459  0
9.299517  -52.964588  -34.868114  0
10.872232  -53.755165  -35.141273  0
11.213801  -53.598736  -34.863071  0
8.919072  -53.665779  -35.269844  0
8.740530  -53.933632  -35.333179  0
8.623511  -53.733582  -35.056015  0
11.527318  -54.089634  -34.805462  0
10.963189  -54.291046  -35.191616  0
11.204204  -54.012802  -35.007309  0
8.516609  -54.041565  -34.980228  0
8.633138  -54.355961  -35.128326  0
11.613256  -54.652721  -34.821857  0
10.957666  -54.803474  -35.195297  0
11.285813  -54.465702  -35.009384  0
8.884862  -54.657558  -35.217613  0
9.093861  -54.947838  -35.214817  0
8.617373  -54.618969  -34.946453  0
11.604789  -55.160248  -34.795288  0
10.862146  -55.224655  -35.197613  0
11.226838  -55.069351  -35.006306  0
10.598870  -55.508846  -35.280708  0
9.263867  -55.063740  -35.277267  0
9.104684  -55.382229  -35.125969  0
9.080987  -55.157009  -35.138866  0
11.238891  -55.635414  -34.884857  0
10.467143  -55.866341  -35.254993  0
10.852984  -55.581142  -35.118546  0
8.890042  -55.791443  -34.916981  0
9.082229  -56.061474  -35.051529  0
8.657459  -55.696701  -34.692757  0
11.168331  -56.047955  -34.790718  0
10.344229  -56.140148  -35.220074  0
10.716969  -56.103939  -35.010887  0
10.128007  -56.384785  -35.122021  0
9.342060  -56.260830  -35.079166  0
9.683925  -56.443054  -35.105919  0
9.085020  -56.239529  -34.939293  0
10.166821  -56.707829  -34.851551  0
9.834280  -56.687904  -34.884483  0
10.523078  -51.901012  -34.498524  0
10.800842  -51.776432  -34.344810  0
10.844287  -52.231758  -34.620026  0
11.153105  -52.052139  -34.377670  0
10.286420  -52.013744  -34.588013  0
10.134451  -52.226025  -34.696049  0
9.984270  -52.047359  -34.487541  0
9.692338  -52.339798  -34.558311  0
9.743663  -52.099670  -34.366249  0
11.492505  -52.531639  -34.333839  0
10.997210  -52.768246  -34.733219  0
11.184669  -52.492401  -34.537827  0
9.327397  -52.580593  -34.592289  0
9.204247  -52.785549  -34.687267  0
9.099231  -52.697296  -34.475204  0
11.771488  -53.095116  -34.333107  0
11.146008  -53.175114  -34.758022  0
11.387597  -53.394676  -34.664494  0
11.380692  -52.992741  -34.551384  0
8.950752  -53.048428  -34.566071  0
8.752298  -53.458485  -34.853668  0
12.087154  -53.542431  -34.289764  0
11.527494  -53.705730  -34.684006  0
11.783139  -53.948982  -34.609474  0
11.726342  -53.538620  -34.503895  0
8.495996  -53.727886  -34.663937  0
11.898078  -54.360378  -34.642345  0
12.169228  -54.084698  -34.415306  0
8.407602  -54.053493  -34.531857  0
12.506617  -54.624683  -34.331039  0
11.927689  -54.847641  -34.661091  0
12.176020  -54.599560  -34.518345  0
8.469402  -54.507580  -34.609066  0
8.619685  -54.915764  -34.762451  0
12.618182  -55.119316  -34.273045  0
11.864024  -55.244755  -34.656990  0
12.203496  -55.095570  -34.493259  0
11.617190  -55.508942  -34.725967  0
8.857940  -55.139721  -34.979828  0
8.737722  -55.493755  -34.813709  0
8.609282  -55.279472  -34.639637  0
12.294450  -55.581875  -34.329128  0
11.484465  -55.849995  -34.690807  0
11.867255  -55.575569  -34.570721  0
8.556252  -55.553860  -34.499088  0
8.661447  -55.871674  -34.482250  0
11.358400  -56.112728  -34.655651  0
11.740370  -56.036003  -34.439934  0
11.136878  -56.364876  -34.621536  0
10.541239  -56.552498  -34.835129  0
8.911321  -56.117161  -34.754341  0
9.135433  -56.400421  -34.635796  0
11.233304  -56.640759  -34.333839  0
10.406517  -56.815758  -34.631222  0
10.817036  -56.735710  -34.501831  0
10.034798  -56.900414  -34.527229  0
9.481701  -56.596004  -34.815098  0
9.665051  -56.804482  -34.582100  0
10.734485  -51.501213  -33.977642  0
11.025175  -51.712921  -34.216118  0
11.204728  -51.835007  -34.222519  0
11.195796  -51.700607  -34.004391  0
10.425973  -51.610760  -34.153053  0
10.132086  -51.808853  -34.269566  0
10.087696  -51.598873  -33.905476  0
9.815974  -51.957031  -34.225994  0
11.404135  -52.073425  -34.190495  0
11.626831  -52.358997  -34.158226  0
11.692043  -52.136063  -33.941959  0
9.516120  -52.165779  -34.103638  0
9.257487  -52.466713  -34.304592  0
11.879086  -52.726166  -34.124287  0
12.166606  -52.614616  -33.860630  0
8.988153  -52.745808  -34.147736  0
12.520188  -53.018730  -33.788689  0
12.069834  -53.197048  -34.180817  0
12.309720  -53.453972  -34.118336  0
12.274536  -53.104317  -34.006065  0
8.787020  -53.184952  -33.951656  0
8.615391  -53.433090  -34.348747  0
12.446394  -53.843090  -34.164917  0
12.622938  -53.536041  -33.917572  0
8.460720  -53.839237  -34.174480  0
8.592175  -53.557762  -33.942715  0
12.562076  -54.237911  -34.223923  0
12.723127  -54.453480  -34.177284  0
12.833836  -54.193172  -33.995049  0
8.410092  -54.238506  -34.229103  0
12.864937  -54.749325  -34.115479  0
13.129514  -54.589527  -33.862858  0
8.460868  -54.618671  -34.044193  0
8.555561  -54.566429  -33.713688  0
12.884859  -55.111027  -34.126305  0
13.128963  -55.042377  -33.912628  0
12.795783  -55.413708  -34.087734  0
8.497263  -55.188705  -34.208130  0
8.562889  -54.952827  -33.734657  0
12.534595  -55.692528  -34.143860  0
12.761213  -55.711689  -33.928913  0
12.297252  -55.935894  -34.117485  0
8.518176  -55.665138  -34.189762  0
8.626377  -55.930645  -34.014141  0
11.957470  -56.178410  -34.189129  0
12.196464  -56.205761  -33.940426  0
11.696109  -56.423527  -34.167988  0
8.842011  -56.183800  -34.273804  0
9.092364  -56.450569  -34.061691  0
11.476780  -56.701385  -34.077934  0
11.782945  -56.634598  -33.873966  0
11.125295  -56.862331  -34.139042  0
10.568581  -57.025558  -34.206532  0
10.055265  -57.064217  -34.074375  0
9.388495  -56.682957  -34.353024  0
9.692691  -56.891972  -34.202816  0
10.743399  -57.239948  -33.833477  0
10.394039  -57.228466  -33.844540  0
10.943748  -51.385715  -33.638901  0
11.203659  -51.246056  -33.305012  0
10.556995  -51.338673  -33.567696  0
10.297915  -51.442543  -33.735142  0
11.992112  -51.543118  -33.251194  0
11.396903  -51.605911  -33.676689  0
11.796594  -51.892895  -33.663551  0
11.661992  -51.496742  -33.375401  0
9.966762  -51.567024  -33.498596  0
9.773533  -51.840084  -33.814049  0
12.029482  -52.223869  -33.743046  0
12.227221  -52.394543  -33.698689  0
12.213544  -52.073261  -33.491142  0
9.413618  -52.230705  -33.530365  0
9.165872  -52.469875  -33.881351  0
12.436110  -52.623425  -33.661545  0
12.653130  -52.900028  -33.633801  0
12.722013  -52.644936  -33.446560  0
8.981518  -52.834297  -33.709908  0
9.156646  -52.598541  -33.522842  0
12.851712  -53.236904  -33.613605  0
13.082894  -53.040173  -33.343739  0
8.954226  -53.247837  -33.464371  0
9.126704  -52.925816  -33.344028  0
13.019623  -53.840744  -33.703552  0
13.225241  -53.563000  -33.425747  0
8.749504  -53.659004  -33.577370  0
8.560748  -53.837662  -33.794987  0
13.138572  -54.264305  -33.753891  0
13.274433  -54.460342  -33.696846  0
13.374128  -54.188728  -33.508877  0
8.505384  -54.204750  -33.849007  0
8.642905  -54.338570  -33.557426  0
8.647439  -54.037823  -33.584778  0
13.391364  -54.731895  -33.645721  0
13.643065  -54.547230  -33.339966  0
8.702050  -54.682804  -33.454235  0
13.375679  -55.084225  -33.687210  0
13.600026  -55.024734  -33.396950  0
13.209160  -55.412216  -33.695827  0
8.755969  -55.213596  -33.381180  0
8.581926  -55.369637  -33.708908  0
12.985097  -55.709610  -33.702557  0
13.190989  -55.695637  -33.438976  0
12.700744  -55.957954  -33.693401  0
8.549935  -55.657337  -33.855259  0
8.646033  -55.896175  -33.735405  0
8.746543  -55.750195  -33.528931  0
12.430036  -56.202633  -33.693607  0
12.655205  -56.190346  -33.420811  0
12.190788  -56.432529  -33.673794  0
8.848481  -56.143860  -33.765526  0
9.091866  -56.395607  -33.708336  0
9.128866  -56.196247  -33.406311  0
11.975476  -56.684418  -33.605358  0
12.248564  -56.618992  -33.364666  0
11.598442  -56.858154  -33.740761  0
11.132669  -57.111774  -33.771652  0
9.379821  -56.651756  -33.821842  0
9.741378  -56.934708  -33.834690  0
9.638317  -56.702740  -33.411350  0
11.001212  -57.302429  -33.581810  0
11.296822  -57.263550  -33.403202  0
10.727251  -57.346245  -33.544037  0
10.026663  -57.100529  -33.684540  0
10.375575  -57.267162  -33.481850  0
10.055910  -57.043541  -33.349789  0
11.338607  -51.063171  -33.030025  0
12.039670  -51.373589  -33.097332  0
12.097169  -51.203560  -32.868343  0
11.487520  -51.117722  -33.062862  0
11.662944  -51.200047  -33.012840  0
11.682204  -51.068291  -32.912144  0
11.132881  -51.126118  -33.032413  0
11.399997  -51.068672  -32.918056  0
10.778502  -51.259007  -33.187634  0
10.252149  -51.405453  -33.259048  0
12.358439  -51.680134  -33.140175  0
12.581366  -51.489613  -32.792301  0
9.958066  -51.560356  -33.184013  0
10.101041  -51.586693  -32.924019  0
9.773269  -51.851177  -33.169548  0
12.603305  -52.170982  -33.285362  0
12.805326  -52.382435  -33.251793  0
12.837491  -52.073990  -33.000301  0
9.537655  -52.259659  -33.108311  0
9.762220  -52.151165  -32.858139  0
13.000988  -52.613785  -33.204044  0
13.203335  -52.877361  -33.165203  0
13.262556  -52.606792  -32.893707  0
9.346567  -52.636986  -33.191895  0
9.633534  -52.516197  -32.871071  0
13.396786  -53.197754  -33.130440  0
13.598379  -53.004768  -32.807766  0
9.288571  -52.967449  -33.124542  0
9.529368  -52.960075  -32.882023  0
9.248644  -53.271927  -33.075302  0
13.541546  -53.768883  -33.215443  0
13.701976  -53.456203  -32.929081  0
9.026802  -53.674469  -33.189674  0
9.297554  -53.645298  -32.888889  0
13.649413  -54.175369  -33.242504  0
13.810615  -54.324776  -33.085285  0
13.787062  -53.932518  -32.989300  0
8.859134  -54.206894  -33.274742  0
9.173761  -54.017410  -32.913216  0
13.868294  -54.679462  -33.031403  0
8.913199  -54.803600  -33.144302  0
9.122991  -54.497536  -32.897282  0
13.850776  -55.121376  -32.955273  0
13.552969  -55.417679  -33.244072  0
8.986204  -55.256081  -33.077755  0
9.154975  -55.021019  -32.865597  0
13.458116  -55.693268  -33.045609  0
13.072002  -55.939705  -33.222549  0
8.976058  -55.660576  -33.197475  0
9.159107  -55.920307  -33.112450  0
9.259980  -55.645061  -32.914883  0
12.957999  -56.185509  -33.002296  0
12.568145  -56.429077  -33.199753  0
9.391887  -56.197048  -33.102604  0
9.629853  -56.475903  -33.105949  0
9.684453  -56.223026  -32.870380  0
12.434381  -56.688671  -32.982727  0
12.029481  -56.834106  -33.291695  0
11.661365  -57.102051  -33.277679  0
9.871420  -56.723953  -33.125141  0
10.108137  -56.963654  -33.145145  0
10.146751  -56.736156  -32.895432  0
11.514637  -57.297760  -33.099453  0
11.792714  -57.231392  -32.852795  0
11.164825  -57.367207  -33.180134  0
10.340283  -57.134045  -33.161797  0
10.759531  -57.311138  -33.101978  0
10.548283  -57.065563  -32.865475  0
12.166371  -51.049599  -32.523884  0
11.703202  -51.019264  -32.760986  0
12.434026  -51.191715  -32.557709  0
12.695889  -51.390251  -32.407173  0
11.535423  -51.060020  -32.786247  0
11.681571  -51.061966  -32.439491  0
11.204988  -51.222462  -32.682682  0
10.511298  -51.415627  -32.833344  0
12.851735  -51.705063  -32.623268  0
11.227983  -51.474522  -32.216545  0
10.317195  -51.600410  -32.671078  0
10.700055  -51.607895  -32.440262  0
10.135574  -51.891792  -32.634663  0
13.070521  -52.068268  -32.582981  0
13.308304  -52.385101  -32.425171  0
9.940083  -52.337200  -32.611103  0
10.237473  -52.209282  -32.388565  0
13.507242  -52.694866  -32.587097  0
13.699370  -52.941666  -32.480244  0
9.843616  -52.752186  -32.625893  0
10.156363  -52.566326  -32.377281  0
13.791769  -53.231956  -32.666775  0
9.772758  -53.048676  -32.636517  0
10.049043  -53.004196  -32.385380  0
9.655617  -53.372974  -32.632996  0
13.879989  -53.626087  -32.657074  0
9.471566  -53.839752  -32.638859  0
9.770712  -53.692757  -32.387638  0
13.967233  -54.199078  -32.697014  0
9.382652  -54.263660  -32.631516  0
9.665027  -54.050140  -32.382210  0
14.094594  -54.760628  -32.514973  0
14.252892  -54.589916  -32.170208  0
9.376528  -54.753517  -32.619099  0
9.630275  -54.504509  -32.374546  0
13.950543  -55.281353  -32.527630  0
13.738378  -55.481445  -32.856236  0
9.431700  -55.280910  -32.638550  0
9.698838  -55.062061  -32.373585  0
13.612800  -55.689095  -32.790184  0
13.731625  -55.644283  -32.537743  0
13.377905  -55.931263  -32.744606  0
9.991663  -55.499046  -32.265060  0
9.551068  -55.726627  -32.681923  0
9.804343  -55.985867  -32.611904  0
9.748084  -55.600025  -32.484852  0
13.137434  -56.191753  -32.719776  0
13.274062  -56.197449  -32.425407  0
12.883950  -56.452869  -32.685699  0
9.988324  -56.313423  -32.681221  0
10.183624  -56.488678  -32.657490  0
10.179752  -56.144459  -32.433727  0
12.607202  -56.752998  -32.577522  0
12.848514  -56.666817  -32.313683  0
12.173886  -56.998413  -32.710228  0
10.414433  -56.719517  -32.646694  0
10.652052  -56.967571  -32.645847  0
10.690832  -56.722290  -32.387844  0
11.903388  -57.236340  -32.450005  0
11.567495  -57.345669  -32.750767  0
10.851151  -57.143475  -32.668671  0
11.225693  -57.311256  -32.644436  0
11.066293  -57.063263  -32.335411  0
12.020487  -51.019669  -32.316494  0
12.398434  -51.194389  -32.162186  0
12.718426  -51.427197  -32.058704  0
11.898053  -51.070564  -32.177998  0
12.069954  -51.138802  -32.062435  0
11.683549  -51.282619  -32.108406  0
12.914780  -51.723579  -32.196533  0
12.795474  -51.644665  -31.826891  0
11.437193  -51.527138  -32.003574  0
11.657658  -51.591663  -31.825678  0
11.134132  -51.787792  -31.996437  0
10.565282  -51.983494  -32.248795  0
13.116133  -52.085083  -32.178776  0
13.250907  -52.347626  -31.969498  0
11.169959  -52.129288  -31.753777  0
10.489564  -52.350117  -32.157593  0
10.822175  -52.142681  -31.993469  0
13.501339  -52.675915  -32.176979  0
13.689965  -53.005287  -32.152863  0
10.405301  -52.748253  -32.130634  0
10.817745  -52.498436  -31.854315  0
13.835566  -53.281033  -32.362534  0
13.734477  -53.359261  -31.948774  0
10.309518  -53.042847  -32.134613  0
10.593283  -52.984558  -31.868496  0
10.156287  -53.377029  -32.134800  0
13.937179  -53.785995  -32.195843  0
13.788292  -53.741028  -31.751139  0
9.972450  -53.832230  -32.133682  0
10.268604  -53.673344  -31.878046  0
14.120844  -54.316433  -32.214745  0
14.238968  -54.465714  -31.903606  0
9.894351  -54.257133  -32.131721  0
10.169271  -54.033375  -31.877304  0
14.298651  -54.655083  -31.947338  0
14.242413  -54.787262  -32.123180  0
9.908565  -54.748108  -32.140244  0
10.144850  -54.504139  -31.889862  0
14.109500  -55.084805  -32.125275  0
9.973280  -55.147923  -32.159252  0
10.117270  -55.363091  -32.105858  0
10.221390  -55.105690  -31.934048  0
13.880498  -55.524914  -32.058987  0
13.583350  -55.902187  -32.229107  0
10.326111  -55.722145  -32.082062  0
10.529730  -55.538994  -31.794048  0
13.389876  -56.186546  -31.943769  0
13.109140  -56.458023  -32.166531  0
10.540682  -56.257240  -32.180634  0
10.743829  -56.487919  -32.135303  0
10.773114  -56.191319  -31.911537  0
12.914471  -56.685883  -31.933052  0
12.575096  -56.872372  -32.154816  0
12.168389  -57.064461  -32.116310  0
10.956524  -56.728611  -32.106079  0
11.169547  -56.970966  -32.098614  0
11.229814  -56.748070  -31.866203  0
11.877174  -57.179001  -32.074947  0
11.347604  -57.140022  -32.175323  0
11.623562  -57.283577  -32.314281  0
11.611260  -57.072762  -31.936543  0
12.124936  -51.414074  -31.810598  0
12.550505  -51.482452  -31.779047  0
12.671351  -51.748581  -31.577051  0
11.915582  -51.726063  -31.590887  0
12.314550  -51.754833  -31.483454  0
11.532078  -51.893692  -31.661064  0
12.914721  -52.063667  -31.656998  0
13.156374  -52.447483  -31.602339  0
12.579832  -51.968075  -31.370029  0
12.289326  -52.072533  -31.242441  0
11.455507  -52.109013  -31.560322  0
11.824471  -52.075462  -31.380972  0
11.305115  -52.378510  -31.509212  0
13.346369  -52.621128  -31.779419  0
13.204838  -52.785809  -31.453621  0
10.981641  -52.765343  -31.580608  0
11.288493  -52.676407  -31.330675  0
13.480865  -53.002586  -31.752890  0
13.234615  -53.206261  -31.335545  0
10.822592  -53.038288  -31.603174  0
11.070317  -53.021305  -31.351414  0
10.633522  -53.369602  -31.628885  0
13.490727  -53.554546  -31.475962  0
13.705880  -53.915005  -31.494352  0
13.227722  -53.492073  -31.238054  0
10.457222  -53.820690  -31.619518  0
10.724085  -53.668858  -31.386053  0
13.963563  -54.183010  -31.680542  0
14.192780  -54.494213  -31.644035  0
13.725905  -54.104301  -31.394867  0
10.386940  -54.253613  -31.623999  0
10.652192  -54.030365  -31.366753  0
14.286034  -54.614258  -31.750441  0
14.182581  -54.833603  -31.736647  0
14.219840  -54.635490  -31.604483  0
10.408444  -54.758736  -31.651745  0
10.635107  -54.514500  -31.382141  0
13.997171  -55.245255  -31.692087  0
13.793674  -55.370758  -31.318769  0
10.481199  -55.165154  -31.680777  0
10.624201  -55.379028  -31.616293  0
10.728406  -55.135315  -31.436125  0
13.848013  -55.542099  -31.618214  0
13.610718  -55.829765  -31.614128  0
13.727492  -55.602192  -31.391478  0
10.849703  -55.751324  -31.583094  0
11.131529  -55.660408  -31.292755  0
13.368174  -56.155781  -31.526217  0
13.128729  -56.426403  -31.616831  0
13.228045  -56.229408  -31.339411  0
11.563954  -56.139183  -31.244884  0
11.070051  -56.279289  -31.658972  0
11.329035  -56.527733  -31.595137  0
11.242283  -56.156406  -31.454258  0
12.864602  -56.666996  -31.590876  0
12.699246  -56.806648  -31.753193  0
12.558323  -56.691048  -31.444662  0
12.362679  -56.875576  -31.732088  0
12.054747  -56.581642  -31.369385  0
11.542690  -56.805492  -31.681597  0
11.911028  -56.927986  -31.730871  0
11.607128  -56.552818  -31.478765  0
12.533788  -52.336346  -31.167942  0
12.059604  -52.356476  -31.099863  0
11.629101  -52.468166  -31.202076  0
12.922116  -52.552849  -31.288727  0
12.611563  -52.821003  -30.988432  0
12.178648  -52.712013  -30.935680  0
11.470855  -52.812450  -31.110865  0
11.815990  -52.649437  -31.000772  0
12.961530  -52.991230  -31.139170  0
12.724236  -53.220676  -30.925068  0
12.267676  -53.249443  -30.789940  0
11.308763  -53.133465  -31.085726  0
11.721110  -53.054142  -30.907909  0
10.992423  -53.397129  -31.241306  0
13.013320  -53.399834  -31.073811  0
13.201172  -53.734585  -31.118702  0
12.763607  -53.689911  -30.817110  0
11.715907  -53.564732  -30.759146  0
10.953146  -53.776642  -31.146357  0
11.311329  -53.458126  -30.977671  0
13.509667  -53.981236  -31.257355  0
13.682121  -54.299820  -31.247738  0
13.248523  -54.179821  -30.937222  0
12.847132  -54.225201  -30.625780  0
11.561951  -54.057137  -30.699404  0
10.913541  -54.245834  -31.119852  0
11.259624  -53.922951  -30.905209  0
13.995075  -54.594547  -31.423260  0
13.888906  -54.994225  -31.322311  0
13.562365  -54.686028  -30.983471  0
13.158970  -54.551472  -30.676838  0
10.925632  -54.779575  -31.150677  0
11.277738  -54.526928  -30.844812  0
13.580772  -55.150749  -30.950041  0
11.518385  -55.054989  -30.722586  0
11.018538  -55.221905  -31.185007  0
11.260775  -55.482166  -31.086296  0
11.233740  -55.115063  -30.974491  0
13.490192  -55.554783  -31.017212  0
13.241367  -55.947384  -31.072796  0
13.231911  -55.675430  -30.761074  0
11.427889  -55.782539  -31.109232  0
11.625358  -55.951340  -31.065224  0
11.642961  -55.645538  -30.880766  0
12.993011  -56.249519  -31.141848  0
12.784966  -56.490238  -31.280762  0
12.586182  -56.214207  -30.916798  0
11.899324  -56.161972  -31.063873  0
12.357094  -56.411068  -31.118849  0
12.141305  -56.042698  -30.836620  0
12.081987  -53.572079  -30.646084  0
12.355344  -53.613762  -30.656624  0
11.908512  -53.863033  -30.595579  0
12.196399  -53.799309  -30.569014  0
12.483125  -53.951305  -30.582016  0
12.559846  -54.327034  -30.459543  0
11.797275  -54.200581  -30.557852  0
12.170668  -54.220184  -30.469872  0
11.579682  -54.401775  -30.629345  0
12.839046  -54.684803  -30.411703  0
13.247046  -54.955685  -30.589083  0
12.427523  -54.640549  -30.331970  0
12.159963  -54.615395  -30.367050  0
11.563375  -54.702988  -30.626589  0
11.769715  -54.955990  -30.518993  0
11.868891  -54.584591  -30.476912  0
13.349660  -55.265648  -30.666187  0
13.153386  -55.425537  -30.522831  0
13.186945  -55.197269  -30.462975  0
11.859507  -55.347237  -30.558084  0
12.206839  -55.061573  -30.331961  0
12.970347  -55.682911  -30.569031  0
12.792204  -55.956436  -30.737362  0
12.547852  -55.560261  -30.379217  0
12.017225  -55.720078  -30.630253  0
12.367282  -55.874966  -30.608505  0
12.177991  -55.539001  -30.449551  0
12.622020  -54.994911  -30.208677  0
12.949479  -55.124172  -30.300138  0
12.577692  -55.251286  -30.177794  0
12.819763  -55.387253  -30.265497  0
12.738972  -55.196297  -30.144333  0
4 8 0 0
0 10 4 0
8 11 0 0
0 11 10 0
29 37 1 0
2 31 1 0
1 31 29 0
3 33 2 0
2 33 31 0
5 35 3 0
3 35 33 0
5 39 35 0
1 37 6 0
6 37 43 0
1 7 2 0
1 6 7 0
2 9 3 0
2 7 9 0
9 8 4 0
5 9 4 0
3 9 5 0
12 40 10 0
10 40 4 0
40 39 4 0
39 5 4 0
12 45 40 0
6 43 13 0
13 43 48 0
6 14 7 0
6 13 14 0
7 15 9 0
7 14 15 0
16 11 8 0
9 16 8 0
15 16 9 0
16 50 11 0
11 50 10 0
50 46 10 0
46 12 10 0
12 46 45 0
13 48 17 0
17 48 54 0
13 18 14 0
13 17 18 0
14 19 15 0
14 18 19 0
51 16 57 0
16 19 57 0
16 15 19 0
16 51 50 0
54 56 17 0
61 20 56 0
20 17 56 0
20 18 17 0
18 21 19 0
18 20 21 0
57 19 58 0
19 22 58 0
19 21 22 0
22 63 58 0
20 61 23 0
23 61 67 0
20 24 21 0
20 23 24 0
64 22 70 0
22 24 70 0
22 21 24 0
22 64 63 0
67 69 23 0
23 69 24 0
24 69 71 0
24 71 70 0
75 77 25 0
25 79 75 0
25 77 26 0
26 77 85 0
79 25 80 0
25 27 80 0
25 26 27 0
28 82 27 0
27 82 80 0
28 87 82 0
26 85 30 0
30 85 91 0
26 32 27 0
26 30 32 0
27 34 28 0
27 32 34 0
87 28 88 0
28 36 88 0
28 34 36 0
36 94 88 0
92 97 38 0
92 38 91 0
91 38 30 0
38 37 30 0
37 29 30 0
30 29 31 0
30 31 32 0
32 31 33 0
32 33 34 0
34 33 35 0
34 35 36 0
41 95 39 0
39 95 35 0
95 94 35 0
94 36 35 0
41 100 95 0
98 101 42 0
98 42 97 0
42 38 97 0
42 44 38 0
44 43 37 0
44 37 38 0
40 41 39 0
40 45 41 0
45 100 41 0
45 103 100 0
42 101 47 0
47 101 105 0
42 49 44 0
42 47 49 0
49 48 43 0
49 43 44 0
50 52 46 0
52 107 46 0
107 45 46 0
107 103 45 0
47 105 53 0
53 105 110 0
47 55 49 0
47 53 55 0
55 54 48 0
55 48 49 0
57 59 51 0
59 113 51 0
51 113 50 0
113 108 50 0
108 52 50 0
52 108 107 0
110 112 53 0
117 60 112 0
60 53 112 0
60 55 53 0
62 56 54 0
55 62 54 0
60 62 55 0
62 61 56 0
58 59 57 0
65 114 63 0
63 114 58 0
114 113 58 0
113 59 58 0
65 119 114 0
60 117 66 0
66 117 121 0
60 68 62 0
60 66 68 0
68 67 61 0
68 61 62 0
70 72 64 0
72 125 64 0
64 125 63 0
125 120 63 0
120 65 63 0
65 120 119 0
121 123 66 0
66 123 68 0
68 123 124 0
124 128 73 0
124 73 69 0
68 124 69 0
67 68 69 0
74 71 69 0
74 69 73 0
74 131 71 0
71 131 70 0
131 126 70 0
126 72 70 0
72 126 125 0
128 130 73 0
73 130 74 0
74 130 132 0
74 132 131 0
133 134 76 0
76 137 133 0
135 141 78 0
135 78 134 0
134 78 76 0
78 77 76 0
77 75 76 0
81 138 79 0
79 138 75 0
138 137 75 0
137 76 75 0
83 140 81 0
81 140 138 0
83 144 140 0
142 146 84 0
142 84 141 0
84 78 141 0
84 86 78 0
86 85 77 0
86 77 78 0
80 81 79 0
81 80 82 0
81 82 83 0
89 145 87 0
87 145 82 0
145 144 82 0
144 83 82 0
89 148 145 0
84 146 90 0
90 146 150 0
84 93 86 0
84 90 93 0
93 91 85 0
93 85 86 0
88 89 87 0
88 94 89 0
94 148 89 0
94 153 148 0
151 155 96 0
151 96 150 0
96 90 150 0
96 99 90 0
99 97 92 0
93 99 92 0
90 99 93 0
93 92 91 0
154 153 94 0
154 94 95 0
95 100 154 0
154 100 157 0
96 155 102 0
102 155 159 0
102 101 98 0
99 102 98 0
96 102 99 0
99 98 97 0
103 157 100 0
103 162 157 0
160 163 104 0
160 104 159 0
104 102 159 0
104 106 102 0
106 105 101 0
106 101 102 0
107 162 103 0
107 165 162 0
104 163 109 0
109 163 167 0
104 111 106 0
104 109 111 0
111 110 105 0
111 105 106 0
113 115 108 0
115 170 108 0
170 107 108 0
170 165 107 0
167 169 109 0
172 116 169 0
116 109 169 0
116 111 109 0
118 112 110 0
111 118 110 0
116 118 111 0
118 117 112 0
114 115 113 0
114 119 115 0
119 170 115 0
119 175 170 0
172 174 116 0
177 122 174 0
122 116 174 0
122 118 116 0
122 121 117 0
122 117 118 0
180 176 120 0
180 120 125 0
119 120 175 0
175 120 176 0
177 179 122 0
179 182 127 0
179 127 123 0
122 179 123 0
121 122 123 0
129 124 123 0
129 123 127 0
129 128 124 0
187 181 126 0
187 126 131 0
125 126 180 0
180 126 181 0
182 184 127 0
127 184 129 0
129 184 185 0
129 185 128 0
185 130 128 0
185 186 130 0
130 188 132 0
186 188 130 0
131 132 187 0
187 132 188 0
191 196 136 0
134 133 136 0
133 191 136 0
133 193 191 0
139 194 137 0
194 133 137 0
194 193 133 0
139 199 194 0
197 201 143 0
197 143 196 0
196 143 136 0
143 141 136 0
141 135 136 0
136 135 134 0
138 139 137 0
200 199 139 0
138 200 139 0
140 200 138 0
140 144 200 0
200 144 204 0
202 206 147 0
202 147 201 0
201 147 143 0
147 146 143 0
146 142 143 0
143 142 141 0
205 204 144 0
205 144 145 0
145 148 205 0
205 148 209 0
207 211 149 0
207 149 206 0
149 147 206 0
149 152 147 0
152 150 146 0
152 146 147 0
153 209 148 0
153 213 209 0
149 211 156 0
156 211 215 0
156 155 151 0
152 156 151 0
149 156 152 0
152 151 150 0
153 154 158 0
217 153 158 0
213 153 217 0
157 158 154 0
156 215 161 0
161 215 219 0
161 159 155 0
161 155 156 0
218 217 158 0
158 157 218 0
157 222 218 0
157 162 222 0
220 225 164 0
220 164 219 0
219 164 161 0
164 163 161 0
163 160 161 0
161 160 159 0
227 223 166 0
223 222 166 0
222 165 166 0
222 162 165 0
164 225 168 0
168 225 228 0
168 167 163 0
168 163 164 0
227 166 171 0
227 171 231 0
170 171 165 0
165 171 166 0
228 230 168 0
230 233 173 0
230 173 169 0
168 230 169 0
167 168 169 0
173 172 169 0
232 231 171 0
171 170 232 0
170 236 232 0
170 175 236 0
233 235 173 0
235 239 178 0
235 178 174 0
173 235 174 0
172 173 174 0
178 177 174 0
242 237 176 0
242 176 180 0
175 176 236 0
236 176 237 0
239 241 178 0
241 245 183 0
241 183 179 0
178 241 179 0
177 178 179 0
183 182 179 0
249 243 181 0
249 181 187 0
180 181 242 0
242 181 243 0
245 247 183 0
183 247 182 0
247 184 182 0
247 248 184 0
248 252 189 0
185 248 189 0
184 248 185 0
190 186 185 0
190 185 189 0
186 190 255 0
250 186 255 0
188 186 250 0
187 188 249 0
249 188 250 0
252 254 189 0
189 254 190 0
190 254 256 0
190 256 255 0
258 261 192 0
192 264 258 0
259 268 195 0
198 262 195 0
195 262 259 0
262 198 261 0
261 198 192 0
198 196 192 0
196 191 192 0
266 264 192 0
191 266 192 0
193 266 191 0
267 193 194 0
267 266 193 0
194 199 267 0
267 199 270 0
195 268 203 0
203 268 273 0
203 201 197 0
198 203 197 0
195 203 198 0
198 197 196 0
272 270 199 0
272 199 200 0
200 204 272 0
272 204 276 0
274 278 208 0
274 208 273 0
273 208 203 0
208 206 203 0
206 202 203 0
203 202 201 0
204 205 210 0
281 204 210 0
276 204 281 0
209 210 205 0
279 283 212 0
279 212 278 0
278 212 208 0
212 211 208 0
211 207 208 0
208 207 206 0
281 210 214 0
281 214 285 0
213 214 209 0
209 214 210 0
212 283 216 0
216 283 288 0
216 215 211 0
216 211 212 0
287 285 214 0
214 213 287 0
213 290 287 0
213 217 290 0
216 288 221 0
221 288 292 0
221 219 215 0
221 215 216 0
217 218 224 0
295 217 224 0
290 217 295 0
222 224 218 0
293 297 226 0
293 226 292 0
292 226 221 0
226 225 221 0
225 220 221 0
221 220 219 0
295 224 223 0
227 295 223 0
298 295 227 0
223 224 222 0
226 297 229 0
229 297 300 0
229 228 225 0
229 225 226 0
231 298 227 0
231 302 298 0
300 301 229 0
301 304 234 0
301 234 230 0
229 301 230 0
228 229 230 0
234 233 230 0
231 232 238 0
306 231 238 0
302 231 306 0
236 238 232 0
304 305 234 0
305 309 240 0
305 240 235 0
234 305 235 0
233 234 235 0
240 239 235 0
311 307 244 0
244 307 306 0
244 306 238 0
242 244 238 0
237 242 238 0
237 238 236 0
309 310 240 0
310 314 246 0
310 246 241 0
240 310 241 0
239 240 241 0
246 245 241 0
317 312 251 0
251 312 311 0
251 311 244 0
249 251 244 0
243 249 244 0
243 244 242 0
314 315 246 0
246 315 245 0
315 247 245 0
315 316 247 0
316 320 253 0
248 316 253 0
247 316 248 0
253 252 248 0
323 318 257 0
257 318 317 0
257 317 251 0
255 257 251 0
250 255 251 0
250 251 249 0
320 322 253 0
253 322 252 0
322 254 252 0
322 324 254 0
257 256 323 0
256 324 323 0
256 254 324 0
256 257 255 0
326 328 260 0
263 327 260 0
260 327 326 0
327 261 263 0
327 258 261 0
327 330 265 0
258 327 265 0
264 265 258 0
329 334 269 0
329 269 328 0
328 269 260 0
269 268 260 0
268 259 260 0
260 259 262 0
260 262 263 0
262 330 263 0
262 332 330 0
262 261 265 0
332 262 265 0
332 265 264 0
266 332 264 0
333 332 266 0
336 333 271 0
333 267 271 0
333 266 267 0
270 271 267 0
269 334 275 0
275 334 339 0
275 273 268 0
275 268 269 0
338 336 271 0
341 338 277 0
277 338 272 0
338 271 272 0
271 270 272 0
276 277 272 0
340 343 280 0
340 280 339 0
339 280 275 0
280 278 275 0
278 274 275 0
275 274 273 0
341 277 282 0
341 282 345 0
281 282 276 0
276 282 277 0
344 347 284 0
344 284 343 0
343 284 280 0
284 283 280 0
283 279 280 0
280 279 278 0
345 282 286 0
345 286 348 0
285 286 281 0
281 286 282 0
284 347 289 0
289 347 351 0
289 288 283 0
289 283 284 0
350 348 286 0
352 350 291 0
291 350 287 0
350 286 287 0
286 285 287 0
290 291 287 0
289 351 294 0
294 351 354 0
294 292 288 0
294 288 289 0
352 291 296 0
352 296 355 0
295 296 290 0
290 296 291 0
294 354 293 0
354 297 293 0
354 357 297 0
294 293 292 0
355 296 299 0
355 299 359 0
298 299 295 0
295 299 296 0
357 300 297 0
361 300 357 0
359 299 303 0
359 303 363 0
302 303 298 0
298 303 299 0
361 362 300 0
300 362 301 0
304 301 362 0
304 362 365 0
363 303 308 0
363 308 369 0
306 308 302 0
302 308 303 0
365 367 304 0
304 367 305 0
309 305 367 0
309 367 372 0
375 370 313 0
313 370 369 0
313 369 308 0
311 313 308 0
307 311 308 0
307 308 306 0
372 374 309 0
309 374 310 0
314 310 374 0
314 374 378 0
381 376 319 0
319 376 375 0
319 375 313 0
317 319 313 0
312 317 313 0
312 313 311 0
378 380 314 0
314 380 315 0
380 384 321 0
316 380 321 0
315 380 316 0
321 320 316 0
386 382 325 0
325 382 381 0
325 381 319 0
323 325 319 0
318 323 319 0
318 319 317 0
384 385 321 0
321 385 320 0
385 322 320 0
385 387 322 0
325 324 386 0
324 387 386 0
324 322 387 0
324 325 323 0
389 390 326 0
326 390 328 0
392 389 331 0
389 327 331 0
389 326 327 0
330 331 327 0
391 395 329 0
329 395 334 0
329 328 390 0
329 390 391 0
394 392 331 0
397 394 335 0
335 394 332 0
394 331 332 0
331 330 332 0
333 337 332 0
332 337 335 0
336 337 333 0
395 339 334 0
401 339 395 0
399 397 335 0
399 335 337 0
399 337 400 0
404 400 342 0
342 400 338 0
400 337 338 0
337 336 338 0
341 342 338 0
402 406 340 0
340 406 343 0
340 339 401 0
340 401 402 0
404 342 346 0
404 346 408 0
345 346 341 0
341 346 342 0
407 410 344 0
344 410 347 0
344 343 406 0
344 406 407 0
408 346 349 0
408 349 412 0
348 349 345 0
345 349 346 0
410 351 347 0
415 351 410 0
414 412 349 0
417 414 353 0
353 414 350 0
414 349 350 0
349 348 350 0
352 353 350 0
415 354 351 0
419 354 415 0
417 353 356 0
417 356 421 0
355 356 352 0
352 356 353 0
420 423 358 0
419 420 358 0
357 419 358 0
354 419 357 0
421 356 360 0
421 360 425 0
359 360 355 0
355 360 356 0
423 424 358 0
357 358 424 0
427 357 424 0
361 357 427 0
425 360 364 0
425 364 428 0
363 364 359 0
359 364 360 0
362 361 366 0
361 431 366 0
361 427 431 0
366 365 362 0
433 429 368 0
368 429 428 0
364 368 428 0
371 368 364 0
369 371 363 0
363 371 364 0
431 432 366 0
432 435 373 0
432 373 367 0
366 432 367 0
365 366 367 0
373 372 367 0
433 368 377 0
433 377 437 0
375 377 370 0
377 371 370 0
377 368 371 0
370 371 369 0
435 436 373 0
436 440 379 0
436 379 374 0
373 436 374 0
372 373 374 0
379 378 374 0
443 438 383 0
383 438 437 0
383 437 377 0
381 383 377 0
376 381 377 0
376 377 375 0
440 441 379 0
379 441 378 0
441 380 378 0
441 442 380 0
384 380 442 0
384 442 446 0
447 444 388 0
388 444 443 0
388 443 383 0
386 388 383 0
382 386 383 0
382 383 381 0
446 448 384 0
384 448 385 0
388 387 447 0
387 448 447 0
387 385 448 0
387 388 386 0
393 390 389 0
392 393 389 0
396 395 391 0
451 396 391 0
451 391 390 0
450 451 390 0
393 450 390 0
453 450 398 0
398 450 394 0
450 393 394 0
393 392 394 0
397 398 394 0
452 456 396 0
456 395 396 0
456 401 395 0
452 396 451 0
455 453 398 0
460 455 403 0
403 455 399 0
455 398 399 0
398 397 399 0
400 405 399 0
399 405 403 0
404 405 400 0
457 463 402 0
402 463 406 0
402 401 456 0
402 456 457 0
462 460 403 0
409 465 462 0
403 409 462 0
405 409 403 0
408 409 404 0
404 409 405 0
411 410 407 0
467 411 407 0
406 467 407 0
463 467 406 0
465 409 413 0
465 413 469 0
412 413 408 0
408 413 409 0
416 415 411 0
411 415 410 0
411 467 472 0
411 472 416 0
471 469 413 0
475 471 418 0
418 471 414 0
471 413 414 0
413 412 414 0
417 418 414 0
473 477 416 0
477 415 416 0
477 419 415 0
473 416 472 0
475 418 422 0
475 422 480 0
421 422 417 0
417 422 418 0
478 482 420 0
420 482 423 0
420 419 477 0
420 477 478 0
480 422 426 0
480 426 485 0
425 426 421 0
421 426 422 0
482 483 423 0
423 483 424 0
427 424 483 0
427 483 487 0
485 426 430 0
485 430 489 0
428 430 425 0
425 430 426 0
487 431 427 0
492 431 487 0
495 490 434 0
434 490 489 0
434 489 430 0
433 434 430 0
429 433 430 0
429 430 428 0
492 493 431 0
431 493 432 0
435 432 493 0
435 493 497 0
495 434 439 0
495 439 501 0
437 439 433 0
433 439 434 0
497 498 435 0
435 498 436 0
440 436 498 0
440 498 504 0
509 502 445 0
445 502 501 0
445 501 439 0
443 445 439 0
438 443 439 0
438 439 437 0
504 505 440 0
440 505 441 0
441 507 442 0
505 507 441 0
510 449 446 0
442 510 446 0
507 510 442 0
449 510 509 0
449 509 445 0
447 449 445 0
444 447 445 0
444 445 443 0
449 448 446 0
448 449 447 0
454 451 450 0
453 454 450 0
458 456 452 0
451 454 452 0
454 458 452 0
454 459 458 0
455 461 453 0
461 454 453 0
461 459 454 0
460 461 455 0
464 463 457 0
515 464 457 0
515 457 456 0
512 515 456 0
458 512 456 0
512 458 459 0
512 459 513 0
513 459 461 0
513 461 514 0
518 514 466 0
466 514 462 0
514 461 462 0
461 460 462 0
465 466 462 0
468 467 464 0
464 467 463 0
464 515 520 0
464 520 468 0
518 466 470 0
518 470 523 0
469 470 465 0
465 470 466 0
474 472 468 0
468 472 467 0
468 520 526 0
468 526 474 0
525 523 470 0
530 525 476 0
476 525 471 0
525 470 471 0
470 469 471 0
475 476 471 0
479 477 473 0
532 479 473 0
532 473 472 0
527 532 472 0
474 527 472 0
527 474 526 0
530 476 481 0
530 481 537 0
480 481 475 0
475 481 476 0
484 482 478 0
539 484 478 0
539 478 477 0
533 539 477 0
479 533 477 0
533 479 532 0
537 481 486 0
537 486 543 0
485 486 480 0
480 486 481 0
484 483 482 0
540 488 487 0
540 487 483 0
539 540 483 0
484 539 483 0
545 488 540 0
543 486 491 0
543 491 547 0
489 491 485 0
485 491 486 0
494 492 488 0
488 492 487 0
488 545 550 0
488 550 494 0
553 548 496 0
496 548 547 0
496 547 491 0
495 496 491 0
490 495 491 0
490 491 489 0
494 493 492 0
551 499 497 0
551 497 493 0
550 551 493 0
494 550 493 0
556 499 551 0
559 554 500 0
500 554 553 0
496 500 553 0
503 500 496 0
501 503 495 0
495 503 496 0
499 498 497 0
557 506 504 0
557 504 498 0
556 557 498 0
499 556 498 0
560 508 506 0
560 506 557 0
508 560 559 0
500 508 559 0
511 508 500 0
509 511 502 0
511 503 502 0
511 500 503 0
502 503 501 0
506 505 504 0
505 506 507 0
507 506 508 0
507 508 510 0
510 508 511 0
510 511 509 0
516 515 512 0
513 517 512 0
512 517 516 0
514 519 513 0
513 519 517 0
518 519 514 0
521 520 516 0
516 520 515 0
522 516 517 0
521 516 522 0
524 517 519 0
522 517 524 0
523 524 518 0
518 524 519 0
528 526 521 0
521 526 520 0
522 562 563 0
528 522 563 0
521 522 528 0
529 564 562 0
522 529 562 0
524 529 522 0
525 531 523 0
531 524 523 0
531 529 524 0
530 531 525 0
534 532 527 0
526 528 527 0
528 534 527 0
528 535 534 0
528 563 566 0
528 566 535 0
564 529 536 0
564 536 568 0
538 529 531 0
536 529 538 0
537 538 530 0
530 538 531 0
541 539 533 0
532 534 533 0
534 541 533 0
534 542 541 0
535 567 571 0
542 535 571 0
534 535 542 0
567 535 566 0
570 568 536 0
544 575 570 0
536 544 570 0
538 544 536 0
543 544 537 0
537 544 538 0
541 540 539 0
541 542 572 0
545 541 572 0
578 545 572 0
541 545 540 0
572 542 571 0
581 576 546 0
546 576 575 0
544 546 575 0
549 546 544 0
547 549 543 0
543 549 544 0
552 550 579 0
550 578 579 0
550 545 578 0
583 552 579 0
581 546 555 0
581 555 586 0
553 555 548 0
555 549 548 0
555 546 549 0
548 549 547 0
552 551 550 0
584 558 556 0
584 556 551 0
583 584 551 0
552 583 551 0
587 561 558 0
587 558 584 0
561 587 586 0
561 586 555 0
559 561 555 0
554 559 555 0
554 555 553 0
558 557 556 0
557 558 560 0
560 558 561 0
560 561 559 0
565 563 562 0
564 565 562 0
569 566 565 0
565 566 563 0
568 569 564 0
564 569 565 0
573 571 567 0
566 569 567 0
569 573 567 0
569 574 573 0
570 577 568 0
577 569 568 0
577 574 569 0
575 577 570 0
580 578 572 0
590 580 572 0
590 572 571 0
589 590 571 0
573 589 571 0
582 591 589 0
573 582 589 0
574 582 573 0
581 582 576 0
582 577 576 0
582 574 577 0
576 577 575 0
580 579 578 0
592 585 583 0
592 583 579 0
590 592 579 0
580 590 579 0
585 592 591 0
582 585 591 0
588 585 582 0
586 588 581 0
581 588 582 0
585 584 583 0
584 585 587 0
587 585 588 0
587 588 586 0
593 590 589 0
591 593 589 0
593 592 590 0
592 593 591 0
