#!ascii version in FreeSurfer format (SUMA)
432 860
-4.814751  -56.151493  -36.396866  0
-5.314751  -56.151493  -36.396866  0
-4.814751  -56.651493  -36.396866  0
-5.314751  -56.651493  -36.396866  0
-4.814751  -57.151493  -36.396866  0
-5.314751  -57.151493  -36.396866  0
-5.814751  -57.151493  -36.396866  0
-5.314751  -57.651493  -36.396866  0
-5.814751  -57.651493  -36.396866  0
-6.314751  -57.651493  -36.396866  0
-5.314751  -58.151493  -36.396866  0
-5.814751  -58.151493  -36.396866  0
-4.814751  -55.901493  -36.146866  0
-5.314751  -55.901493  -36.146866  0
-4.564751  -56.151493  -36.146866  0
-5.564751  -56.151493  -36.146866  0
-5.814751  -56.151493  -35.896866  0
-6.314751  -56.151493  -35.896866  0
-4.564751  -56.651493  -36.146866  0
-5.564751  -56.651493  -36.146866  0
-5.814751  -56.901493  -36.146866  0
-5.814751  -56.651493  -35.896866  0
-6.314751  -56.651493  -35.896866  0
-4.564751  -57.151493  -36.146866  0
-4.814751  -57.401493  -36.146866  0
-6.064751  -57.151493  -36.146866  0
-6.314751  -57.401493  -36.146866  0
-6.314751  -57.151493  -35.896866  0
-6.814751  -57.151493  -35.896866  0
-5.064751  -57.651493  -36.146866  0
-6.564751  -57.651493  -36.146866  0
-6.314751  -57.901493  -36.146866  0
-6.814751  -57.651493  -35.896866  0
-5.064751  -58.151493  -36.146866  0
-5.314751  -58.401493  -36.146866  0
-6.064751  -58.151493  -36.146866  0
-5.814751  -58.401493  -36.146866  0
-6.314751  -58.151493  -35.896866  0
-6.814751  -58.151493  -35.896866  0
-5.314751  -58.651493  -35.896866  0
-5.814751  -58.651493  -35.896866  0
-6.314751  -58.651493  -35.896866  0
-6.814751  -58.651493  -35.896866  0
-6.314751  -55.151493  -35.396866  0
-6.814751  -55.151493  -35.396866  0
-7.314751  -55.151493  -35.396866  0
-4.814751  -55.901493  -35.646866  0
-5.314751  -55.901493  -35.646866  0
-5.814751  -55.901493  -35.646866  0
-5.814751  -55.651493  -35.396866  0
-6.314751  -55.901493  -35.646866  0
-6.314751  -55.651493  -35.396866  0
-6.814751  -55.651493  -35.396866  0
-7.314751  -55.651493  -35.396866  0
-7.814751  -55.651493  -35.396866  0
-4.564751  -56.151493  -35.646866  0
-6.564751  -56.151493  -35.646866  0
-6.814751  -56.151493  -35.396866  0
-7.314751  -56.151493  -35.396866  0
-7.814751  -56.151493  -35.396866  0
-4.564751  -56.651493  -35.646866  0
-6.564751  -56.651493  -35.646866  0
-6.814751  -56.901493  -35.646866  0
-6.814751  -56.651493  -35.396866  0
-7.314751  -56.651493  -35.396866  0
-7.814751  -56.651493  -35.396866  0
-4.564751  -57.151493  -35.646866  0
-4.814751  -57.401493  -35.646866  0
-7.064751  -57.151493  -35.646866  0
-7.314751  -57.151493  -35.396866  0
-7.814751  -57.151493  -35.396866  0
-5.064751  -57.651493  -35.646866  0
-4.814751  -57.651493  -35.396866  0
-7.064751  -57.651493  -35.646866  0
-7.314751  -57.651493  -35.396866  0
-7.814751  -57.651493  -35.396866  0
-5.064751  -58.151493  -35.646866  0
-7.064751  -58.151493  -35.646866  0
-7.314751  -58.151493  -35.396866  0
-7.814751  -58.151493  -35.396866  0
-5.064751  -58.651493  -35.646866  0
-5.314751  -58.901493  -35.646866  0
-5.814751  -58.901493  -35.646866  0
-6.314751  -58.901493  -35.646866  0
-7.064751  -58.651493  -35.646866  0
-6.814751  -58.901493  -35.646866  0
-7.314751  -58.651493  -35.396866  0
-7.814751  -58.651493  -35.396866  0
-5.314751  -59.151493  -35.396866  0
-5.814751  -59.151493  -35.396866  0
-6.314751  -54.901493  -35.146866  0
-6.814751  -54.901493  -35.146866  0
-7.314751  -54.901493  -35.146866  0
-6.064751  -55.151493  -35.146866  0
-5.814751  -55.401493  -35.146866  0
-7.564751  -55.151493  -35.146866  0
-7.814751  -55.401493  -35.146866  0
-7.814751  -55.151493  -34.896866  0
-8.314751  -55.151493  -34.896866  0
-4.814751  -55.901493  -35.146866  0
-5.564751  -55.651493  -35.146866  0
-5.314751  -55.901493  -35.146866  0
-8.064751  -55.651493  -35.146866  0
-8.314751  -55.651493  -34.896866  0
-4.564751  -56.151493  -35.146866  0
-4.814751  -56.151493  -34.896866  0
-8.064751  -56.151493  -35.146866  0
-8.314751  -56.151493  -34.896866  0
-8.814751  -56.151493  -34.896866  0
-4.564751  -56.651493  -35.146866  0
-4.814751  -56.651493  -34.896866  0
-8.064751  -56.651493  -35.146866  0
-8.314751  -56.651493  -34.896866  0
-8.814751  -56.651493  -34.896866  0
-4.564751  -57.151493  -35.146866  0
-4.814751  -57.151493  -34.896866  0
-8.064751  -57.151493  -35.146866  0
-8.314751  -57.151493  -34.896866  0
-8.814751  -57.151493  -34.896866  0
-4.564751  -57.651493  -35.146866  0
-4.814751  -57.901493  -35.146866  0
-4.814751  -57.651493  -34.896866  0
-8.064751  -57.651493  -35.146866  0
-8.314751  -57.651493  -34.896866  0
-5.064751  -58.151493  -35.146866  0
-8.064751  -58.151493  -35.146866  0
-8.314751  -58.151493  -34.896866  0
-5.064751  -58.651493  -35.146866  0
-6.314751  -58.901493  -35.146866  0
-6.814751  -58.901493  -35.146866  0
-7.314751  -58.901493  -35.146866  0
-8.064751  -58.651493  -35.146866  0
-7.814751  -58.901493  -35.146866  0
-8.314751  -58.651493  -34.896866  0
-5.064751  -59.151493  -35.146866  0
-5.314751  -59.401493  -35.146866  0
-6.064751  -59.151493  -35.146866  0
-5.814751  -59.401493  -35.146866  0
-6.314751  -59.151493  -34.896866  0
-6.814751  -59.151493  -34.896866  0
-7.314751  -59.151493  -34.896866  0
-6.314751  -59.651493  -34.896866  0
-6.814751  -59.651493  -34.896866  0
-6.314751  -54.901493  -34.646866  0
-6.814751  -54.901493  -34.646866  0
-7.314751  -54.901493  -34.646866  0
-7.814751  -54.901493  -34.646866  0
-8.314751  -54.901493  -34.646866  0
-6.064751  -55.151493  -34.646866  0
-5.814751  -55.401493  -34.646866  0
-6.314751  -55.151493  -34.396866  0
-8.564751  -55.151493  -34.646866  0
-8.814751  -55.151493  -34.396866  0
-5.564751  -55.651493  -34.646866  0
-5.314751  -55.901493  -34.646866  0
-5.814751  -55.651493  -34.396866  0
-8.564751  -55.651493  -34.646866  0
-8.814751  -55.901493  -34.646866  0
-8.814751  -55.651493  -34.396866  0
-5.064751  -56.151493  -34.646866  0
-5.314751  -56.151493  -34.396866  0
-9.064751  -56.151493  -34.646866  0
-9.314751  -56.151493  -34.396866  0
-5.064751  -56.651493  -34.646866  0
-5.314751  -56.651493  -34.396866  0
-9.064751  -56.651493  -34.646866  0
-9.314751  -56.651493  -34.396866  0
-5.064751  -57.151493  -34.646866  0
-5.314751  -57.151493  -34.396866  0
-9.064751  -57.151493  -34.646866  0
-8.814751  -57.401493  -34.646866  0
-9.314751  -57.151493  -34.396866  0
-5.064751  -57.651493  -34.646866  0
-5.314751  -57.651493  -34.396866  0
-8.564751  -57.651493  -34.646866  0
-8.814751  -57.651493  -34.396866  0
-9.314751  -57.651493  -34.396866  0
-5.064751  -58.151493  -34.646866  0
-5.314751  -58.151493  -34.396866  0
-8.564751  -58.151493  -34.646866  0
-8.814751  -58.151493  -34.396866  0
-5.064751  -58.651493  -34.646866  0
-5.314751  -58.651493  -34.396866  0
-7.814751  -58.901493  -34.646866  0
-8.564751  -58.651493  -34.646866  0
-8.314751  -58.901493  -34.646866  0
-8.814751  -58.651493  -34.396866  0
-5.064751  -59.151493  -34.646866  0
-5.314751  -59.401493  -34.646866  0
-5.314751  -59.151493  -34.396866  0
-5.814751  -59.401493  -34.646866  0
-7.564751  -59.151493  -34.646866  0
-7.314751  -59.401493  -34.646866  0
-7.814751  -59.151493  -34.396866  0
-6.064751  -59.651493  -34.646866  0
-6.314751  -59.901493  -34.646866  0
-7.064751  -59.651493  -34.646866  0
-6.814751  -59.901493  -34.646866  0
-7.314751  -59.651493  -34.396866  0
-6.814751  -54.901493  -34.146866  0
-7.314751  -54.901493  -34.146866  0
-7.814751  -54.901493  -34.146866  0
-8.314751  -54.901493  -34.146866  0
-8.814751  -54.901493  -34.146866  0
-6.564751  -55.151493  -34.146866  0
-6.314751  -55.401493  -34.146866  0
-6.814751  -55.151493  -33.896866  0
-9.064751  -55.151493  -34.146866  0
-9.314751  -55.151493  -33.896866  0
-6.064751  -55.651493  -34.146866  0
-5.814751  -55.901493  -34.146866  0
-6.314751  -55.651493  -33.896866  0
-6.814751  -55.651493  -33.896866  0
-9.064751  -55.651493  -34.146866  0
-9.314751  -55.901493  -34.146866  0
-9.314751  -55.651493  -33.896866  0
-5.564751  -56.151493  -34.146866  0
-5.814751  -56.151493  -33.896866  0
-6.314751  -56.151493  -33.896866  0
-9.564751  -56.151493  -34.146866  0
-9.814751  -56.151493  -33.896866  0
-5.564751  -56.651493  -34.146866  0
-5.814751  -56.651493  -33.896866  0
-6.314751  -56.651493  -33.896866  0
-9.564751  -56.651493  -34.146866  0
-9.814751  -56.651493  -33.896866  0
-5.564751  -57.151493  -34.146866  0
-5.814751  -57.151493  -33.896866  0
-9.564751  -57.151493  -34.146866  0
-9.814751  -57.151493  -33.896866  0
-5.564751  -57.651493  -34.146866  0
-5.814751  -57.651493  -33.896866  0
-9.564751  -57.651493  -34.146866  0
-9.314751  -57.901493  -34.146866  0
-9.814751  -57.651493  -33.896866  0
-5.564751  -58.151493  -34.146866  0
-5.814751  -58.151493  -33.896866  0
-9.064751  -58.151493  -34.146866  0
-9.314751  -58.151493  -33.896866  0
-5.564751  -58.651493  -34.146866  0
-5.814751  -58.651493  -33.896866  0
-8.314751  -58.901493  -34.146866  0
-9.064751  -58.651493  -34.146866  0
-8.814751  -58.901493  -34.146866  0
-9.314751  -58.651493  -33.896866  0
-5.564751  -59.151493  -34.146866  0
-5.814751  -59.401493  -34.146866  0
-5.814751  -59.151493  -33.896866  0
-8.064751  -59.151493  -34.146866  0
-7.814751  -59.401493  -34.146866  0
-8.314751  -59.151493  -33.896866  0
-6.064751  -59.651493  -34.146866  0
-6.314751  -59.901493  -34.146866  0
-6.314751  -59.651493  -33.896866  0
-6.814751  -59.901493  -34.146866  0
-6.814751  -59.651493  -33.896866  0
-7.564751  -59.651493  -34.146866  0
-7.314751  -59.901493  -34.146866  0
-7.814751  -59.651493  -33.896866  0
-7.314751  -54.901493  -33.646866  0
-7.814751  -54.901493  -33.646866  0
-8.314751  -54.901493  -33.646866  0
-8.814751  -54.901493  -33.646866  0
-9.314751  -54.901493  -33.646866  0
-7.064751  -55.151493  -33.646866  0
-7.314751  -55.151493  -33.396866  0
-7.814751  -55.151493  -33.396866  0
-9.564751  -55.151493  -33.646866  0
-7.064751  -55.651493  -33.646866  0
-6.814751  -55.901493  -33.646866  0
-7.314751  -55.651493  -33.396866  0
-7.814751  -55.651493  -33.396866  0
-9.564751  -55.651493  -33.646866  0
-9.814751  -55.901493  -33.646866  0
-9.814751  -55.651493  -33.396866  0
-6.564751  -56.151493  -33.646866  0
-6.814751  -56.151493  -33.396866  0
-7.314751  -56.151493  -33.396866  0
-10.064751  -56.151493  -33.646866  0
-6.564751  -56.651493  -33.646866  0
-6.314751  -56.901493  -33.646866  0
-6.814751  -56.651493  -33.396866  0
-10.064751  -56.651493  -33.646866  0
-6.064751  -57.151493  -33.646866  0
-6.314751  -57.151493  -33.396866  0
-6.814751  -57.151493  -33.396866  0
-10.064751  -57.151493  -33.646866  0
-6.064751  -57.651493  -33.646866  0
-6.314751  -57.651493  -33.396866  0
-10.064751  -57.651493  -33.646866  0
-9.814751  -57.901493  -33.646866  0
-6.064751  -58.151493  -33.646866  0
-6.314751  -58.151493  -33.396866  0
-9.564751  -58.151493  -33.646866  0
-6.064751  -58.651493  -33.646866  0
-6.314751  -58.651493  -33.396866  0
-8.814751  -58.901493  -33.646866  0
-9.564751  -58.651493  -33.646866  0
-9.314751  -58.901493  -33.646866  0
-6.064751  -59.151493  -33.646866  0
-6.314751  -59.401493  -33.646866  0
-6.314751  -59.151493  -33.396866  0
-6.814751  -59.401493  -33.646866  0
-6.814751  -59.151493  -33.396866  0
-8.564751  -59.151493  -33.646866  0
-8.314751  -59.401493  -33.646866  0
-7.064751  -59.651493  -33.646866  0
-7.314751  -59.901493  -33.646866  0
-7.314751  -59.651493  -33.396866  0
-8.064751  -59.651493  -33.646866  0
-7.814751  -59.901493  -33.646866  0
-7.814751  -59.651493  -33.396866  0
-8.314751  -54.901493  -33.146866  0
-8.814751  -54.901493  -33.146866  0
-9.314751  -54.901493  -33.146866  0
-8.064751  -55.151493  -33.146866  0
-8.314751  -55.151493  -32.896866  0
-8.814751  -55.151493  -32.896866  0
-9.564751  -55.151493  -33.146866  0
-9.314751  -55.151493  -32.896866  0
-9.814751  -55.401493  -33.146866  0
-8.064751  -55.651493  -33.146866  0
-7.814751  -55.901493  -33.146866  0
-8.314751  -55.651493  -32.896866  0
-10.064751  -55.651493  -33.146866  0
-9.814751  -55.651493  -32.896866  0
-7.564751  -56.151493  -33.146866  0
-7.314751  -56.401493  -33.146866  0
-7.814751  -56.151493  -32.896866  0
-10.064751  -56.151493  -33.146866  0
-7.064751  -56.651493  -33.146866  0
-7.314751  -56.651493  -32.896866  0
-7.814751  -56.651493  -32.896866  0
-10.064751  -56.651493  -33.146866  0
-7.064751  -57.151493  -33.146866  0
-6.814751  -57.401493  -33.146866  0
-10.064751  -57.151493  -33.146866  0
-6.564751  -57.651493  -33.146866  0
-6.814751  -57.651493  -32.896866  0
-10.064751  -57.651493  -33.146866  0
-9.814751  -57.901493  -33.146866  0
-9.814751  -57.651493  -32.896866  0
-6.564751  -58.151493  -33.146866  0
-6.814751  -58.151493  -32.896866  0
-9.564751  -58.151493  -33.146866  0
-6.564751  -58.651493  -33.146866  0
-6.814751  -58.901493  -33.146866  0
-6.814751  -58.651493  -32.896866  0
-7.314751  -58.651493  -32.896866  0
-8.814751  -58.901493  -33.146866  0
-9.564751  -58.651493  -33.146866  0
-9.314751  -58.901493  -33.146866  0
-7.064751  -59.151493  -33.146866  0
-7.314751  -59.401493  -33.146866  0
-7.314751  -59.151493  -32.896866  0
-7.814751  -59.401493  -33.146866  0
-7.814751  -59.151493  -32.896866  0
-8.564751  -59.151493  -33.146866  0
-8.314751  -59.401493  -33.146866  0
-8.314751  -59.151493  -32.896866  0
-8.814751  -55.401493  -32.646866  0
-9.314751  -55.401493  -32.646866  0
-8.564751  -55.651493  -32.646866  0
-8.314751  -55.901493  -32.646866  0
-8.814751  -55.651493  -32.396866  0
-9.564751  -55.651493  -32.646866  0
-9.314751  -55.651493  -32.396866  0
-9.814751  -55.901493  -32.646866  0
-8.064751  -56.151493  -32.646866  0
-8.314751  -56.151493  -32.396866  0
-8.814751  -56.151493  -32.396866  0
-10.064751  -56.151493  -32.646866  0
-7.314751  -56.901493  -32.646866  0
-8.064751  -56.651493  -32.646866  0
-7.814751  -56.901493  -32.646866  0
-8.314751  -56.651493  -32.396866  0
-10.064751  -56.651493  -32.646866  0
-7.064751  -57.151493  -32.646866  0
-7.314751  -57.151493  -32.396866  0
-7.814751  -57.151493  -32.396866  0
-10.064751  -57.151493  -32.646866  0
-9.814751  -57.401493  -32.646866  0
-7.064751  -57.651493  -32.646866  0
-7.314751  -57.651493  -32.396866  0
-7.814751  -57.651493  -32.396866  0
-9.564751  -57.651493  -32.646866  0
-7.064751  -58.151493  -32.646866  0
-7.314751  -58.401493  -32.646866  0
-7.314751  -58.151493  -32.396866  0
-7.814751  -58.151493  -32.396866  0
-8.314751  -58.151493  -32.396866  0
-8.814751  -58.151493  -32.396866  0
-9.564751  -58.151493  -32.646866  0
-9.314751  -58.151493  -32.396866  0
-7.564751  -58.651493  -32.646866  0
-7.814751  -58.901493  -32.646866  0
-7.814751  -58.651493  -32.396866  0
-8.314751  -58.901493  -32.646866  0
-8.314751  -58.651493  -32.396866  0
-8.814751  -58.901493  -32.646866  0
-8.814751  -58.651493  -32.396866  0
-9.564751  -58.651493  -32.646866  0
-9.314751  -58.901493  -32.646866  0
-9.314751  -58.651493  -32.396866  0
-9.314751  -55.901493  -32.146866  0
-9.814751  -55.901493  -32.146866  0
-9.064751  -56.151493  -32.146866  0
-8.814751  -56.401493  -32.146866  0
-9.314751  -56.151493  -31.896866  0
-10.064751  -56.151493  -32.146866  0
-9.814751  -56.151493  -31.896866  0
-8.564751  -56.651493  -32.146866  0
-8.314751  -56.901493  -32.146866  0
-8.814751  -56.651493  -31.896866  0
-9.314751  -56.651493  -31.896866  0
-10.064751  -56.651493  -32.146866  0
-9.814751  -56.651493  -31.896866  0
-8.064751  -57.151493  -32.146866  0
-8.314751  -57.151493  -31.896866  0
-8.814751  -57.151493  -31.896866  0
-9.314751  -57.151493  -31.896866  0
-10.064751  -57.151493  -32.146866  0
-9.814751  -57.401493  -32.146866  0
-9.814751  -57.151493  -31.896866  0
-8.064751  -57.651493  -32.146866  0
-8.314751  -57.901493  -32.146866  0
-8.314751  -57.651493  -31.896866  0
-8.814751  -57.901493  -32.146866  0
-8.814751  -57.651493  -31.896866  0
-9.564751  -57.651493  -32.146866  0
-9.314751  -57.901493  -32.146866  0
-9.314751  -57.651493  -31.896866  0
12 14 0 0
1 13 0 0
0 13 12 0
1 15 13 0
0 14 2 0
2 14 18 0
0 3 1 0
0 2 3 0
15 1 19 0
19 1 3 0
2 18 4 0
4 18 23 0
2 5 3 0
2 4 5 0
19 3 20 0
3 6 20 0
3 5 6 0
6 25 20 0
23 24 4 0
29 7 24 0
7 4 24 0
7 5 4 0
5 8 6 0
5 7 8 0
25 6 26 0
6 9 26 0
6 8 9 0
9 30 26 0
7 29 10 0
10 29 33 0
7 11 8 0
7 10 11 0
31 9 35 0
9 11 35 0
9 8 11 0
9 31 30 0
33 34 10 0
10 34 11 0
11 34 36 0
11 36 35 0
46 55 12 0
12 55 14 0
47 12 13 0
47 46 12 0
16 48 15 0
48 13 15 0
48 47 13 0
17 50 16 0
16 50 48 0
17 56 50 0
55 18 14 0
60 18 55 0
19 21 16 0
19 16 15 0
16 22 17 0
16 21 22 0
56 17 61 0
61 17 22 0
60 23 18 0
66 23 60 0
20 21 19 0
21 20 25 0
27 21 25 0
22 21 27 0
61 22 62 0
22 28 62 0
22 27 28 0
28 68 62 0
66 67 23 0
23 67 24 0
29 24 67 0
29 67 71 0
26 27 25 0
27 26 30 0
32 27 30 0
28 27 32 0
68 28 73 0
73 28 32 0
71 33 29 0
76 33 71 0
35 37 31 0
32 30 31 0
37 32 31 0
38 32 37 0
73 32 77 0
77 32 38 0
34 33 39 0
33 80 39 0
33 76 80 0
40 36 34 0
40 34 39 0
37 35 36 0
40 37 36 0
41 37 40 0
37 42 38 0
37 41 42 0
77 38 84 0
84 38 42 0
80 81 39 0
39 81 40 0
40 81 82 0
40 82 41 0
41 82 83 0
41 83 42 0
42 83 85 0
42 85 84 0
90 93 43 0
44 91 43 0
43 91 90 0
45 92 44 0
44 92 91 0
45 95 92 0
94 100 49 0
94 49 93 0
49 43 93 0
49 51 43 0
43 52 44 0
43 51 52 0
44 53 45 0
44 52 53 0
95 45 96 0
45 54 96 0
45 53 54 0
54 102 96 0
99 104 46 0
46 104 55 0
101 46 47 0
101 99 46 0
48 49 100 0
101 48 100 0
47 48 101 0
49 48 50 0
49 50 51 0
51 50 56 0
57 51 56 0
52 51 57 0
52 58 53 0
52 57 58 0
53 59 54 0
53 58 59 0
102 54 106 0
106 54 59 0
104 60 55 0
109 60 104 0
61 63 57 0
61 57 56 0
57 64 58 0
57 63 64 0
58 65 59 0
58 64 65 0
106 59 111 0
111 59 65 0
109 66 60 0
114 66 109 0
62 63 61 0
63 62 68 0
69 63 68 0
64 63 69 0
64 70 65 0
64 69 70 0
111 65 116 0
116 65 70 0
67 66 72 0
66 119 72 0
66 114 119 0
72 71 67 0
73 74 69 0
73 69 68 0
69 75 70 0
69 74 75 0
116 70 122 0
122 70 75 0
119 120 72 0
71 72 120 0
124 71 120 0
76 71 124 0
77 78 74 0
77 74 73 0
74 79 75 0
74 78 79 0
122 75 125 0
125 75 79 0
124 80 76 0
127 80 124 0
84 86 78 0
84 78 77 0
78 87 79 0
78 86 87 0
125 79 131 0
131 79 87 0
81 80 88 0
80 134 88 0
80 127 134 0
89 82 81 0
89 81 88 0
82 89 136 0
128 82 136 0
83 82 128 0
83 129 85 0
128 129 83 0
84 85 86 0
85 130 86 0
85 129 130 0
86 130 87 0
87 130 132 0
87 132 131 0
134 135 88 0
88 135 89 0
89 135 137 0
89 137 136 0
143 148 90 0
90 148 93 0
144 90 91 0
144 143 90 0
145 91 92 0
145 144 91 0
97 146 95 0
146 92 95 0
146 145 92 0
98 147 97 0
97 147 146 0
98 151 147 0
149 153 94 0
94 153 100 0
94 93 148 0
94 148 149 0
96 97 95 0
97 96 102 0
103 97 102 0
98 97 103 0
151 98 156 0
156 98 103 0
105 104 99 0
105 99 159 0
99 154 159 0
99 101 154 0
101 100 153 0
101 153 154 0
106 107 103 0
106 103 102 0
156 103 157 0
103 108 157 0
103 107 108 0
108 161 157 0
110 109 105 0
105 109 104 0
105 159 163 0
105 163 110 0
111 112 107 0
111 107 106 0
107 113 108 0
107 112 113 0
161 108 165 0
165 108 113 0
115 114 110 0
110 114 109 0
110 163 167 0
110 167 115 0
116 117 112 0
116 112 111 0
112 118 113 0
112 117 118 0
165 113 169 0
169 113 118 0
121 119 115 0
115 119 114 0
115 167 172 0
115 172 121 0
122 123 117 0
122 117 116 0
170 118 174 0
118 123 174 0
118 117 123 0
118 170 169 0
121 120 119 0
124 120 121 0
172 124 121 0
177 124 172 0
125 126 123 0
125 123 122 0
174 123 179 0
179 123 126 0
177 127 124 0
181 127 177 0
131 133 126 0
131 126 125 0
179 126 184 0
184 126 133 0
181 134 127 0
187 134 181 0
136 138 128 0
139 129 128 0
139 128 138 0
140 130 129 0
140 129 139 0
130 140 191 0
183 130 191 0
132 130 183 0
131 132 133 0
132 185 133 0
132 183 185 0
133 185 184 0
187 188 134 0
134 188 135 0
135 190 137 0
188 190 135 0
137 190 136 0
190 141 136 0
141 138 136 0
141 190 194 0
138 142 139 0
138 141 142 0
192 140 196 0
140 142 196 0
140 139 142 0
140 192 191 0
194 195 141 0
141 195 142 0
142 195 197 0
142 197 196 0
150 148 143 0
150 143 204 0
143 199 204 0
143 144 199 0
200 144 145 0
200 199 144 0
201 145 146 0
201 200 145 0
202 146 147 0
202 201 146 0
152 203 151 0
203 147 151 0
203 202 147 0
152 207 203 0
155 153 149 0
209 155 149 0
209 149 148 0
205 209 148 0
150 205 148 0
205 150 204 0
156 158 152 0
156 152 151 0
207 152 213 0
213 152 158 0
160 159 154 0
216 160 154 0
216 154 153 0
210 216 153 0
155 210 153 0
210 155 209 0
157 158 156 0
162 214 161 0
161 214 157 0
214 213 157 0
213 158 157 0
162 219 214 0
164 163 160 0
160 163 159 0
160 216 221 0
160 221 164 0
165 166 162 0
165 162 161 0
219 162 224 0
224 162 166 0
168 167 164 0
164 167 163 0
164 221 226 0
164 226 168 0
169 171 166 0
169 166 165 0
224 166 228 0
228 166 171 0
173 172 168 0
168 172 167 0
168 226 230 0
168 230 173 0
174 175 170 0
171 169 170 0
175 171 170 0
176 171 175 0
228 171 232 0
232 171 176 0
178 177 173 0
173 177 172 0
173 230 235 0
173 235 178 0
179 180 175 0
179 175 174 0
233 176 237 0
176 180 237 0
176 175 180 0
176 233 232 0
182 181 178 0
178 181 177 0
178 235 239 0
178 239 182 0
184 186 180 0
184 180 179 0
237 180 242 0
242 180 186 0
189 187 182 0
182 187 181 0
182 239 245 0
182 245 189 0
191 193 183 0
183 193 248 0
241 183 248 0
185 183 241 0
184 185 186 0
185 243 186 0
185 241 243 0
186 243 242 0
189 188 187 0
245 246 189 0
246 188 189 0
246 190 188 0
194 190 246 0
194 246 251 0
196 198 192 0
198 256 192 0
192 256 191 0
256 249 191 0
249 193 191 0
193 249 248 0
251 252 194 0
194 252 195 0
195 254 197 0
252 254 195 0
196 197 198 0
197 257 198 0
197 254 257 0
198 257 256 0
206 204 199 0
206 199 264 0
199 259 264 0
199 200 259 0
260 200 201 0
260 259 200 0
261 201 202 0
261 260 201 0
262 202 203 0
262 261 202 0
208 263 207 0
263 203 207 0
263 262 203 0
208 267 263 0
211 209 205 0
204 206 205 0
206 211 205 0
206 212 211 0
206 264 268 0
206 268 212 0
213 215 208 0
213 208 207 0
267 208 272 0
272 208 215 0
217 216 210 0
209 211 210 0
211 217 210 0
211 218 217 0
212 269 275 0
218 212 275 0
211 212 218 0
269 212 268 0
214 215 213 0
220 273 219 0
219 273 214 0
273 272 214 0
272 215 214 0
220 278 273 0
222 221 217 0
217 221 216 0
223 217 218 0
222 217 223 0
218 275 279 0
218 279 223 0
224 225 220 0
224 220 219 0
278 220 282 0
282 220 225 0
227 226 222 0
222 226 221 0
223 280 283 0
227 223 283 0
222 223 227 0
280 223 279 0
228 229 225 0
228 225 224 0
282 225 286 0
286 225 229 0
231 230 227 0
227 230 226 0
227 283 287 0
227 287 231 0
232 234 229 0
232 229 228 0
286 229 289 0
289 229 234 0
236 235 231 0
231 235 230 0
231 287 291 0
231 291 236 0
237 238 233 0
238 293 233 0
233 293 232 0
293 290 232 0
290 234 232 0
234 290 289 0
240 239 236 0
236 239 235 0
236 291 294 0
236 294 240 0
242 244 238 0
242 238 237 0
293 238 297 0
297 238 244 0
247 245 240 0
240 245 239 0
240 294 299 0
240 299 247 0
248 250 241 0
241 250 304 0
296 241 304 0
243 241 296 0
242 243 244 0
243 298 244 0
243 296 298 0
244 298 297 0
247 246 245 0
300 253 251 0
300 251 246 0
299 300 246 0
247 299 246 0
302 255 253 0
302 253 300 0
306 255 302 0
256 258 249 0
258 309 249 0
249 309 248 0
309 305 248 0
305 250 248 0
250 305 304 0
253 252 251 0
252 253 254 0
254 253 255 0
306 307 255 0
307 254 255 0
307 257 254 0
256 257 258 0
257 310 258 0
257 307 310 0
258 310 309 0
265 264 259 0
260 266 259 0
259 266 265 0
266 260 315 0
260 312 315 0
260 261 312 0
313 261 262 0
313 312 261 0
314 262 263 0
314 313 262 0
263 267 314 0
314 267 318 0
270 268 265 0
265 268 264 0
271 265 266 0
270 265 271 0
266 315 321 0
266 321 271 0
272 274 320 0
318 272 320 0
267 272 318 0
274 324 320 0
276 275 269 0
268 270 269 0
270 276 269 0
270 277 276 0
271 322 326 0
277 271 326 0
270 271 277 0
322 271 321 0
273 274 272 0
273 278 274 0
278 324 274 0
278 329 324 0
281 279 276 0
276 279 275 0
277 327 330 0
281 277 330 0
276 277 281 0
327 277 326 0
282 329 278 0
282 333 329 0
284 283 280 0
279 281 280 0
281 284 280 0
281 285 284 0
281 330 334 0
281 334 285 0
286 333 282 0
286 336 333 0
288 287 284 0
284 287 283 0
285 335 337 0
288 285 337 0
284 285 288 0
335 285 334 0
289 336 286 0
289 339 336 0
292 291 288 0
288 291 287 0
288 337 342 0
288 342 292 0
344 340 290 0
344 290 293 0
289 290 339 0
339 290 340 0
295 294 292 0
292 294 291 0
292 342 345 0
292 345 295 0
297 344 293 0
297 350 344 0
301 299 295 0
295 299 294 0
295 345 346 0
303 295 346 0
301 295 303 0
352 303 346 0
357 349 296 0
357 296 304 0
296 351 298 0
349 351 296 0
297 298 350 0
350 298 351 0
301 300 299 0
300 301 302 0
302 301 303 0
353 308 306 0
353 306 302 0
352 353 302 0
303 352 302 0
355 311 308 0
355 308 353 0
305 309 311 0
355 305 311 0
358 305 355 0
304 305 357 0
357 305 358 0
308 307 306 0
307 308 310 0
310 308 311 0
310 311 309 0
316 315 312 0
313 317 312 0
312 317 316 0
314 319 313 0
313 319 317 0
318 319 314 0
323 321 316 0
316 321 315 0
317 360 362 0
323 317 362 0
316 317 323 0
360 317 319 0
360 319 361 0
365 361 325 0
325 361 320 0
361 319 320 0
319 318 320 0
324 325 320 0
328 326 322 0
368 328 322 0
368 322 321 0
363 368 321 0
323 363 321 0
363 323 362 0
367 365 325 0
325 324 367 0
324 371 367 0
324 329 371 0
331 330 327 0
326 328 327 0
328 331 327 0
328 332 331 0
328 368 373 0
328 373 332 0
333 371 329 0
333 376 371 0
372 377 331 0
377 330 331 0
377 334 330 0
372 331 332 0
372 332 374 0
374 332 373 0
336 376 333 0
336 380 376 0
338 337 335 0
382 338 335 0
334 382 335 0
377 382 334 0
385 381 341 0
381 380 341 0
380 339 341 0
380 336 339 0
343 342 338 0
338 342 337 0
338 382 386 0
338 386 343 0
385 341 340 0
344 385 340 0
392 385 344 0
340 341 339 0
347 345 343 0
343 345 342 0
343 386 387 0
348 343 387 0
347 343 348 0
394 348 387 0
350 392 344 0
350 401 392 0
347 346 345 0
346 347 352 0
347 354 352 0
347 348 354 0
348 394 395 0
356 348 395 0
354 348 356 0
397 359 356 0
397 356 395 0
349 357 359 0
397 349 359 0
399 349 397 0
349 402 351 0
399 402 349 0
350 351 401 0
401 351 402 0
354 353 352 0
353 354 355 0
355 354 356 0
355 356 358 0
358 356 359 0
358 359 357 0
364 362 360 0
361 366 360 0
360 366 364 0
365 366 361 0
369 368 363 0
362 364 363 0
364 369 363 0
364 370 369 0
366 404 406 0
370 366 406 0
364 366 370 0
404 366 365 0
367 404 365 0
405 404 367 0
367 371 405 0
405 371 409 0
375 373 369 0
369 373 368 0
370 407 411 0
375 370 411 0
369 370 375 0
407 370 406 0
376 409 371 0
376 415 409 0
378 377 372 0
374 379 372 0
372 379 378 0
417 379 374 0
417 374 373 0
412 417 373 0
375 412 373 0
412 375 411 0
380 415 376 0
380 421 415 0
383 382 378 0
378 382 377 0
384 378 379 0
383 378 384 0
379 417 424 0
379 424 384 0
429 422 381 0
429 381 385 0
380 381 421 0
421 381 422 0
388 386 383 0
383 386 382 0
389 383 384 0
388 383 389 0
384 424 425 0
390 384 425 0
389 384 390 0
427 391 390 0
427 390 425 0
430 393 391 0
430 391 427 0
430 429 393 0
429 392 393 0
429 385 392 0
388 387 386 0
387 388 394 0
388 396 394 0
388 389 396 0
398 389 390 0
396 389 398 0
400 390 391 0
398 390 400 0
403 391 393 0
400 391 403 0
401 403 392 0
392 403 393 0
396 395 394 0
395 396 397 0
397 396 398 0
397 398 399 0
399 398 400 0
399 400 402 0
402 400 403 0
402 403 401 0
408 406 404 0
405 410 404 0
404 410 408 0
409 410 405 0
413 411 407 0
406 408 407 0
408 413 407 0
408 414 413 0
416 408 410 0
414 408 416 0
415 416 409 0
409 416 410 0
418 417 412 0
411 413 412 0
413 418 412 0
413 419 418 0
420 413 414 0
419 413 420 0
423 414 416 0
420 414 423 0
421 423 415 0
415 423 416 0
426 424 418 0
418 424 417 0
428 418 419 0
426 418 428 0
431 419 420 0
428 419 431 0
429 431 422 0
431 423 422 0
431 420 423 0
422 423 421 0
426 425 424 0
425 426 427 0
427 426 428 0
427 428 430 0
430 428 431 0
430 431 429 0
