#!ascii version in FreeSurfer format (SUMA)
520 1036
8.701859  -56.334507  -28.601013  0
9.162254  -56.290714  -28.616617  0
9.615247  -56.214386  -28.557570  0
9.929165  -56.335682  -28.507509  0
8.509562  -56.590637  -28.557297  0
8.894581  -56.634285  -28.599974  0
9.479887  -56.575939  -28.593075  0
8.599563  -56.122383  -28.496374  0
8.597690  -55.878529  -28.207911  0
8.921028  -56.029446  -28.491705  0
9.198151  -55.733620  -28.216337  0
9.438811  -55.962780  -28.449463  0
9.724873  -55.702698  -28.173462  0
10.000557  -55.956470  -28.316359  0
10.045547  -55.700195  -28.107962  0
8.367342  -56.323395  -28.439306  0
8.145281  -56.135284  -28.131832  0
10.243637  -56.220398  -28.345879  0
10.165567  -56.485737  -28.411921  0
10.477077  -56.445927  -28.191088  0
8.311675  -56.624584  -28.454870  0
8.082103  -56.567577  -28.218992  0
8.489439  -56.896217  -28.374798  0
9.148483  -56.949440  -28.469713  0
9.893523  -56.632423  -28.505669  0
9.648668  -56.872963  -28.471029  0
10.106307  -56.879894  -28.298403  0
10.554801  -56.864258  -28.088428  0
8.376166  -57.229149  -28.115747  0
8.852810  -57.268772  -28.221560  0
9.520796  -57.225117  -28.258123  0
9.986986  -57.299095  -28.129627  0
10.381153  -57.219826  -28.047377  0
8.556197  -55.598015  -27.740891  0
9.011528  -55.534344  -27.849064  0
9.542143  -55.505035  -27.882727  0
10.015068  -55.544586  -27.884594  0
8.267486  -55.827271  -27.921684  0
7.987184  -56.013420  -27.773434  0
10.316526  -55.719219  -27.967134  0
10.457911  -56.026730  -28.108433  0
10.758355  -55.827389  -27.730738  0
11.108976  -55.859230  -27.479450  0
7.884778  -56.315395  -27.954027  0
10.745110  -56.208248  -27.946129  0
11.070267  -56.273033  -27.665501  0
7.790792  -56.583351  -27.888834  0
7.609509  -56.703571  -27.574820  0
7.974957  -56.976311  -27.952147  0
10.837083  -56.628967  -27.922520  0
11.215155  -56.879601  -27.644884  0
8.179767  -57.288319  -27.950274  0
7.989494  -57.301250  -27.704445  0
8.479751  -57.501965  -27.879839  0
9.128228  -57.556244  -27.991032  0
9.684508  -57.561077  -27.978510  0
10.151172  -57.541866  -27.915365  0
10.849164  -57.202702  -27.824257  0
10.519473  -57.496609  -27.837139  0
11.189581  -57.248432  -27.655926  0
11.451194  -57.285522  -27.472321  0
8.468114  -57.743484  -27.564478  0
8.869999  -57.779152  -27.681162  0
9.395081  -57.799984  -27.707882  0
9.910854  -57.794518  -27.679171  0
10.379207  -57.759754  -27.634457  0
8.477770  -55.518948  -27.345833  0
8.861634  -55.373409  -27.364471  0
9.221112  -55.189075  -27.124252  0
9.364410  -55.332401  -27.509821  0
9.666453  -55.161934  -27.198601  0
9.878782  -55.344681  -27.547274  0
10.178098  -55.159573  -27.208212  0
10.429564  -55.443802  -27.549665  0
10.696388  -55.172657  -27.152224  0
11.022363  -55.472034  -27.291594  0
11.019773  -55.176807  -27.065474  0
8.224023  -55.721684  -27.556482  0
7.941787  -55.954865  -27.302675  0
11.300836  -55.749344  -27.270784  0
11.542373  -55.902847  -27.119934  0
7.714500  -56.316391  -27.549906  0
7.489657  -56.527462  -27.162889  0
11.342280  -56.094273  -27.368803  0
11.599287  -56.317822  -27.192335  0
7.449437  -56.790443  -27.238855  0
7.649261  -57.023052  -27.486662  0
11.415844  -56.528206  -27.423340  0
11.633709  -56.931473  -27.314859  0
11.626930  -56.619381  -27.252588  0
7.760178  -57.302921  -27.270071  0
8.124631  -57.562885  -27.481562  0
11.199442  -57.546314  -27.512379  0
11.813994  -57.363529  -27.153524  0
11.551264  -57.575817  -27.295286  0
12.046303  -57.289433  -26.959103  0
8.312006  -57.795620  -27.207407  0
8.716088  -57.915825  -27.314211  0
9.189422  -57.959675  -27.351267  0
9.707843  -57.971218  -27.336012  0
10.225023  -57.961857  -27.302893  0
10.790018  -57.657158  -27.599934  0
10.705000  -57.914768  -27.286848  0
11.060072  -57.823769  -27.313747  0
11.405373  -57.797768  -27.157539  0
9.140442  -55.077240  -26.723114  0
9.470837  -55.042881  -26.890112  0
9.910485  -54.943527  -26.836767  0
10.272121  -54.731083  -26.587730  0
10.461535  -54.933338  -26.893190  0
10.712898  -54.721436  -26.621611  0
11.010961  -54.932194  -26.811901  0
11.005486  -54.714893  -26.588480  0
8.899022  -55.231018  -26.945019  0
8.561451  -55.420967  -26.868509  0
11.307158  -55.208229  -26.936720  0
11.449368  -55.534153  -27.046526  0
11.745771  -55.327332  -26.714457  0
12.092081  -55.343212  -26.483116  0
8.226734  -55.681946  -27.062346  0
7.966037  -55.966625  -26.740564  0
11.721217  -55.705666  -26.896095  0
12.022615  -55.771217  -26.656603  0
7.688680  -56.238701  -26.977137  0
7.492596  -56.499512  -26.692823  0
11.810925  -56.107937  -26.933773  0
12.093738  -56.369289  -26.716103  0
7.393631  -56.728432  -26.867718  0
7.493017  -57.007198  -27.039036  0
11.847812  -56.618118  -27.040403  0
11.969605  -57.052845  -27.030563  0
12.112941  -56.811203  -26.805235  0
7.664409  -57.263611  -26.764315  0
7.959578  -57.571339  -27.011700  0
12.172854  -57.139530  -26.762480  0
12.054549  -57.476742  -26.756018  0
8.233191  -57.810452  -26.715593  0
8.615113  -57.970615  -26.860706  0
9.073928  -58.043072  -26.908520  0
9.584455  -58.066410  -26.899591  0
10.116178  -58.070396  -26.868532  0
10.643679  -58.052605  -26.849947  0
11.160463  -57.977993  -26.888447  0
11.748871  -57.691254  -26.978767  0
11.576281  -57.892105  -26.803522  0
10.151009  -54.587589  -26.224304  0
10.548377  -54.545811  -26.309202  0
10.975143  -54.562630  -26.343939  0
9.093092  -55.011375  -26.238718  0
9.907750  -54.749176  -26.465683  0
9.509004  -54.888130  -26.472651  0
11.294471  -54.702587  -26.451645  0
11.532755  -54.953903  -26.594212  0
11.736244  -54.706741  -26.235907  0
12.044872  -54.968990  -26.294182  0
12.029501  -54.719383  -26.093861  0
8.802517  -55.202465  -26.525288  0
8.514819  -55.420002  -26.258894  0
12.318138  -55.215565  -26.263279  0
12.574021  -55.378914  -26.110258  0
8.243498  -55.726341  -26.431715  0
8.012574  -56.041142  -26.273272  0
12.322079  -55.583683  -26.376530  0
12.593387  -55.854958  -26.170601  0
7.768333  -56.334381  -26.351534  0
7.537261  -56.611549  -26.345221  0
7.965545  -56.215992  -26.055843  0
12.340173  -56.117359  -26.426167  0
12.615615  -56.417053  -26.137693  0
7.417417  -56.703651  -26.529621  0
7.466657  -56.941486  -26.595686  0
7.517733  -56.829079  -26.302315  0
12.352645  -56.791164  -26.434013  0
12.605608  -56.870853  -26.046667  0
7.706027  -57.145126  -26.227564  0
7.938371  -57.535248  -26.463116  0
12.269300  -57.268143  -26.465996  0
12.154893  -57.562248  -26.262478  0
8.254415  -57.783298  -26.203442  0
8.571752  -57.966522  -26.361160  0
9.015320  -58.056606  -26.403938  0
9.524466  -58.091972  -26.401775  0
10.057099  -58.099556  -26.372540  0
10.589028  -58.095112  -26.347773  0
11.098228  -58.059807  -26.357683  0
11.867691  -57.779087  -26.544333  0
11.545185  -57.965164  -26.408663  0
10.070943  -54.515312  -25.781740  0
10.387506  -54.441944  -25.962366  0
10.813066  -54.358356  -25.916420  0
11.191133  -54.183777  -25.622133  0
11.448729  -54.432827  -25.980045  0
11.593823  -54.204781  -25.593346  0
12.003409  -54.541939  -25.880192  0
9.093283  -55.018951  -25.678099  0
9.785254  -54.683353  -26.087559  0
9.423034  -54.830238  -25.914202  0
12.291411  -54.704033  -25.891094  0
12.566809  -54.953392  -25.892588  0
12.553618  -54.678642  -25.671463  0
8.775369  -55.206429  -25.978046  0
8.531608  -55.468048  -25.731997  0
12.827558  -55.232323  -25.827839  0
13.083925  -55.414795  -25.619043  0
8.342180  -55.668900  -25.953453  0
12.837374  -55.624352  -25.917534  0
13.078258  -55.892315  -25.675943  0
8.174064  -56.067905  -25.840816  0
7.961881  -56.478760  -25.855844  0
12.856418  -56.141567  -25.906054  0
13.066971  -56.369328  -25.648485  0
7.730217  -56.776672  -26.032742  0
7.993426  -56.903492  -25.654129  0
12.857014  -56.707844  -25.770561  0
12.658969  -57.078632  -25.806730  0
13.059232  -56.648163  -25.589054  0
7.872653  -57.117138  -25.829674  0
8.081130  -57.440601  -25.860411  0
8.023910  -57.187893  -25.644550  0
12.422883  -57.238861  -26.057226  0
12.189855  -57.572655  -25.715342  0
12.509703  -57.309883  -25.666931  0
8.384783  -57.746597  -25.820276  0
8.548262  -57.909855  -25.979082  0
8.718772  -57.807110  -25.628370  0
8.962610  -57.983036  -25.883394  0
9.080424  -57.843376  -25.464985  0
9.475709  -58.048077  -25.902975  0
10.001662  -58.062019  -25.876577  0
10.530647  -58.060379  -25.850245  0
11.037443  -58.042820  -25.852581  0
11.881688  -57.820431  -26.042332  0
11.495512  -57.977028  -25.908449  0
11.055340  -54.039482  -25.204010  0
11.535601  -54.052593  -25.290983  0
10.023376  -54.536480  -25.321440  0
10.794535  -54.177162  -25.517605  0
10.394497  -54.342590  -25.449453  0
10.649287  -54.148987  -25.202080  0
11.875172  -54.127701  -25.338911  0
11.951052  -54.307842  -25.582993  0
12.259951  -54.169323  -25.194412  0
12.502087  -54.423054  -25.394886  0
12.560377  -54.197948  -25.064915  0
9.168664  -55.085899  -25.161839  0
9.747966  -54.673145  -25.564320  0
9.438251  -54.868580  -25.349228  0
12.830523  -54.668552  -25.425388  0
13.093726  -54.949551  -25.414509  0
13.111702  -54.658821  -25.178286  0
8.831025  -55.312080  -25.341145  0
8.569839  -55.604912  -25.335543  0
9.039828  -55.247288  -25.015303  0
13.341520  -55.259132  -25.311016  0
13.596961  -55.428383  -25.075350  0
8.387908  -55.790401  -25.541967  0
8.549882  -55.928299  -25.151358  0
13.324858  -55.724667  -25.361599  0
13.557643  -55.820255  -25.072981  0
8.371689  -56.146393  -25.367748  0
8.625164  -56.403435  -25.032116  0
13.218132  -56.161476  -25.460224  0
8.261052  -56.589046  -25.437521  0
8.579987  -56.916290  -25.146921  0
8.929618  -56.801846  -24.876474  0
13.154011  -56.538059  -25.421478  0
13.005795  -56.799374  -25.492020  0
13.023954  -56.789574  -25.171896  0
8.268112  -57.153862  -25.453823  0
8.484035  -57.537552  -25.506495  0
8.619653  -57.289703  -25.240601  0
8.976230  -57.538158  -25.216991  0
8.866089  -57.157459  -25.041903  0
11.952565  -57.617214  -25.247780  0
12.755214  -57.070587  -25.474176  0
12.371932  -57.378426  -25.293242  0
12.660826  -57.114147  -25.077278  0
9.346063  -57.753483  -25.227617  0
9.424302  -57.929428  -25.484402  0
9.734055  -57.771187  -25.147400  0
9.899236  -57.953613  -25.450062  0
10.211757  -57.774326  -25.088964  0
10.413456  -57.955128  -25.416979  0
10.721270  -57.774712  -25.069624  0
10.923539  -57.948582  -25.413700  0
11.224845  -57.775131  -25.106144  0
11.793332  -57.814861  -25.557707  0
11.388783  -57.919266  -25.460176  0
11.615423  -57.765507  -25.214417  0
10.770464  -54.101589  -24.820200  0
11.155163  -53.976795  -24.790930  0
11.545190  -53.948536  -24.858141  0
12.060605  -53.997086  -24.909781  0
12.572917  -54.064362  -24.801449  0
10.434368  -54.315601  -24.830502  0
10.144438  -54.530689  -24.905472  0
10.578546  -54.238831  -24.610344  0
12.843277  -54.203266  -24.856564  0
13.117455  -54.412170  -24.892094  0
13.122800  -54.192383  -24.616104  0
9.812068  -54.772282  -24.916569  0
9.470356  -55.014408  -24.857719  0
10.041909  -54.712833  -24.611994  0
13.375476  -54.654404  -24.920141  0
13.620294  -54.952316  -24.903423  0
13.633805  -54.647816  -24.666910  0
9.267407  -55.259388  -24.745478  0
8.998328  -55.466530  -24.854258  0
9.488900  -55.166904  -24.593277  0
13.879350  -55.276756  -24.787575  0
14.157904  -55.437618  -24.567764  0
8.754554  -55.675262  -24.999584  0
8.992521  -55.821133  -24.664648  0
13.862373  -55.721081  -24.785938  0
13.626858  -56.051205  -24.882431  0
14.146379  -55.709316  -24.567724  0
8.799765  -56.045223  -24.815626  0
9.034410  -56.381878  -24.668015  0
9.004987  -56.082802  -24.605337  0
13.348280  -56.257645  -25.117493  0
13.216089  -56.613014  -24.705723  0
13.527681  -56.312283  -24.739473  0
9.262154  -56.749420  -24.668081  0
9.669921  -56.910652  -24.589428  0
10.140971  -56.912045  -24.475431  0
12.864710  -56.903385  -24.834066  0
12.515934  -57.076366  -24.675369  0
9.266036  -57.146767  -24.854858  0
9.495508  -57.522091  -24.984280  0
9.689710  -57.274078  -24.767933  0
9.946194  -57.530117  -24.878124  0
10.077881  -57.228889  -24.663223  0
10.430683  -57.522533  -24.819391  0
10.613110  -57.206318  -24.570581  0
10.972917  -57.539650  -24.819305  0
11.246576  -57.305088  -24.579617  0
11.557917  -57.555950  -24.912552  0
11.785893  -57.313229  -24.625521  0
12.353383  -57.275604  -24.947853  0
12.036088  -57.424515  -24.949825  0
12.162454  -57.256050  -24.711512  0
11.064602  -54.068672  -24.476063  0
11.532903  -53.979332  -24.353889  0
12.064786  -53.918793  -24.376364  0
12.572057  -53.941570  -24.389244  0
13.016010  -54.054634  -24.405117  0
10.797514  -54.273979  -24.326904  0
10.514190  -54.448315  -24.348185  0
11.044622  -54.197140  -24.207279  0
11.299298  -54.144573  -24.096140  0
13.348648  -54.198349  -24.369335  0
13.605655  -54.414566  -24.377792  0
13.557811  -54.204071  -24.104361  0
10.269056  -54.693043  -24.357712  0
9.990919  -54.953793  -24.381790  0
10.480362  -54.675411  -24.088545  0
13.869201  -54.663124  -24.405855  0
14.137682  -54.985447  -24.390751  0
14.107061  -54.678886  -24.127321  0
9.701975  -55.097240  -24.509188  0
9.548900  -55.385456  -24.410801  0
9.942226  -55.405071  -24.142197  0
14.412732  -55.311321  -24.306082  0
14.633794  -55.422741  -24.082037  0
9.276198  -55.629478  -24.516130  0
9.693961  -55.846687  -24.238684  0
10.190722  -55.898308  -23.975775  0
14.406981  -55.682404  -24.299433  0
14.092393  -55.949711  -24.452511  0
14.645838  -55.634834  -24.089455  0
9.281490  -56.071781  -24.450239  0
9.447322  -56.490917  -24.475676  0
9.656322  -56.258224  -24.305717  0
9.855222  -56.586887  -24.370735  0
10.091084  -56.319672  -24.178171  0
10.607393  -56.326691  -23.931114  0
13.205980  -56.663460  -24.191000  0
13.788532  -56.137901  -24.594936  0
13.595717  -56.436275  -24.331814  0
13.949629  -56.227676  -24.266859  0
10.209571  -56.670746  -24.321211  0
10.487006  -56.891788  -24.381056  0
10.549963  -56.660812  -24.197151  0
10.989944  -56.993668  -24.284693  0
11.005719  -56.709278  -23.977030  0
11.604465  -57.130222  -24.272705  0
12.149225  -57.108093  -24.337090  0
12.869918  -56.838821  -24.460762  0
12.563892  -56.954861  -24.280203  0
12.072393  -54.001526  -23.797173  0
12.580924  -53.927822  -23.902985  0
12.969404  -53.957489  -24.007769  0
13.363738  -54.078289  -23.939278  0
11.130518  -54.426136  -23.795580  0
11.644083  -54.100090  -23.874306  0
11.477881  -54.266510  -23.702217  0
13.676191  -54.243526  -23.827579  0
13.488583  -54.134552  -23.531719  0
13.966707  -54.479195  -23.879631  0
10.758780  -54.690838  -23.840761  0
10.488073  -54.947693  -23.876623  0
11.037117  -54.708569  -23.540440  0
14.318630  -54.732277  -23.786955  0
14.528727  -55.085903  -23.993429  0
10.240098  -55.146008  -23.995781  0
10.515120  -55.354424  -23.669119  0
14.715750  -55.255806  -23.772665  0
10.322473  -55.561630  -23.812496  0
10.592373  -55.916378  -23.703529  0
10.544399  -55.628410  -23.623684  0
14.716151  -55.547787  -23.843817  0
14.580987  -55.774597  -24.001703  0
14.577699  -55.777431  -23.617033  0
10.837416  -56.223358  -23.704334  0
11.077842  -56.458134  -23.686846  0
11.009802  -56.266823  -23.599075  0
13.161788  -56.675072  -23.696257  0
13.498250  -56.552013  -23.898800  0
14.284040  -56.033047  -24.027124  0
13.894063  -56.356167  -23.849016  0
14.263263  -56.115211  -23.562458  0
11.357402  -56.723549  -23.699837  0
11.505522  -56.931709  -23.891121  0
11.653674  -56.810020  -23.535955  0
12.002183  -57.009064  -23.891108  0
12.841198  -56.812851  -24.010187  0
12.448762  -56.938992  -23.911066  0
12.219709  -54.098839  -23.334246  0
12.562983  -54.022934  -23.431648  0
13.069252  -54.021622  -23.556599  0
11.861080  -54.254177  -23.371031  0
11.488634  -54.489498  -23.354052  0
12.157056  -54.216915  -23.139765  0
12.435651  -54.192337  -23.082504  0
13.324800  -54.173805  -23.230864  0
12.897326  -54.165131  -23.118484  0
13.751231  -54.337585  -23.285227  0
14.151587  -54.515068  -23.408735  0
11.287310  -54.756992  -23.258280  0
11.041849  -54.984341  -23.343538  0
11.503508  -54.680187  -23.098614  0
14.388384  -54.689957  -23.218729  0
14.599159  -54.973186  -23.501709  0
10.775912  -55.177876  -23.514835  0
11.134114  -55.450745  -23.144165  0
14.709000  -55.326771  -23.387266  0
14.643672  -55.570381  -23.162882  0
10.798582  -55.647461  -23.453873  0
10.929016  -56.049526  -23.516506  0
11.152107  -55.901878  -23.241499  0
11.429913  -55.813404  -22.950609  0
14.467658  -55.873886  -23.282040  0
14.229599  -56.061901  -23.163006  0
11.193892  -56.244549  -23.416279  0
11.552559  -56.513378  -23.319202  0
11.422169  -56.141918  -23.135052  0
13.017738  -56.630268  -23.172298  0
13.984918  -56.293442  -23.389914  0
13.568258  -56.485142  -23.401020  0
11.891747  -56.755329  -23.283079  0
11.946725  -56.903595  -23.521805  0
12.237722  -56.779770  -23.190506  0
12.751915  -56.802395  -23.555349  0
12.344756  -56.893909  -23.506952  0
12.596390  -56.767193  -23.217087  0
12.140569  -54.458061  -22.908819  0
12.656261  -54.423714  -22.790417  0
13.261099  -54.391685  -22.852545  0
13.750206  -54.498943  -22.813391  0
14.106485  -54.535072  -23.000158  0
11.728431  -54.596367  -23.020405  0
11.561786  -54.888245  -22.912371  0
11.906154  -54.877457  -22.705593  0
12.372645  -54.835846  -22.518723  0
12.934915  -54.697094  -22.490112  0
13.496804  -54.674011  -22.508860  0
14.311711  -54.685570  -22.894871  0
14.050365  -54.730312  -22.641562  0
14.491760  -54.974400  -22.922281  0
11.348346  -55.142147  -22.982868  0
11.447363  -55.484837  -22.845747  0
11.709733  -55.310162  -22.687250  0
12.100468  -55.266979  -22.459574  0
14.663248  -55.304428  -22.973595  0
14.619926  -55.461891  -22.899500  0
14.456614  -55.354862  -22.678314  0
11.676505  -55.719646  -22.728567  0
12.096397  -55.821945  -22.532650  0
14.437425  -55.722351  -22.924547  0
14.200857  -55.959099  -22.886641  0
14.120603  -55.768982  -22.573647  0
11.769368  -56.143669  -22.874603  0
12.036357  -56.548271  -23.007061  0
12.208133  -56.296112  -22.725252  0
12.537414  -56.571083  -22.899509  0
12.623748  -56.227776  -22.538446  0
12.967749  -56.462509  -22.766659  0
13.171601  -56.240059  -22.516762  0
13.903338  -56.193401  -22.962986  0
13.404364  -56.400810  -22.873800  0
13.658234  -56.100147  -22.552958  0
12.749122  -55.062920  -22.265442  0
13.244128  -54.961159  -22.252138  0
13.754979  -54.953949  -22.300072  0
14.196646  -55.074234  -22.450148  0
12.402617  -55.226341  -22.297626  0
12.682081  -55.440689  -22.174355  0
13.113584  -55.313995  -22.132219  0
13.523185  -55.195400  -22.140093  0
14.189610  -55.383980  -22.363914  0
13.960991  -55.555408  -22.253487  0
13.905609  -55.267227  -22.202341  0
12.365781  -55.577301  -22.286768  0
12.504507  -55.905743  -22.326065  0
12.666892  -55.748116  -22.199705  0
12.892059  -56.000610  -22.292259  0
13.037396  -55.689026  -22.152391  0
13.775963  -55.806561  -22.309225  0
13.370731  -55.937347  -22.281729  0
13.551629  -55.548004  -22.147005  0
7 15 0 0
1 9 0 0
0 9 7 0
2 11 1 0
1 11 9 0
3 13 2 0
2 13 11 0
3 17 13 0
0 15 4 0
4 15 20 0
0 5 1 0
0 4 5 0
1 6 2 0
1 5 6 0
18 3 24 0
3 6 24 0
3 2 6 0
3 18 17 0
20 22 4 0
4 22 5 0
5 22 23 0
5 23 6 0
6 23 25 0
6 25 24 0
33 37 8 0
10 34 8 0
8 34 33 0
12 35 10 0
10 35 34 0
14 36 12 0
12 36 35 0
14 39 36 0
38 43 16 0
38 16 37 0
37 16 8 0
16 15 8 0
15 7 8 0
8 7 9 0
8 9 10 0
10 9 11 0
10 11 12 0
12 11 13 0
12 13 14 0
19 40 17 0
17 40 13 0
40 39 13 0
39 14 13 0
19 44 40 0
16 43 21 0
21 43 46 0
21 20 15 0
21 15 16 0
24 26 18 0
19 17 18 0
26 19 18 0
27 19 26 0
44 19 49 0
49 19 27 0
46 48 21 0
48 51 28 0
48 28 22 0
21 48 22 0
20 21 22 0
29 23 22 0
29 22 28 0
30 25 23 0
30 23 29 0
26 24 25 0
30 26 25 0
31 26 30 0
26 32 27 0
26 31 32 0
49 27 57 0
57 27 32 0
51 53 28 0
28 53 29 0
29 53 54 0
29 54 30 0
30 54 55 0
30 55 31 0
31 55 56 0
31 56 32 0
32 56 58 0
32 58 57 0
66 77 33 0
33 77 37 0
67 33 34 0
67 66 33 0
69 34 35 0
69 67 34 0
71 35 36 0
71 69 35 0
41 73 39 0
73 36 39 0
73 71 36 0
42 75 41 0
41 75 73 0
42 79 75 0
78 81 38 0
38 81 43 0
38 37 77 0
38 77 78 0
40 41 39 0
41 40 44 0
45 41 44 0
42 41 45 0
79 42 83 0
83 42 45 0
82 85 47 0
81 82 47 0
46 81 47 0
43 81 46 0
49 50 45 0
49 45 44 0
83 45 87 0
87 45 50 0
85 86 47 0
86 90 52 0
86 52 48 0
47 86 48 0
46 47 48 0
52 51 48 0
57 59 50 0
57 50 49 0
87 50 88 0
50 60 88 0
50 59 60 0
60 93 88 0
90 91 52 0
91 96 61 0
91 61 53 0
52 91 53 0
51 52 53 0
62 54 53 0
62 53 61 0
63 55 54 0
63 54 62 0
64 56 55 0
64 55 63 0
65 58 56 0
65 56 64 0
65 101 58 0
58 101 57 0
101 92 57 0
92 59 57 0
59 92 60 0
60 92 94 0
60 94 93 0
96 97 61 0
61 97 62 0
62 97 98 0
62 98 63 0
63 98 99 0
63 99 64 0
64 99 100 0
64 100 65 0
65 100 102 0
65 102 101 0
105 113 68 0
70 106 68 0
68 106 105 0
72 107 70 0
70 107 106 0
74 109 72 0
72 109 107 0
76 111 74 0
74 111 109 0
76 115 111 0
114 119 66 0
66 119 77 0
67 68 113 0
114 67 113 0
66 67 114 0
68 67 69 0
68 69 70 0
70 69 71 0
70 71 72 0
72 71 73 0
72 73 74 0
74 73 75 0
74 75 76 0
80 116 79 0
79 116 75 0
116 115 75 0
115 76 75 0
80 121 116 0
120 123 78 0
78 123 81 0
78 77 119 0
78 119 120 0
83 84 80 0
83 80 79 0
121 80 125 0
125 80 84 0
124 127 82 0
82 127 85 0
82 81 123 0
82 123 124 0
87 89 84 0
87 84 83 0
125 84 129 0
129 84 89 0
127 128 85 0
85 128 86 0
90 86 128 0
90 128 132 0
88 89 87 0
95 130 93 0
93 130 88 0
130 129 88 0
129 89 88 0
95 134 130 0
132 133 90 0
90 133 91 0
96 91 133 0
96 133 136 0
101 103 92 0
104 94 92 0
104 92 103 0
104 143 94 0
94 143 93 0
143 135 93 0
135 95 93 0
95 135 134 0
136 137 96 0
96 137 97 0
97 138 98 0
137 138 97 0
98 139 99 0
138 139 98 0
99 140 100 0
139 140 99 0
100 141 102 0
140 141 100 0
101 102 103 0
102 142 103 0
102 141 142 0
103 142 104 0
104 142 144 0
104 144 143 0
145 149 108 0
110 146 108 0
108 146 145 0
112 147 110 0
110 147 146 0
112 151 147 0
148 156 105 0
105 156 113 0
150 105 106 0
150 148 105 0
107 108 149 0
150 107 149 0
106 107 150 0
108 107 109 0
108 109 110 0
110 109 111 0
110 111 112 0
117 152 115 0
115 152 111 0
152 151 111 0
151 112 111 0
118 154 117 0
117 154 152 0
118 158 154 0
157 160 114 0
114 160 119 0
114 113 156 0
114 156 157 0
116 117 115 0
117 116 121 0
122 117 121 0
118 117 122 0
158 118 162 0
162 118 122 0
161 164 120 0
120 164 123 0
120 119 160 0
120 160 161 0
125 126 122 0
125 122 121 0
162 122 167 0
167 122 126 0
165 169 124 0
124 169 127 0
124 123 164 0
124 164 165 0
129 131 126 0
129 126 125 0
167 126 172 0
172 126 131 0
169 170 127 0
127 170 128 0
132 128 170 0
132 170 174 0
130 131 129 0
130 134 131 0
134 172 131 0
134 176 172 0
174 175 132 0
132 175 133 0
136 133 175 0
136 175 178 0
185 177 135 0
185 135 143 0
134 135 176 0
176 135 177 0
178 179 136 0
136 179 137 0
137 180 138 0
179 180 137 0
138 181 139 0
180 181 138 0
139 182 140 0
181 182 139 0
140 183 141 0
182 183 140 0
141 184 142 0
183 184 141 0
142 186 144 0
184 186 142 0
143 144 185 0
185 144 186 0
187 195 145 0
145 195 149 0
188 145 146 0
188 187 145 0
189 146 147 0
189 188 146 0
153 191 151 0
191 147 151 0
191 189 147 0
155 193 153 0
153 193 191 0
155 197 193 0
194 200 148 0
148 200 156 0
196 148 150 0
196 194 148 0
150 149 195 0
150 195 196 0
152 153 151 0
153 152 154 0
153 154 155 0
159 198 158 0
158 198 154 0
198 197 154 0
197 155 154 0
159 202 198 0
201 204 157 0
157 204 160 0
157 156 200 0
157 200 201 0
162 163 159 0
162 159 158 0
202 159 205 0
205 159 163 0
166 164 161 0
207 166 161 0
160 207 161 0
204 207 160 0
167 168 163 0
167 163 162 0
205 163 209 0
209 163 168 0
171 169 165 0
211 171 165 0
211 165 164 0
208 211 164 0
166 208 164 0
208 166 207 0
172 173 168 0
172 168 167 0
209 168 213 0
213 168 173 0
171 170 169 0
174 170 171 0
211 174 171 0
216 174 211 0
219 214 173 0
172 219 173 0
176 219 172 0
173 214 213 0
216 217 174 0
174 217 175 0
178 175 217 0
178 217 222 0
231 220 177 0
231 177 185 0
176 177 219 0
219 177 220 0
222 223 178 0
178 223 179 0
179 225 180 0
223 225 179 0
180 227 181 0
225 227 180 0
181 228 182 0
227 228 181 0
182 229 183 0
228 229 182 0
183 230 184 0
229 230 183 0
184 232 186 0
230 232 184 0
185 186 231 0
231 186 232 0
233 236 190 0
192 234 190 0
190 234 233 0
192 239 234 0
235 245 187 0
187 245 195 0
237 187 188 0
237 235 187 0
189 190 236 0
237 189 236 0
188 189 237 0
190 189 191 0
190 191 192 0
240 239 192 0
191 240 192 0
193 240 191 0
199 242 197 0
242 193 197 0
242 240 193 0
199 247 242 0
244 250 194 0
194 250 200 0
246 194 196 0
246 244 194 0
196 195 245 0
196 245 246 0
198 199 197 0
203 248 202 0
202 248 198 0
248 247 198 0
247 199 198 0
203 253 248 0
251 255 201 0
201 255 204 0
201 200 250 0
201 250 251 0
205 206 203 0
205 203 202 0
253 203 257 0
257 203 206 0
255 207 204 0
259 207 255 0
209 210 206 0
209 206 205 0
257 206 261 0
261 206 210 0
212 211 208 0
262 212 208 0
207 262 208 0
259 262 207 0
213 215 210 0
213 210 209 0
261 210 265 0
265 210 215 0
218 216 212 0
212 216 211 0
212 262 268 0
212 268 218 0
219 221 214 0
221 274 214 0
214 274 213 0
274 266 213 0
266 215 213 0
215 266 265 0
218 217 216 0
269 224 222 0
269 222 217 0
268 269 217 0
218 268 217 0
271 226 224 0
271 224 269 0
277 226 271 0
286 273 220 0
286 220 231 0
219 220 221 0
220 275 221 0
220 273 275 0
221 275 274 0
224 223 222 0
223 224 225 0
225 224 226 0
277 278 226 0
278 225 226 0
278 227 225 0
227 280 228 0
278 280 227 0
228 282 229 0
280 282 228 0
229 284 230 0
282 284 229 0
230 287 232 0
284 287 230 0
231 232 286 0
286 232 287 0
289 294 238 0
236 233 238 0
233 289 238 0
233 290 289 0
291 233 234 0
291 290 233 0
241 292 239 0
292 234 239 0
292 291 234 0
243 293 241 0
241 293 292 0
243 297 293 0
295 300 235 0
235 300 245 0
237 238 294 0
295 237 294 0
235 237 295 0
238 237 236 0
240 241 239 0
241 240 242 0
241 242 243 0
249 298 247 0
247 298 242 0
298 297 242 0
297 243 242 0
249 303 298 0
252 250 244 0
252 244 306 0
244 301 306 0
244 246 301 0
246 245 300 0
246 300 301 0
248 249 247 0
254 304 253 0
253 304 248 0
304 303 248 0
303 249 248 0
254 309 304 0
256 255 251 0
311 256 251 0
311 251 250 0
307 311 250 0
252 307 250 0
307 252 306 0
257 258 254 0
257 254 253 0
309 254 313 0
313 254 258 0
260 259 256 0
256 259 255 0
256 311 316 0
256 316 260 0
319 314 258 0
257 319 258 0
261 319 257 0
258 314 313 0
263 262 260 0
260 262 259 0
260 316 317 0
264 260 317 0
263 260 264 0
322 264 317 0
325 320 267 0
320 319 267 0
319 265 267 0
319 261 265 0
270 268 263 0
263 268 262 0
272 263 264 0
270 263 272 0
264 322 327 0
264 327 272 0
338 326 276 0
276 326 325 0
276 325 267 0
274 276 267 0
266 274 267 0
266 267 265 0
270 269 268 0
269 270 271 0
271 270 272 0
328 279 277 0
328 277 271 0
327 328 271 0
272 327 271 0
330 281 279 0
330 279 328 0
332 283 281 0
332 281 330 0
334 285 283 0
334 283 332 0
336 288 285 0
336 285 334 0
273 286 288 0
336 273 288 0
339 273 336 0
276 275 338 0
275 339 338 0
275 273 339 0
275 276 274 0
279 278 277 0
278 279 280 0
280 279 281 0
280 281 282 0
282 281 283 0
282 283 284 0
284 283 285 0
284 285 287 0
287 285 288 0
287 288 286 0
296 294 289 0
296 289 346 0
289 341 346 0
289 290 341 0
342 290 291 0
342 341 290 0
343 291 292 0
343 342 291 0
344 292 293 0
344 343 292 0
299 345 297 0
345 293 297 0
345 344 293 0
299 350 345 0
302 300 295 0
353 302 295 0
353 295 294 0
347 353 294 0
296 347 294 0
347 296 346 0
298 299 297 0
305 351 303 0
303 351 298 0
351 350 298 0
350 299 298 0
305 356 351 0
308 306 301 0
359 308 301 0
359 301 300 0
354 359 300 0
302 354 300 0
354 302 353 0
304 305 303 0
310 357 309 0
309 357 304 0
357 356 304 0
356 305 304 0
310 362 357 0
312 311 307 0
364 312 307 0
364 307 306 0
360 364 306 0
308 360 306 0
360 308 359 0
313 315 310 0
313 310 309 0
362 310 367 0
367 310 315 0
318 316 312 0
312 316 311 0
312 364 370 0
312 370 318 0
319 321 314 0
321 377 314 0
314 377 313 0
377 368 313 0
368 315 313 0
315 368 367 0
318 317 316 0
371 323 322 0
371 322 317 0
370 371 317 0
318 370 317 0
373 324 323 0
373 323 371 0
380 324 373 0
387 376 320 0
387 320 325 0
319 320 321 0
320 378 321 0
320 376 378 0
321 378 377 0
329 327 323 0
323 327 322 0
331 323 324 0
329 323 331 0
324 380 381 0
333 324 381 0
331 324 333 0
383 335 333 0
383 333 381 0
385 337 335 0
385 335 383 0
386 340 337 0
386 337 385 0
326 338 340 0
386 326 340 0
388 326 386 0
325 326 387 0
387 326 388 0
329 328 327 0
328 329 330 0
330 329 331 0
330 331 332 0
332 331 333 0
332 333 334 0
334 333 335 0
334 335 336 0
336 335 337 0
336 337 339 0
339 337 340 0
339 340 338 0
348 346 341 0
342 349 341 0
341 349 348 0
349 342 394 0
342 389 394 0
342 343 389 0
390 343 344 0
390 389 343 0
391 344 345 0
391 390 344 0
352 392 350 0
392 345 350 0
392 391 345 0
352 396 392 0
355 353 347 0
399 355 347 0
399 347 346 0
393 399 346 0
348 393 346 0
393 348 349 0
393 349 395 0
395 349 394 0
351 352 350 0
358 398 356 0
356 398 351 0
398 396 351 0
396 352 351 0
358 402 398 0
361 359 354 0
404 361 354 0
404 354 353 0
400 404 353 0
355 400 353 0
400 355 399 0
357 358 356 0
363 403 362 0
362 403 357 0
403 402 357 0
402 358 357 0
363 406 403 0
365 364 360 0
359 361 360 0
361 365 360 0
361 366 365 0
361 404 407 0
361 407 366 0
367 369 363 0
367 363 362 0
406 363 410 0
410 363 369 0
372 370 365 0
365 370 364 0
374 365 366 0
372 365 374 0
366 407 408 0
375 366 408 0
374 366 375 0
413 375 408 0
377 379 368 0
379 418 368 0
368 418 367 0
418 411 367 0
411 369 367 0
369 411 410 0
372 371 370 0
371 372 373 0
373 372 374 0
373 374 380 0
374 382 380 0
374 375 382 0
375 413 414 0
384 375 414 0
382 375 384 0
421 384 414 0
425 416 376 0
425 376 387 0
376 417 378 0
416 417 376 0
377 378 379 0
378 419 379 0
378 417 419 0
379 419 418 0
382 381 380 0
381 382 383 0
383 382 384 0
421 422 384 0
422 383 384 0
422 385 383 0
385 424 386 0
422 424 385 0
386 426 388 0
424 426 386 0
387 388 425 0
425 388 426 0
427 430 389 0
389 430 394 0
428 389 390 0
428 427 389 0
429 390 391 0
429 428 390 0
434 429 397 0
429 392 397 0
429 391 392 0
396 397 392 0
401 399 393 0
401 393 438 0
393 431 438 0
393 395 431 0
395 394 430 0
395 430 431 0
436 434 397 0
436 397 396 0
398 436 396 0
437 436 398 0
398 402 437 0
437 402 441 0
405 404 400 0
443 405 400 0
443 400 399 0
439 443 399 0
401 439 399 0
439 401 438 0
442 441 402 0
442 402 403 0
403 406 442 0
442 406 445 0
409 407 405 0
405 407 404 0
405 443 447 0
405 447 409 0
451 446 412 0
446 445 412 0
445 410 412 0
445 406 410 0
409 408 407 0
448 415 413 0
448 413 408 0
447 448 408 0
409 447 408 0
453 415 448 0
457 452 420 0
420 452 451 0
420 451 412 0
418 420 412 0
411 418 412 0
411 412 410 0
415 414 413 0
454 423 421 0
454 421 414 0
453 454 414 0
415 453 414 0
459 423 454 0
462 456 416 0
462 416 425 0
416 458 417 0
456 458 416 0
420 419 457 0
419 458 457 0
419 417 458 0
419 420 418 0
423 422 421 0
459 460 423 0
460 422 423 0
460 424 422 0
424 463 426 0
460 463 424 0
425 426 462 0
462 426 463 0
432 430 427 0
428 433 427 0
427 433 432 0
429 435 428 0
428 435 433 0
434 435 429 0
440 438 431 0
470 440 431 0
470 431 430 0
465 470 430 0
432 465 430 0
465 432 433 0
465 433 466 0
466 433 435 0
466 435 467 0
467 435 434 0
436 467 434 0
468 467 436 0
469 436 437 0
469 468 436 0
437 441 469 0
469 441 476 0
444 443 439 0
479 444 439 0
479 439 438 0
471 479 438 0
440 471 438 0
471 440 470 0
478 476 441 0
478 441 442 0
442 445 478 0
478 445 483 0
449 447 444 0
444 447 443 0
444 479 480 0
450 444 480 0
449 444 450 0
486 450 480 0
488 484 446 0
488 446 451 0
445 446 483 0
483 446 484 0
449 448 447 0
448 449 453 0
449 455 453 0
449 450 455 0
450 486 491 0
450 491 455 0
498 489 452 0
498 452 457 0
451 452 488 0
488 452 489 0
455 454 453 0
492 461 459 0
492 459 454 0
491 492 454 0
455 491 454 0
494 464 461 0
494 461 492 0
456 462 464 0
494 456 464 0
496 456 494 0
456 499 458 0
496 499 456 0
457 458 498 0
498 458 499 0
461 460 459 0
460 461 463 0
463 461 464 0
463 464 462 0
472 470 465 0
466 473 465 0
465 473 472 0
467 474 466 0
466 474 473 0
468 475 467 0
467 475 474 0
469 477 468 0
468 477 475 0
476 477 469 0
481 479 471 0
470 472 471 0
472 481 471 0
472 482 481 0
473 501 505 0
482 473 505 0
472 473 482 0
501 473 474 0
501 474 502 0
502 474 475 0
502 475 503 0
503 475 477 0
503 477 504 0
509 504 485 0
485 504 478 0
504 477 478 0
477 476 478 0
483 485 478 0
481 480 479 0
480 481 486 0
481 487 486 0
481 482 487 0
482 505 512 0
482 512 487 0
517 510 490 0
490 510 509 0
490 509 485 0
488 490 485 0
484 488 485 0
484 485 483 0
493 491 487 0
487 491 486 0
487 512 513 0
495 487 513 0
493 487 495 0
515 497 495 0
515 495 513 0
518 500 497 0
518 497 515 0
500 518 517 0
500 517 490 0
498 500 490 0
489 498 490 0
489 490 488 0
493 492 491 0
492 493 494 0
494 493 495 0
494 495 496 0
496 495 497 0
496 497 499 0
499 497 500 0
499 500 498 0
506 505 501 0
502 507 501 0
501 507 506 0
503 508 502 0
502 508 507 0
504 511 503 0
503 511 508 0
509 511 504 0
514 512 506 0
506 512 505 0
516 506 507 0
514 506 516 0
519 507 508 0
516 507 519 0
517 519 510 0
519 511 510 0
519 508 511 0
510 511 509 0
514 513 512 0
513 514 515 0
515 514 516 0
515 516 518 0
518 516 519 0
518 519 517 0
