#!ascii version in FreeSurfer format (SUMA)
386 768
-6.443474  -55.239670  -26.628111  0
-7.943474  -55.739670  -26.628111  0
-7.443474  -55.739670  -26.628111  0
-6.943474  -55.739670  -26.628111  0
-6.443474  -55.739670  -26.628111  0
-5.943474  -55.739670  -26.628111  0
-5.443474  -55.739670  -26.628111  0
-7.943474  -56.239670  -26.628111  0
-7.443474  -56.239670  -26.628111  0
-6.943474  -56.239670  -26.628111  0
-6.443474  -56.239670  -26.628111  0
-5.943474  -56.239670  -26.628111  0
-5.443474  -56.239670  -26.628111  0
-7.443474  -56.739670  -26.628111  0
-6.943474  -56.739670  -26.628111  0
-6.443474  -56.739670  -26.628111  0
-5.943474  -56.739670  -26.628111  0
-5.443474  -56.739670  -26.628111  0
-6.943474  -57.239670  -26.628111  0
-6.443474  -57.239670  -26.628111  0
-5.943474  -57.239670  -26.628111  0
-5.443474  -57.239670  -26.628111  0
-4.943474  -57.239670  -26.628111  0
-6.943474  -57.739670  -26.628111  0
-6.443474  -57.739670  -26.628111  0
-5.943474  -57.739670  -26.628111  0
-5.443474  -57.739670  -26.628111  0
-4.943474  -57.739670  -26.628111  0
-6.443474  -58.239670  -26.628111  0
-5.943474  -58.239670  -26.628111  0
-5.443474  -58.239670  -26.628111  0
-6.443474  -54.989670  -26.378109  0
-7.943474  -55.489670  -26.378109  0
-7.443474  -55.489670  -26.378109  0
-7.443474  -55.239670  -26.128107  0
-6.693474  -55.239670  -26.378109  0
-6.943474  -55.489670  -26.378109  0
-6.943474  -55.239670  -26.128107  0
-6.193474  -55.239670  -26.378109  0
-5.943474  -55.489670  -26.378109  0
-5.943474  -55.239670  -26.128107  0
-5.443474  -55.489670  -26.378109  0
-8.193474  -55.739670  -26.378109  0
-8.443474  -55.739670  -26.128107  0
-5.193474  -55.739670  -26.378109  0
-8.193474  -56.239670  -26.378109  0
-8.443474  -56.239670  -26.128107  0
-7.943474  -56.489670  -26.378109  0
-5.193474  -56.239670  -26.378109  0
-7.693474  -56.739670  -26.378109  0
-7.943474  -56.739670  -26.128107  0
-7.443474  -56.989670  -26.378109  0
-5.193474  -56.739670  -26.378109  0
-4.943474  -56.989670  -26.378109  0
-4.943474  -56.739670  -26.128107  0
-7.193474  -57.239670  -26.378109  0
-7.443474  -57.239670  -26.128107  0
-4.693474  -57.239670  -26.378109  0
-7.193474  -57.739670  -26.378109  0
-7.443474  -57.739670  -26.128107  0
-6.943474  -57.989670  -26.378109  0
-4.693474  -57.739670  -26.378109  0
-4.943474  -57.989670  -26.378109  0
-6.693474  -58.239670  -26.378109  0
-6.943474  -58.239670  -26.128107  0
-6.443474  -58.489670  -26.378109  0
-5.943474  -58.489670  -26.378109  0
-5.193474  -58.239670  -26.378109  0
-5.443474  -58.489670  -26.378109  0
-4.943474  -58.239670  -26.128107  0
-7.443474  -54.989670  -25.878105  0
-6.943474  -54.989670  -25.878105  0
-6.443474  -54.989670  -25.878105  0
-5.943474  -54.989670  -25.878105  0
-8.443474  -55.489670  -25.878105  0
-8.443474  -55.239670  -25.628103  0
-7.693474  -55.239670  -25.878105  0
-7.943474  -55.489670  -25.878105  0
-7.943474  -55.239670  -25.628103  0
-5.693474  -55.239670  -25.878105  0
-5.443474  -55.489670  -25.878105  0
-8.693474  -55.739670  -25.878105  0
-8.943474  -55.739670  -25.628103  0
-5.193474  -55.739670  -25.878105  0
-5.443474  -55.739670  -25.628103  0
-8.693474  -56.239670  -25.878105  0
-8.943474  -56.239670  -25.628103  0
-8.443474  -56.489670  -25.878105  0
-5.193474  -56.239670  -25.878105  0
-4.943474  -56.489670  -25.878105  0
-8.193474  -56.739670  -25.878105  0
-8.443474  -56.739670  -25.628103  0
-7.943474  -56.989670  -25.878105  0
-4.693474  -56.739670  -25.878105  0
-8.443474  -57.239670  -25.628103  0
-7.693474  -57.239670  -25.878105  0
-7.943474  -57.239670  -25.628103  0
-4.693474  -57.239670  -25.878105  0
-7.693474  -57.739670  -25.878105  0
-7.943474  -57.739670  -25.628103  0
-7.443474  -57.989670  -25.878105  0
-4.693474  -57.739670  -25.878105  0
-4.443474  -57.739670  -25.628103  0
-7.943474  -58.239670  -25.628103  0
-7.193474  -58.239670  -25.878105  0
-7.443474  -58.239670  -25.628103  0
-6.943474  -58.489670  -25.878105  0
-6.443474  -58.489670  -25.878105  0
-5.943474  -58.489670  -25.878105  0
-5.443474  -58.489670  -25.878105  0
-4.693474  -58.239670  -25.878105  0
-4.943474  -58.489670  -25.878105  0
-4.443474  -58.239670  -25.628103  0
-6.943474  -58.739670  -25.628103  0
-6.443474  -58.739670  -25.628103  0
-5.943474  -58.739670  -25.628103  0
-8.443474  -54.989670  -25.378101  0
-7.943474  -54.989670  -25.378101  0
-7.443474  -54.989670  -25.378101  0
-6.943474  -54.989670  -25.378101  0
-6.443474  -54.989670  -25.378101  0
-5.943474  -54.989670  -25.378101  0
-9.443474  -55.239670  -25.128099  0
-8.693474  -55.239670  -25.378101  0
-8.943474  -55.489670  -25.378101  0
-8.943474  -55.239670  -25.128099  0
-5.693474  -55.239670  -25.378101  0
-5.943474  -55.239670  -25.128099  0
-9.193474  -55.739670  -25.378101  0
-9.443474  -55.739670  -25.128099  0
-5.693474  -55.739670  -25.378101  0
-5.943474  -55.739670  -25.128099  0
-5.443474  -55.989670  -25.378101  0
-9.193474  -56.239670  -25.378101  0
-9.443474  -56.239670  -25.128099  0
-8.943474  -56.489670  -25.378101  0
-5.193474  -56.239670  -25.378101  0
-5.443474  -56.239670  -25.128099  0
-4.943474  -56.489670  -25.378101  0
-8.693474  -56.739670  -25.378101  0
-8.943474  -56.739670  -25.128099  0
-4.693474  -56.739670  -25.378101  0
-4.943474  -56.739670  -25.128099  0
-8.693474  -57.239670  -25.378101  0
-8.943474  -57.239670  -25.128099  0
-8.443474  -57.489670  -25.378101  0
-4.693474  -57.239670  -25.378101  0
-4.943474  -57.239670  -25.128099  0
-4.443474  -57.489670  -25.378101  0
-8.193474  -57.739670  -25.378101  0
-8.443474  -57.739670  -25.128099  0
-4.193474  -57.739670  -25.378101  0
-4.443474  -57.739670  -25.128099  0
-8.193474  -58.239670  -25.378101  0
-7.943474  -58.489670  -25.378101  0
-7.443474  -58.489670  -25.378101  0
-5.443474  -58.489670  -25.378101  0
-4.943474  -58.489670  -25.378101  0
-4.193474  -58.239670  -25.378101  0
-4.443474  -58.489670  -25.378101  0
-4.443474  -58.239670  -25.128099  0
-7.193474  -58.739670  -25.378101  0
-6.943474  -58.989670  -25.378101  0
-6.443474  -58.989670  -25.378101  0
-5.693474  -58.739670  -25.378101  0
-5.943474  -58.989670  -25.378101  0
-9.443474  -54.989670  -24.878098  0
-8.943474  -54.989670  -24.878098  0
-8.443474  -54.989670  -24.878098  0
-7.943474  -54.989670  -24.878098  0
-7.443474  -54.989670  -24.878098  0
-6.943474  -54.989670  -24.878098  0
-6.443474  -54.989670  -24.878098  0
-9.693474  -55.239670  -24.878098  0
-6.193474  -55.239670  -24.878098  0
-6.443474  -55.239670  -24.628096  0
-9.693474  -55.739670  -24.878098  0
-6.193474  -55.739670  -24.878098  0
-6.443474  -55.739670  -24.628096  0
-5.943474  -55.989670  -24.878098  0
-9.693474  -56.239670  -24.878098  0
-9.443474  -56.489670  -24.878098  0
-5.693474  -56.239670  -24.878098  0
-5.943474  -56.239670  -24.628096  0
-5.443474  -56.489670  -24.878098  0
-9.193474  -56.739670  -24.878098  0
-5.193474  -56.739670  -24.878098  0
-5.443474  -56.739670  -24.628096  0
-9.193474  -57.239670  -24.878098  0
-8.943474  -57.489670  -24.878098  0
-5.193474  -57.239670  -24.878098  0
-5.443474  -57.239670  -24.628096  0
-4.943474  -57.489670  -24.878098  0
-8.693474  -57.739670  -24.878098  0
-8.943474  -57.739670  -24.628096  0
-8.443474  -57.989670  -24.878098  0
-4.693474  -57.739670  -24.878098  0
-4.943474  -57.739670  -24.628096  0
-8.193474  -58.239670  -24.878098  0
-8.443474  -58.239670  -24.628096  0
-7.943474  -58.489670  -24.878098  0
-7.443474  -58.489670  -24.878098  0
-5.443474  -58.489670  -24.878098  0
-4.693474  -58.239670  -24.878098  0
-4.943474  -58.489670  -24.878098  0
-4.943474  -58.239670  -24.628096  0
-7.193474  -58.739670  -24.878098  0
-7.443474  -58.739670  -24.628096  0
-6.943474  -58.989670  -24.878098  0
-6.443474  -58.989670  -24.878098  0
-5.693474  -58.739670  -24.878098  0
-5.943474  -58.989670  -24.878098  0
-5.943474  -58.739670  -24.628096  0
-9.443474  -54.989670  -24.378094  0
-8.943474  -54.989670  -24.378094  0
-8.443474  -54.989670  -24.378094  0
-7.943474  -54.989670  -24.378094  0
-7.443474  -54.989670  -24.378094  0
-6.943474  -54.989670  -24.378094  0
-9.693474  -55.239670  -24.378094  0
-6.693474  -55.239670  -24.378094  0
-6.943474  -55.239670  -24.128094  0
-9.693474  -55.739670  -24.378094  0
-6.693474  -55.739670  -24.378094  0
-6.443474  -55.989670  -24.378094  0
-9.693474  -56.239670  -24.378094  0
-9.443474  -56.489670  -24.378094  0
-6.193474  -56.239670  -24.378094  0
-6.443474  -56.239670  -24.128094  0
-5.943474  -56.489670  -24.378094  0
-9.193474  -56.739670  -24.378094  0
-9.443474  -56.739670  -24.128094  0
-5.693474  -56.739670  -24.378094  0
-5.943474  -56.739670  -24.128094  0
-9.193474  -57.239670  -24.378094  0
-5.693474  -57.239670  -24.378094  0
-5.943474  -57.239670  -24.128094  0
-5.443474  -57.489670  -24.378094  0
-9.193474  -57.739670  -24.378094  0
-8.943474  -57.989670  -24.378094  0
-5.193474  -57.739670  -24.378094  0
-5.443474  -57.739670  -24.128094  0
-8.693474  -58.239670  -24.378094  0
-8.443474  -58.489670  -24.378094  0
-7.943474  -58.489670  -24.378094  0
-5.943474  -58.489670  -24.378094  0
-5.943474  -58.239670  -24.128094  0
-5.193474  -58.239670  -24.378094  0
-5.443474  -58.489670  -24.378094  0
-5.443474  -58.239670  -24.128094  0
-7.693474  -58.739670  -24.378094  0
-7.943474  -58.739670  -24.128094  0
-7.443474  -58.989670  -24.378094  0
-6.943474  -58.989670  -24.378094  0
-6.193474  -58.739670  -24.378094  0
-6.443474  -58.989670  -24.378094  0
-6.443474  -58.739670  -24.128094  0
-9.443474  -54.989670  -23.878092  0
-8.943474  -54.989670  -23.878092  0
-8.443474  -54.989670  -23.878092  0
-7.943474  -54.989670  -23.878092  0
-7.443474  -54.989670  -23.878092  0
-9.693474  -55.239670  -23.878092  0
-9.443474  -55.239670  -23.628090  0
-8.943474  -55.239670  -23.628090  0
-8.443474  -55.239670  -23.628090  0
-7.943474  -55.239670  -23.628090  0
-7.193474  -55.239670  -23.878092  0
-7.443474  -55.239670  -23.628090  0
-6.943474  -55.489670  -23.878092  0
-9.693474  -55.739670  -23.878092  0
-7.443474  -55.739670  -23.628090  0
-6.693474  -55.739670  -23.878092  0
-6.943474  -55.739670  -23.628090  0
-9.693474  -56.239670  -23.878092  0
-7.443474  -56.239670  -23.628090  0
-6.693474  -56.239670  -23.878092  0
-6.943474  -56.239670  -23.628090  0
-6.443474  -56.489670  -23.878092  0
-9.693474  -56.739670  -23.878092  0
-9.443474  -56.989670  -23.878092  0
-6.943474  -56.739670  -23.628090  0
-6.193474  -56.739670  -23.878092  0
-6.443474  -56.739670  -23.628090  0
-9.193474  -57.239670  -23.878092  0
-9.443474  -57.239670  -23.628090  0
-6.943474  -57.239670  -23.628090  0
-6.193474  -57.239670  -23.878092  0
-6.443474  -57.239670  -23.628090  0
-5.943474  -57.489670  -23.878092  0
-9.193474  -57.739670  -23.878092  0
-8.943474  -57.989670  -23.878092  0
-6.443474  -57.739670  -23.628090  0
-5.693474  -57.739670  -23.878092  0
-5.943474  -57.989670  -23.878092  0
-5.943474  -57.739670  -23.628090  0
-8.693474  -58.239670  -23.878092  0
-8.443474  -58.489670  -23.878092  0
-6.193474  -58.239670  -23.878092  0
-6.443474  -58.489670  -23.878092  0
-6.443474  -58.239670  -23.628090  0
-8.193474  -58.739670  -23.878092  0
-7.943474  -58.989670  -23.878092  0
-7.443474  -58.989670  -23.878092  0
-6.693474  -58.739670  -23.878092  0
-6.943474  -58.989670  -23.878092  0
-6.943474  -58.739670  -23.628090  0
-9.443474  -55.489670  -23.378088  0
-8.943474  -55.489670  -23.378088  0
-8.443474  -55.489670  -23.378088  0
-7.943474  -55.489670  -23.378088  0
-9.693474  -55.739670  -23.378088  0
-9.443474  -55.739670  -23.128086  0
-8.943474  -55.739670  -23.128086  0
-8.443474  -55.739670  -23.128086  0
-7.693474  -55.739670  -23.378088  0
-7.943474  -55.739670  -23.128086  0
-9.693474  -56.239670  -23.378088  0
-9.443474  -56.239670  -23.128086  0
-7.693474  -56.239670  -23.378088  0
-7.943474  -56.239670  -23.128086  0
-7.443474  -56.489670  -23.378088  0
-9.693474  -56.739670  -23.378088  0
-7.193474  -56.739670  -23.378088  0
-7.443474  -56.739670  -23.128086  0
-9.693474  -57.239670  -23.378088  0
-9.443474  -57.489670  -23.378088  0
-9.443474  -57.239670  -23.128086  0
-7.193474  -57.239670  -23.378088  0
-7.443474  -57.239670  -23.128086  0
-6.943474  -57.489670  -23.378088  0
-9.193474  -57.739670  -23.378088  0
-8.943474  -57.989670  -23.378088  0
-8.943474  -57.739670  -23.128086  0
-7.443474  -57.739670  -23.128086  0
-6.693474  -57.739670  -23.378088  0
-6.943474  -57.739670  -23.128086  0
-8.693474  -58.239670  -23.378088  0
-8.443474  -58.489670  -23.378088  0
-7.443474  -58.239670  -23.128086  0
-6.693474  -58.239670  -23.378088  0
-6.943474  -58.489670  -23.378088  0
-6.943474  -58.239670  -23.128086  0
-8.193474  -58.739670  -23.378088  0
-7.943474  -58.989670  -23.378088  0
-7.943474  -58.739670  -23.128086  0
-7.193474  -58.739670  -23.378088  0
-7.443474  -58.989670  -23.378088  0
-7.443474  -58.739670  -23.128086  0
-8.943474  -55.989670  -22.878084  0
-8.443474  -55.989670  -22.878084  0
-9.193474  -56.239670  -22.878084  0
-9.443474  -56.489670  -22.878084  0
-8.943474  -56.239670  -22.628082  0
-8.193474  -56.239670  -22.878084  0
-8.443474  -56.239670  -22.628082  0
-7.943474  -56.489670  -22.878084  0
-9.693474  -56.739670  -22.878084  0
-9.443474  -56.989670  -22.878084  0
-9.443474  -56.739670  -22.628082  0
-7.693474  -56.739670  -22.878084  0
-7.943474  -56.739670  -22.628082  0
-9.193474  -57.239670  -22.878084  0
-8.943474  -57.489670  -22.878084  0
-8.943474  -57.239670  -22.628082  0
-8.443474  -57.239670  -22.628082  0
-7.693474  -57.239670  -22.878084  0
-7.943474  -57.239670  -22.628082  0
-8.693474  -57.739670  -22.878084  0
-8.443474  -57.739670  -22.628082  0
-7.693474  -57.739670  -22.878084  0
-7.943474  -57.739670  -22.628082  0
-8.693474  -58.239670  -22.878084  0
-8.443474  -58.489670  -22.878084  0
-8.443474  -58.239670  -22.628082  0
-7.693474  -58.239670  -22.878084  0
-7.943474  -58.489670  -22.878084  0
-7.943474  -58.239670  -22.628082  0
-8.943474  -56.489670  -22.378080  0
-8.443474  -56.489670  -22.378080  0
-9.193474  -56.739670  -22.378080  0
-8.943474  -56.989670  -22.378080  0
-8.943474  -56.739670  -22.128078  0
-8.193474  -56.739670  -22.378080  0
-8.443474  -56.989670  -22.378080  0
-8.443474  -56.739670  -22.128078  0
31 35 0 0
0 38 31 0
32 42 1 0
2 33 1 0
1 33 32 0
3 36 2 0
2 36 33 0
36 3 35 0
3 0 35 0
3 4 0 0
38 0 39 0
0 5 39 0
0 4 5 0
6 41 5 0
5 41 39 0
6 44 41 0
1 42 7 0
7 42 45 0
1 8 2 0
1 7 8 0
2 9 3 0
2 8 9 0
3 10 4 0
3 9 10 0
4 11 5 0
4 10 11 0
5 12 6 0
5 11 12 0
44 6 48 0
48 6 12 0
45 47 7 0
49 13 47 0
13 7 47 0
13 8 7 0
8 14 9 0
8 13 14 0
9 15 10 0
9 14 15 0
10 16 11 0
10 15 16 0
11 17 12 0
11 16 17 0
48 12 52 0
52 12 17 0
49 51 13 0
55 18 51 0
18 13 51 0
18 14 13 0
14 19 15 0
14 18 19 0
15 20 16 0
15 19 20 0
16 21 17 0
16 20 21 0
52 17 53 0
17 22 53 0
17 21 22 0
22 57 53 0
18 55 23 0
23 55 58 0
18 24 19 0
18 23 24 0
19 25 20 0
19 24 25 0
20 26 21 0
20 25 26 0
21 27 22 0
21 26 27 0
57 22 61 0
61 22 27 0
58 60 23 0
63 28 60 0
28 23 60 0
28 24 23 0
24 29 25 0
24 28 29 0
25 30 26 0
25 29 30 0
62 27 67 0
27 30 67 0
27 26 30 0
27 62 61 0
63 65 28 0
28 65 29 0
29 65 66 0
29 66 30 0
30 66 68 0
30 68 67 0
70 76 34 0
37 71 34 0
34 71 70 0
35 31 37 0
31 71 37 0
31 72 71 0
40 73 38 0
73 31 38 0
73 72 31 0
40 79 73 0
74 81 43 0
42 32 43 0
32 74 43 0
32 77 74 0
33 34 76 0
77 33 76 0
32 33 77 0
34 33 36 0
34 36 37 0
37 36 35 0
39 40 38 0
80 79 40 0
39 80 40 0
41 80 39 0
41 44 80 0
80 44 83 0
43 81 46 0
46 81 85 0
46 45 42 0
46 42 43 0
48 83 44 0
48 88 83 0
85 87 46 0
87 90 50 0
87 50 47 0
46 87 47 0
45 46 47 0
50 49 47 0
52 54 89 0
88 52 89 0
48 52 88 0
54 93 89 0
90 92 50 0
92 95 56 0
92 56 51 0
50 92 51 0
49 50 51 0
56 55 51 0
53 54 52 0
53 57 54 0
57 93 54 0
57 97 93 0
56 95 59 0
59 95 98 0
59 58 55 0
59 55 56 0
61 97 57 0
61 101 97 0
98 100 59 0
100 104 64 0
100 64 60 0
59 100 60 0
58 59 60 0
64 63 60 0
67 69 62 0
69 110 62 0
110 61 62 0
110 101 61 0
104 106 64 0
64 106 63 0
106 65 63 0
106 107 65 0
65 108 66 0
107 108 65 0
66 109 68 0
108 109 66 0
67 68 69 0
68 111 69 0
68 109 111 0
69 111 110 0
116 123 75 0
78 117 75 0
75 117 116 0
76 70 78 0
70 117 78 0
70 118 117 0
119 70 71 0
119 118 70 0
120 71 72 0
120 119 71 0
121 72 73 0
121 120 72 0
73 79 121 0
121 79 126 0
124 128 82 0
124 82 123 0
123 82 75 0
82 81 75 0
81 74 75 0
75 74 77 0
75 77 78 0
78 77 76 0
79 80 84 0
130 79 84 0
126 79 130 0
83 84 80 0
82 128 86 0
86 128 133 0
86 85 81 0
86 81 82 0
132 130 84 0
84 83 132 0
83 136 132 0
83 88 136 0
133 135 86 0
135 139 91 0
135 91 87 0
86 135 87 0
85 86 87 0
91 90 87 0
138 136 88 0
138 88 89 0
89 93 138 0
138 93 141 0
91 139 94 0
94 139 143 0
96 92 90 0
91 96 90 0
94 96 91 0
96 95 92 0
97 141 93 0
97 146 141 0
143 145 94 0
149 99 145 0
99 94 145 0
99 96 94 0
99 98 95 0
99 95 96 0
101 102 148 0
146 101 148 0
97 101 146 0
102 151 148 0
99 149 103 0
103 149 153 0
105 100 98 0
99 105 98 0
103 105 99 0
105 104 100 0
110 112 102 0
110 102 101 0
151 102 158 0
158 102 112 0
153 154 103 0
103 154 105 0
105 154 155 0
155 161 113 0
155 113 106 0
105 155 106 0
104 105 106 0
114 107 106 0
114 106 113 0
115 108 107 0
115 107 114 0
108 115 164 0
156 108 164 0
109 108 156 0
109 157 111 0
156 157 109 0
110 111 112 0
111 159 112 0
111 157 159 0
112 159 158 0
161 162 113 0
113 162 114 0
114 162 163 0
114 163 115 0
115 163 165 0
115 165 164 0
166 173 122 0
125 167 122 0
122 167 166 0
123 116 125 0
116 167 125 0
116 168 167 0
169 116 117 0
169 168 116 0
170 117 118 0
170 169 117 0
171 118 119 0
171 170 118 0
172 119 120 0
172 171 119 0
174 172 127 0
172 121 127 0
172 120 121 0
126 127 121 0
122 173 129 0
129 173 176 0
129 128 124 0
125 129 124 0
122 129 125 0
125 124 123 0
174 127 131 0
174 131 177 0
130 131 126 0
126 131 127 0
129 176 134 0
134 176 180 0
134 133 128 0
134 128 129 0
179 177 131 0
182 179 137 0
137 179 132 0
179 131 132 0
131 130 132 0
136 137 132 0
180 181 134 0
181 185 140 0
181 140 135 0
134 181 135 0
133 134 135 0
140 139 135 0
184 182 137 0
186 184 142 0
142 184 138 0
184 137 138 0
137 136 138 0
141 142 138 0
140 185 144 0
144 185 188 0
144 143 139 0
144 139 140 0
186 142 147 0
186 147 190 0
146 147 141 0
141 147 142 0
188 189 144 0
189 193 150 0
189 150 145 0
144 189 145 0
143 144 145 0
150 149 145 0
192 190 147 0
196 192 152 0
152 192 148 0
192 147 148 0
147 146 148 0
151 152 148 0
193 195 150 0
149 150 195 0
198 149 195 0
153 149 198 0
196 152 160 0
196 160 203 0
158 160 151 0
151 160 152 0
198 200 153 0
153 200 154 0
154 201 155 0
200 201 154 0
161 155 201 0
161 201 206 0
210 202 156 0
210 156 164 0
156 204 157 0
202 204 156 0
160 159 203 0
159 204 203 0
159 157 204 0
159 160 158 0
206 208 161 0
161 208 162 0
162 209 163 0
208 209 162 0
163 211 165 0
209 211 163 0
164 165 210 0
210 165 211 0
213 219 166 0
166 219 173 0
214 166 167 0
214 213 166 0
215 167 168 0
215 214 167 0
216 168 169 0
216 215 168 0
217 169 170 0
217 216 169 0
218 170 171 0
218 217 170 0
220 218 175 0
218 172 175 0
218 171 172 0
174 175 172 0
219 176 173 0
222 176 219 0
220 175 178 0
220 178 223 0
177 178 174 0
174 178 175 0
222 180 176 0
225 180 222 0
224 223 178 0
227 224 183 0
183 224 179 0
224 178 179 0
178 177 179 0
182 183 179 0
225 226 180 0
180 226 181 0
185 181 226 0
185 226 230 0
229 227 183 0
232 229 187 0
187 229 184 0
229 183 184 0
183 182 184 0
186 187 184 0
230 188 185 0
234 188 230 0
232 187 191 0
232 191 235 0
190 191 186 0
186 191 187 0
189 188 194 0
188 238 194 0
188 234 238 0
194 193 189 0
237 235 191 0
240 237 197 0
197 237 192 0
237 191 192 0
191 190 192 0
196 197 192 0
238 239 194 0
239 242 199 0
239 199 195 0
194 239 195 0
193 194 195 0
199 198 195 0
240 197 205 0
240 205 247 0
203 205 196 0
196 205 197 0
242 243 199 0
199 243 198 0
243 200 198 0
243 244 200 0
244 250 207 0
201 244 207 0
200 244 201 0
207 206 201 0
254 245 212 0
202 210 212 0
245 202 212 0
248 202 245 0
205 204 247 0
204 248 247 0
204 202 248 0
204 205 203 0
250 252 207 0
207 252 206 0
252 208 206 0
252 253 208 0
208 255 209 0
253 255 208 0
212 211 254 0
211 255 254 0
211 209 255 0
211 212 210 0
257 262 213 0
213 262 219 0
258 213 214 0
258 257 213 0
259 214 215 0
259 258 214 0
260 215 216 0
260 259 215 0
261 216 217 0
261 260 216 0
267 261 221 0
261 218 221 0
261 217 218 0
220 221 218 0
262 222 219 0
270 222 262 0
269 267 221 0
221 220 269 0
220 272 269 0
220 223 272 0
270 225 222 0
274 225 270 0
223 224 228 0
276 223 228 0
272 223 276 0
227 228 224 0
226 225 231 0
225 279 231 0
225 274 279 0
231 230 226 0
278 276 228 0
282 278 233 0
233 278 229 0
278 228 229 0
228 227 229 0
232 233 229 0
279 280 231 0
230 231 280 0
284 230 280 0
234 230 284 0
282 233 236 0
282 236 287 0
235 236 232 0
232 236 233 0
284 238 234 0
290 238 284 0
289 287 236 0
293 289 241 0
241 289 237 0
289 236 237 0
236 235 237 0
240 241 237 0
290 291 238 0
238 291 239 0
242 239 291 0
242 291 296 0
298 294 246 0
246 294 293 0
241 246 293 0
249 246 241 0
247 249 240 0
240 249 241 0
296 297 242 0
242 297 243 0
297 301 251 0
244 297 251 0
243 297 244 0
251 250 244 0
304 299 256 0
256 299 298 0
256 298 246 0
254 256 246 0
245 254 246 0
245 246 248 0
248 246 249 0
248 249 247 0
301 302 251 0
251 302 250 0
302 252 250 0
302 303 252 0
252 305 253 0
303 305 252 0
256 255 304 0
255 305 304 0
255 253 305 0
255 256 254 0
263 262 257 0
258 264 257 0
257 264 263 0
259 265 258 0
258 265 264 0
260 266 259 0
259 266 265 0
261 268 260 0
260 268 266 0
267 268 261 0
307 311 263 0
311 262 263 0
311 270 262 0
307 263 264 0
307 264 308 0
308 264 265 0
308 265 309 0
309 265 266 0
309 266 310 0
271 315 310 0
266 271 310 0
268 271 266 0
269 273 267 0
273 268 267 0
273 271 268 0
272 273 269 0
311 274 270 0
317 274 311 0
315 271 275 0
315 275 319 0
277 271 273 0
275 271 277 0
276 277 272 0
272 277 273 0
317 279 274 0
322 279 317 0
321 319 275 0
281 323 321 0
275 281 321 0
277 281 275 0
278 283 276 0
283 277 276 0
283 281 277 0
282 283 278 0
280 279 285 0
279 325 285 0
279 322 325 0
285 284 280 0
323 281 286 0
323 286 328 0
288 281 283 0
286 281 288 0
287 288 282 0
282 288 283 0
325 326 285 0
284 285 326 0
331 284 326 0
290 284 331 0
330 328 286 0
292 335 330 0
286 292 330 0
288 292 286 0
289 295 287 0
295 288 287 0
295 292 288 0
293 295 289 0
331 332 290 0
290 332 291 0
296 291 332 0
296 332 337 0
335 292 300 0
335 300 340 0
298 300 294 0
300 295 294 0
300 292 295 0
294 295 293 0
337 338 296 0
296 338 297 0
301 297 338 0
301 338 343 0
346 341 306 0
306 341 340 0
306 340 300 0
304 306 300 0
299 304 300 0
299 300 298 0
343 344 301 0
301 344 302 0
302 347 303 0
344 347 302 0
306 305 346 0
305 347 346 0
305 303 347 0
305 306 304 0
312 311 307 0
308 313 307 0
307 313 312 0
309 314 308 0
308 314 313 0
310 316 309 0
309 316 314 0
315 316 310 0
318 317 312 0
312 317 311 0
313 349 351 0
318 313 351 0
312 313 318 0
349 313 314 0
349 314 350 0
320 354 350 0
314 320 350 0
316 320 314 0
319 320 315 0
315 320 316 0
352 357 318 0
357 317 318 0
357 322 317 0
352 318 351 0
356 354 320 0
360 356 324 0
324 356 321 0
356 320 321 0
320 319 321 0
323 324 321 0
327 325 358 0
325 357 358 0
325 322 357 0
362 327 358 0
360 324 329 0
360 329 366 0
328 329 323 0
323 329 324 0
327 326 325 0
363 333 331 0
363 331 326 0
362 363 326 0
327 362 326 0
368 333 363 0
366 329 334 0
366 334 370 0
330 336 328 0
336 329 328 0
336 334 329 0
335 336 330 0
333 332 331 0
337 332 333 0
368 337 333 0
372 337 368 0
370 334 339 0
370 339 375 0
342 334 336 0
339 334 342 0
340 342 335 0
335 342 336 0
372 373 337 0
337 373 338 0
376 345 343 0
338 376 343 0
373 376 338 0
345 376 375 0
339 345 375 0
348 345 339 0
346 348 341 0
348 342 341 0
348 339 342 0
341 342 340 0
345 344 343 0
344 345 347 0
347 345 348 0
347 348 346 0
353 351 349 0
350 355 349 0
349 355 353 0
354 355 350 0
359 357 352 0
380 359 352 0
380 352 351 0
378 380 351 0
353 378 351 0
378 353 355 0
378 355 379 0
383 379 361 0
361 379 356 0
379 355 356 0
355 354 356 0
360 361 356 0
359 358 357 0
381 364 362 0
381 362 358 0
380 381 358 0
359 380 358 0
384 365 364 0
384 364 381 0
365 384 383 0
361 365 383 0
367 365 361 0
366 367 360 0
360 367 361 0
364 363 362 0
363 364 368 0
364 369 368 0
364 365 369 0
371 365 367 0
369 365 371 0
370 371 366 0
366 371 367 0
374 372 369 0
369 372 368 0
377 369 371 0
374 369 377 0
375 377 370 0
370 377 371 0
374 373 372 0
373 374 376 0
376 374 377 0
376 377 375 0
382 380 378 0
379 385 378 0
378 385 382 0
383 385 379 0
382 381 380 0
381 382 384 0
384 382 385 0
384 385 383 0
