#!ascii version in FreeSurfer format (SUMA)
948 1892
6.933744  -51.114674  -26.273838  0
7.086719  -51.457657  -26.170389  0
7.195637  -51.280998  -25.966631  0
10.873124  -51.669067  -26.260818  0
11.096981  -51.650764  -25.990604  0
10.650775  -51.962219  -26.270704  0
7.280277  -51.855076  -26.095530  0
7.463606  -51.578377  -25.786024  0
10.431482  -52.251141  -26.276226  0
10.623274  -52.246220  -26.014685  0
10.165428  -52.515430  -26.300076  0
7.317672  -52.413509  -26.257956  0
9.927272  -52.775677  -26.313534  0
10.126277  -52.775654  -26.053047  0
9.677395  -53.036346  -26.291498  0
7.487238  -52.806606  -26.237892  0
7.628172  -53.057598  -26.228289  0
7.737614  -52.891491  -26.021685  0
9.458302  -53.329613  -26.160921  0
9.715124  -53.265759  -25.968069  0
9.085806  -53.457619  -26.173512  0
8.575026  -53.476864  -26.429470  0
7.805514  -53.227539  -26.255995  0
8.191295  -53.405567  -26.250509  0
8.018580  -53.144356  -25.964544  0
11.047573  -46.506134  -25.768448  0
11.103098  -46.280598  -25.507118  0
10.692205  -46.420025  -25.648405  0
10.785419  -46.163792  -25.449654  0
11.320275  -46.759544  -25.763290  0
11.519655  -46.543522  -25.443739  0
10.321555  -46.612907  -25.661009  0
10.087313  -46.882542  -25.653755  0
10.137942  -46.667252  -25.508141  0
11.491362  -47.329327  -25.840145  0
11.680300  -47.043392  -25.563978  0
9.850687  -47.165581  -25.728001  0
9.661015  -47.388012  -25.952082  0
9.629035  -47.344357  -25.594238  0
11.574187  -47.761082  -25.869516  0
11.711702  -47.983795  -25.798265  0
11.829859  -47.717365  -25.624493  0
9.361538  -47.605953  -25.565416  0
8.990746  -47.796211  -25.702744  0
8.603383  -48.025043  -25.759884  0
11.866916  -48.323383  -25.755199  0
12.185816  -48.235653  -25.486532  0
8.425679  -48.225414  -25.710115  0
8.626160  -48.253452  -25.505680  0
8.248746  -48.415432  -25.702248  0
12.473253  -48.643963  -25.388716  0
11.944696  -48.874973  -25.795139  0
12.158909  -48.650787  -25.599087  0
7.938862  -48.633160  -25.852365  0
8.156431  -48.699295  -25.546249  0
7.756876  -48.973614  -25.849997  0
11.968754  -49.378014  -25.787374  0
12.293264  -49.089470  -25.520512  0
7.570013  -49.354645  -25.891670  0
7.700157  -49.484325  -25.644176  0
7.822117  -49.230118  -25.595333  0
11.940126  -49.884506  -25.750063  0
12.214422  -49.628010  -25.518604  0
7.686567  -49.810413  -25.530491  0
7.416197  -49.984955  -25.815590  0
11.907425  -50.420444  -25.652220  0
12.151055  -50.096680  -25.470537  0
7.360337  -50.196171  -25.771654  0
7.511657  -50.184677  -25.587641  0
7.283233  -50.439018  -25.781282  0
11.782054  -50.880798  -25.623489  0
11.516459  -51.085590  -25.856424  0
7.097512  -50.818569  -25.979420  0
7.230165  -51.027523  -25.804623  0
7.360316  -50.845894  -25.622511  0
11.462699  -51.443798  -25.666805  0
11.698275  -51.191528  -25.545671  0
7.384654  -51.202354  -25.696684  0
7.596207  -51.417511  -25.561178  0
7.573690  -51.118816  -25.451483  0
11.275206  -51.749481  -25.633308  0
10.984495  -51.976501  -25.806665  0
7.757688  -51.817074  -25.542271  0
7.581008  -51.987988  -25.814875  0
10.882001  -52.243500  -25.607977  0
10.507929  -52.507393  -25.832096  0
7.566638  -52.412403  -25.975328  0
7.761469  -52.618584  -25.844193  0
7.825354  -52.369251  -25.679070  0
10.390330  -52.774071  -25.643517  0
10.025781  -53.047161  -25.841627  0
7.936456  -52.819035  -25.777275  0
8.112498  -53.024944  -25.746181  0
8.168940  -52.778885  -25.499102  0
9.884476  -53.317825  -25.581947  0
9.462968  -53.466011  -25.777931  0
9.134939  -53.533115  -25.805321  0
8.301822  -53.214867  -25.783010  0
8.738150  -53.452023  -25.825935  0
8.515587  -53.161785  -25.426243  0
11.071815  -46.063702  -25.136751  0
10.838801  -46.065689  -25.277285  0
11.364784  -46.235519  -25.243668  0
11.620175  -46.438641  -25.091070  0
10.560338  -46.177269  -25.226730  0
10.295772  -46.475861  -25.377934  0
11.779066  -46.786972  -25.283003  0
9.995177  -46.830505  -25.203360  0
9.785418  -47.135910  -25.441998  0
11.992400  -47.282959  -25.284317  0
12.268558  -47.264523  -24.971960  0
9.571806  -47.426731  -25.330540  0
9.739500  -47.230778  -25.156975  0
12.544747  -47.611839  -24.957777  0
12.126410  -47.799717  -25.376255  0
12.357102  -48.061913  -25.300400  0
12.319673  -47.695194  -25.175640  0
9.414165  -47.653133  -25.291189  0
9.594455  -47.583549  -25.047911  0
9.145423  -47.964180  -25.305130  0
12.479095  -48.341358  -25.325512  0
12.618895  -48.467628  -25.276407  0
12.677752  -48.170071  -25.104679  0
8.844823  -48.355583  -25.235451  0
9.190927  -48.343811  -24.984303  0
8.496446  -48.517086  -25.375854  0
12.725927  -48.596485  -25.201797  0
12.986515  -48.618767  -24.938498  0
12.711968  -48.969296  -25.193214  0
9.197239  -48.604351  -24.828423  0
8.386155  -48.713200  -25.300573  0
8.747370  -48.680779  -25.062817  0
8.189762  -48.992302  -25.308647  0
12.537382  -49.434639  -25.273117  0
12.818510  -49.321453  -25.051754  0
7.955965  -49.439396  -25.321264  0
8.250639  -49.282291  -25.047178  0
12.421511  -49.904293  -25.278154  0
12.774270  -49.764339  -25.046545  0
7.934478  -49.821453  -25.214401  0
8.170487  -49.635250  -25.003862  0
12.990850  -50.228992  -24.917017  0
12.319218  -50.275829  -25.272575  0
12.592976  -50.261616  -25.105875  0
12.145857  -50.452991  -25.376543  0
7.771488  -50.176994  -25.298826  0
8.091756  -50.146465  -24.993912  0
7.549200  -50.516163  -25.437672  0
13.156528  -50.610428  -24.839333  0
12.752844  -50.729664  -24.957209  0
12.051938  -50.780834  -25.363411  0
12.344217  -50.621868  -25.179913  0
8.155409  -50.617489  -24.913149  0
7.600777  -50.827129  -25.354673  0
7.774293  -51.017246  -25.236656  0
7.851438  -50.627918  -25.154879  0
11.913562  -51.090954  -25.358221  0
12.272410  -51.099613  -25.063019  0
11.816638  -51.407475  -25.255526  0
7.837120  -51.410339  -25.295649  0
8.072683  -51.077278  -25.006018  0
11.507026  -51.671104  -25.379597  0
11.731815  -51.733082  -25.045958  0
11.291043  -51.985115  -25.327291  0
7.985114  -51.819355  -25.257025  0
8.140746  -51.602699  -25.019001  0
11.048755  -52.241344  -25.332226  0
11.243561  -52.243015  -25.063038  0
10.815900  -52.502319  -25.344921  0
8.020964  -52.215668  -25.363726  0
8.234180  -52.464542  -25.168842  0
8.192116  -52.065746  -25.062908  0
10.560716  -52.772770  -25.363451  0
10.764733  -52.776775  -25.081083  0
10.340611  -53.061119  -25.328230  0
8.415352  -52.813370  -25.128792  0
8.641312  -53.100754  -25.056129  0
10.069066  -53.369370  -25.184345  0
10.354944  -53.291958  -24.959528  0
9.684144  -53.502068  -25.181492  0
8.800045  -53.343842  -25.306925  0
9.166064  -53.489677  -25.368076  0
11.002404  -46.049423  -24.852194  0
10.758010  -46.034454  -24.995237  0
11.320727  -46.162109  -24.929440  0
11.573458  -46.384968  -24.625206  0
11.157033  -46.161575  -24.656311  0
10.538229  -46.134098  -24.914175  0
10.754171  -46.169380  -24.669249  0
10.325180  -46.424671  -24.856169  0
11.954545  -46.798130  -24.910553  0
12.363894  -47.002075  -24.593296  0
10.060536  -46.819649  -24.762409  0
10.255064  -46.700348  -24.490498  0
12.502097  -47.321457  -24.803394  0
12.656671  -47.497578  -24.801392  0
12.727111  -47.345722  -24.579618  0
9.877211  -47.227211  -24.833403  0
10.112433  -47.063931  -24.477123  0
12.856188  -47.780148  -24.774767  0
13.051816  -47.615021  -24.449736  0
9.786520  -47.588905  -24.774309  0
10.004141  -47.569439  -24.497381  0
9.647764  -47.986794  -24.774384  0
13.022409  -48.214710  -24.827553  0
13.224184  -48.410126  -24.656702  0
13.183482  -48.028904  -24.562744  0
9.494264  -48.431644  -24.723692  0
9.788765  -48.317516  -24.537149  0
13.297833  -48.828400  -24.588512  0
13.025745  -49.067379  -24.884636  0
9.379117  -48.647675  -24.687538  0
9.639733  -48.631199  -24.495340  0
9.140121  -48.881367  -24.661886  0
8.578009  -49.064262  -24.906464  0
13.037865  -49.477943  -24.854063  0
13.237979  -49.270115  -24.666857  0
9.155779  -49.226448  -24.413109  0
8.472323  -49.419479  -24.796690  0
8.801882  -49.224930  -24.651243  0
13.062935  -49.836418  -24.853582  0
13.190829  -50.031696  -24.798151  0
13.324368  -49.755623  -24.644194  0
8.409991  -49.857716  -24.747034  0
8.788064  -49.587467  -24.505102  0
13.343236  -50.309128  -24.730515  0
13.593368  -50.125931  -24.463791  0
8.385105  -50.359287  -24.728773  0
8.664001  -50.096260  -24.500866  0
13.359559  -50.658691  -24.736683  0
13.570863  -50.604774  -24.509201  0
13.179893  -50.947609  -24.693640  0
12.702155  -51.119823  -24.837992  0
8.382377  -50.857605  -24.732008  0
8.640103  -50.598576  -24.501709  0
13.252384  -51.217926  -24.450302  0
12.492002  -51.299767  -24.826115  0
12.817030  -51.332336  -24.620705  0
12.231900  -51.520496  -24.801355  0
8.381260  -51.358097  -24.749037  0
8.641598  -51.103226  -24.498848  0
11.949416  -51.766518  -24.782095  0
12.197611  -51.793465  -24.524908  0
11.701822  -52.005436  -24.784346  0
8.399259  -51.871243  -24.769342  0
8.639872  -51.617065  -24.492613  0
11.453660  -52.247280  -24.791872  0
11.668402  -52.265129  -24.501633  0
11.206758  -52.509434  -24.804386  0
8.439711  -52.430809  -24.851021  0
8.654758  -52.167107  -24.508064  0
10.976751  -52.780605  -24.800797  0
11.169025  -52.786129  -24.502199  0
10.747407  -53.056557  -24.768723  0
8.567382  -52.841469  -24.865856  0
8.697763  -53.012550  -24.824268  0
8.751549  -52.780724  -24.585653  0
10.509970  -53.337063  -24.673611  0
10.743738  -53.256496  -24.454679  0
10.106075  -53.476105  -24.734818  0
9.725829  -53.534752  -24.758770  0
8.912998  -53.231049  -24.888634  0
9.365751  -53.431255  -24.746031  0
9.049927  -53.136829  -24.465546  0
11.681118  -46.460125  -24.072561  0
11.149838  -46.315575  -24.336435  0
10.641665  -46.477978  -24.297691  0
12.706038  -47.057026  -24.215490  0
12.024280  -46.641155  -24.400360  0
12.396869  -46.779610  -24.120073  0
12.113944  -46.589966  -24.004433  0
10.427261  -46.885128  -24.118971  0
10.745516  -46.636730  -23.913204  0
12.948282  -47.311832  -24.282387  0
13.192956  -47.489273  -24.146744  0
10.254579  -47.313427  -24.201565  0
13.296330  -47.826698  -24.286957  0
10.293065  -47.797817  -24.086760  0
10.019150  -48.061321  -24.382792  0
13.452435  -48.305347  -24.297768  0
13.677587  -48.165886  -23.981684  0
9.982045  -48.435078  -24.306578  0
10.206934  -48.244133  -24.123878  0
13.550106  -48.827190  -24.275841  0
13.727960  -48.583374  -24.040981  0
9.882602  -48.672764  -24.271290  0
10.130751  -48.614777  -24.041838  0
9.656069  -48.948540  -24.237963  0
13.498429  -49.297729  -24.386786  0
13.747004  -49.084988  -24.078831  0
9.411860  -49.233860  -24.217632  0
9.636372  -49.261890  -24.015314  0
9.225522  -49.494434  -24.192110  0
13.590294  -49.745106  -24.367676  0
13.761720  -49.951412  -24.206408  0
13.759151  -49.572750  -24.117903  0
8.968942  -49.888824  -24.252872  0
9.237077  -49.774319  -24.034674  0
13.815604  -50.306690  -24.191767  0
8.893319  -50.345692  -24.262926  0
9.154901  -50.121944  -24.024582  0
13.805465  -50.691551  -24.118969  0
13.545571  -50.983326  -24.343899  0
8.886936  -50.840302  -24.260538  0
9.129110  -50.586349  -24.018253  0
13.420322  -51.260395  -24.134600  0
13.094077  -51.409752  -24.315475  0
12.692182  -51.603336  -24.345041  0
8.888084  -51.351154  -24.245140  0
9.132372  -51.093147  -24.008041  0
12.484895  -51.825474  -24.182911  0
12.780100  -51.742657  -23.973858  0
12.118549  -52.038670  -24.240540  0
8.884817  -51.886669  -24.227762  0
9.132586  -51.620895  -23.986435  0
11.896722  -52.302891  -24.040373  0
11.529696  -52.527328  -24.288528  0
8.913449  -52.447655  -24.238295  0
9.141684  -52.181217  -23.973276  0
11.369907  -52.769138  -24.059174  0
11.013043  -53.042328  -24.236547  0
8.978374  -52.862919  -24.271496  0
9.112846  -53.041752  -24.221100  0
9.220642  -52.799366  -24.027046  0
10.753312  -53.263760  -24.183809  0
10.496429  -53.405243  -24.393600  0
10.463346  -53.321388  -24.046993  0
10.190307  -53.455822  -24.293390  0
10.030178  -53.305065  -23.992912  0
9.327201  -53.220680  -24.272655  0
9.758518  -53.438206  -24.378952  0
9.595396  -53.154148  -23.992872  0
12.000542  -46.538696  -23.647230  0
11.633618  -46.477604  -23.724401  0
11.176834  -46.490658  -23.847267  0
12.354518  -46.662670  -23.762836  0
12.746128  -46.897743  -23.658840  0
10.927979  -46.628082  -23.709787  0
11.158845  -46.654099  -23.490118  0
10.778900  -46.864880  -23.665819  0
13.034766  -47.201759  -23.977222  0
13.262804  -47.395309  -23.923983  0
13.284689  -47.283203  -23.624008  0
10.515315  -47.335934  -23.830164  0
10.789680  -47.199860  -23.474949  0
13.477419  -47.744740  -23.954535  0
13.725875  -47.951809  -23.818518  0
13.747534  -47.697403  -23.526775  0
10.526350  -47.817619  -23.754246  0
10.707521  -47.605545  -23.501541  0
13.900095  -48.249763  -23.762896  0
14.093233  -48.059872  -23.446489  0
10.427950  -48.269123  -23.829075  0
10.682009  -48.091751  -23.514809  0
13.973269  -48.814098  -23.820625  0
14.179749  -48.519272  -23.561106  0
10.363227  -48.635754  -23.785006  0
10.601871  -48.592690  -23.523087  0
10.157852  -48.983517  -23.768091  0
13.988365  -49.355110  -23.828465  0
14.230393  -49.051323  -23.548233  0
9.856035  -49.354191  -23.770956  0
10.176224  -49.347359  -23.519951  0
9.516776  -49.556686  -23.909512  0
13.984615  -49.961639  -23.821741  0
14.224187  -49.599316  -23.498543  0
10.102658  -49.664383  -23.395079  0
9.451366  -49.894978  -23.815023  0
9.795813  -49.634117  -23.654022  0
13.955114  -50.427029  -23.854553  0
9.399960  -50.334629  -23.775625  0
9.768346  -50.046337  -23.514395  0
13.911631  -50.733597  -23.671097  0
13.708938  -51.010601  -23.925610  0
9.387369  -50.848751  -23.765291  0
9.666418  -50.595474  -23.517921  0
13.501305  -51.296040  -23.671743  0
13.127733  -51.532642  -23.928787  0
9.388226  -51.375427  -23.758390  0
9.692699  -51.179440  -23.500885  0
12.915622  -51.770447  -23.569031  0
12.521617  -51.949181  -23.770613  0
12.194305  -52.147404  -23.799791  0
9.925338  -51.681110  -23.339556  0
9.398878  -51.909153  -23.736876  0
9.626763  -51.664444  -23.556391  0
11.982324  -52.298325  -23.582148  0
11.652674  -52.521317  -23.767260  0
9.427338  -52.444111  -23.739468  0
9.771720  -52.193260  -23.475880  0
11.374498  -52.730801  -23.702848  0
11.176807  -52.912048  -23.861967  0
11.067320  -52.802284  -23.548477  0
10.806660  -53.075630  -23.840681  0
10.603898  -52.819962  -23.467978  0
10.311222  -53.084846  -23.717846  0
10.090344  -52.689461  -23.462027  0
9.522627  -52.845100  -23.780138  0
9.850463  -53.002483  -23.719181  0
9.697608  -52.662510  -23.601582  0
12.020043  -46.594677  -23.284975  0
11.606471  -46.554802  -23.435604  0
13.056693  -47.038158  -23.097816  0
12.357620  -46.662151  -23.396540  0
12.562185  -46.819252  -23.101606  0
12.200440  -46.697353  -23.086939  0
11.416124  -46.675671  -23.258814  0
11.743069  -46.727127  -23.081959  0
11.177581  -46.936569  -23.214203  0
13.482456  -47.302692  -23.210972  0
13.750519  -47.493858  -23.033541  0
10.958083  -47.392590  -23.206293  0
11.229169  -47.247948  -22.959137  0
13.991242  -47.760246  -23.200424  0
14.198587  -48.009880  -23.087982  0
10.904331  -47.865135  -23.229994  0
11.154473  -47.633858  -22.954889  0
14.295857  -48.301216  -23.297804  0
10.884238  -48.345192  -23.251820  0
11.132976  -48.119976  -22.981180  0
14.399572  -48.712429  -23.260199  0
10.835145  -48.665550  -23.262096  0
11.080509  -48.615471  -23.006588  0
10.677360  -49.006374  -23.265881  0
14.510601  -49.314114  -23.120333  0
14.716055  -49.190098  -22.829712  0
10.442123  -49.427048  -23.243029  0
10.777983  -49.289799  -23.008949  0
14.376493  -49.868927  -23.116217  0
14.193779  -50.017624  -23.395193  0
10.319548  -49.647293  -23.212769  0
10.577421  -49.599670  -22.987684  0
10.201113  -49.919952  -23.165932  0
14.073442  -50.423904  -23.339985  0
14.257718  -50.204449  -23.098763  0
9.974472  -50.379189  -23.251738  0
10.257697  -50.251877  -22.990980  0
13.922906  -50.805325  -23.216143  0
13.753793  -51.039543  -23.431412  0
9.940347  -50.875114  -23.280725  0
10.243673  -50.708378  -23.009005  0
13.508311  -51.318325  -23.124352  0
13.232423  -51.562202  -23.366903  0
10.573840  -51.213955  -22.880867  0
9.984510  -51.287842  -23.281216  0
10.160707  -51.542374  -23.181648  0
10.217459  -51.208912  -23.108130  0
12.957024  -51.784447  -23.080175  0
12.656830  -51.941452  -23.238901  0
12.257091  -52.099152  -23.324459  0
11.007159  -51.809029  -22.880871  0
10.188869  -51.831623  -23.177824  0
10.456193  -51.707760  -23.042795  0
10.057157  -52.049770  -23.263000  0
11.913417  -52.220898  -23.215858  0
11.726068  -52.377487  -23.372896  0
11.524778  -52.182304  -23.044802  0
11.366300  -52.522293  -23.363178  0
11.112288  -52.279026  -23.079094  0
10.889427  -52.549141  -23.249849  0
10.704962  -52.183697  -23.066818  0
10.116613  -52.334087  -23.284159  0
10.441036  -52.482697  -23.237396  0
10.321296  -52.121029  -23.147732  0
13.018336  -47.089737  -22.690523  0
12.649420  -47.002079  -22.751099  0
12.125319  -46.909782  -22.816504  0
11.574542  -47.029205  -22.858490  0
13.376077  -47.265018  -22.742857  0
13.704597  -47.483475  -22.695156  0
13.086220  -47.201786  -22.532436  0
12.728681  -47.262268  -22.469700  0
12.225773  -47.222767  -22.561106  0
11.466828  -47.393124  -22.745995  0
11.820048  -47.186954  -22.655199  0
13.945170  -47.760654  -22.739956  0
14.197577  -48.079315  -22.705723  0
13.745115  -47.610077  -22.540377  0
12.243250  -47.663975  -22.395033  0
11.426621  -47.846474  -22.734844  0
11.797896  -47.543171  -22.566422  0
14.388403  -48.379704  -22.890253  0
14.282351  -48.315155  -22.458801  0
12.112695  -48.204300  -22.348061  0
11.403394  -48.337490  -22.750044  0
11.760997  -48.041893  -22.535925  0
14.575788  -48.859276  -22.863031  0
14.728113  -49.053627  -22.550329  0
12.135468  -48.558685  -22.279528  0
11.351391  -48.666496  -22.759926  0
11.704762  -48.616779  -22.501419  0
11.185261  -49.006508  -22.773268  0
14.815566  -49.356251  -22.605238  0
14.728641  -49.462170  -22.807676  0
10.942694  -49.398338  -22.749454  0
11.245782  -49.299511  -22.522755  0
14.601157  -49.795280  -22.717245  0
14.784340  -49.618969  -22.589981  0
10.785542  -49.626072  -22.739899  0
11.033516  -49.619511  -22.503445  0
10.608500  -49.951618  -22.749126  0
14.374899  -50.187389  -22.720978  0
14.199583  -50.441238  -22.847256  0
10.479361  -50.429535  -22.769691  0
10.784206  -50.340538  -22.513828  0
13.987087  -50.752438  -22.704945  0
13.741812  -51.061352  -22.887308  0
11.099528  -50.739037  -22.375511  0
10.519490  -50.789692  -22.786543  0
10.749564  -51.030144  -22.699678  0
10.748178  -50.725540  -22.605730  0
13.457931  -51.311745  -22.586153  0
13.172086  -51.565083  -22.781612  0
11.542751  -51.239475  -22.358938  0
10.926620  -51.355354  -22.721577  0
11.220416  -51.575417  -22.680201  0
11.105995  -51.180096  -22.558578  0
12.864993  -51.763054  -22.702581  0
12.708322  -51.892143  -22.866747  0
12.542329  -51.778019  -22.556656  0
12.378000  -51.944050  -22.866854  0
12.037831  -51.679672  -22.502769  0
11.462363  -51.860111  -22.779919  0
11.901711  -51.982342  -22.872284  0
11.555724  -51.613186  -22.595718  0
13.085874  -47.445484  -22.361477  0
12.680183  -47.577202  -22.283798  0
13.502695  -47.537773  -22.444859  0
13.680771  -47.825027  -22.334280  0
13.238426  -47.854263  -22.163013  0
12.506245  -47.936420  -22.220432  0
12.860181  -47.760403  -22.181221  0
13.961040  -48.189453  -22.229622  0
14.210847  -48.466251  -22.117550  0
13.513247  -48.179619  -22.026035  0
13.126556  -48.256237  -21.983040  0
12.429708  -48.352890  -22.176693  0
12.810369  -48.123013  -22.088600  0
14.468147  -48.727695  -22.296183  0
14.693410  -49.110001  -22.228939  0
14.245690  -48.657024  -21.942825  0
13.288907  -48.515549  -21.823364  0
12.350636  -48.620827  -22.155954  0
12.733847  -48.596413  -21.970860  0
12.120914  -48.899456  -22.156925  0
11.586327  -49.087189  -22.388346  0
14.807884  -49.287148  -22.365795  0
14.715847  -49.440155  -22.098183  0
12.099359  -49.338665  -21.962376  0
11.432295  -49.434608  -22.288010  0
11.782259  -49.274784  -22.156481  0
14.810283  -49.559521  -22.355888  0
14.719022  -49.805008  -22.384573  0
14.689084  -49.758049  -22.128611  0
12.046970  -49.769878  -21.873648  0
11.278149  -49.753635  -22.247606  0
11.663556  -49.668369  -22.071178  0
10.987201  -50.003113  -22.384586  0
14.474388  -50.092888  -22.156761  0
14.207320  -50.499336  -22.350138  0
12.053363  -50.260807  -21.854088  0
11.737462  -50.084381  -21.983923  0
11.058198  -50.337463  -22.300776  0
11.288220  -50.537140  -22.198996  0
11.354804  -50.134285  -22.151014  0
13.936789  -50.786217  -22.053984  0
13.658873  -51.059380  -22.273544  0
12.191145  -50.764790  -21.884600  0
11.436922  -50.855404  -22.215168  0
11.713316  -51.072628  -22.171162  0
11.698020  -50.618793  -22.050970  0
13.343826  -51.269066  -22.187265  0
13.180576  -51.437363  -22.359955  0
13.018896  -51.294086  -22.040083  0
12.819736  -51.553932  -22.349442  0
12.537052  -51.195290  -21.983276  0
11.930408  -51.368225  -22.245775  0
12.324632  -51.502827  -22.252056  0
12.051637  -51.127205  -22.074934  0
13.648756  -48.486988  -21.817181  0
13.952121  -48.681019  -21.734016  0
14.255080  -48.938038  -21.742241  0
13.441788  -48.658024  -21.686243  0
13.577048  -48.742401  -21.608103  0
13.154976  -48.884411  -21.634081  0
12.563116  -49.055454  -21.836248  0
14.512978  -49.204876  -21.899584  0
14.256667  -49.415554  -21.499630  0
13.142644  -49.306602  -21.398451  0
12.437908  -49.456993  -21.740459  0
12.812330  -49.230289  -21.608038  0
14.489424  -49.728432  -21.782934  0
14.219779  -49.894039  -21.403263  0
13.104293  -49.768051  -21.307041  0
12.390422  -49.911613  -21.689674  0
12.761010  -49.593529  -21.521545  0
14.323763  -50.123306  -21.644720  0
14.113338  -50.432110  -21.693415  0
14.179081  -50.192791  -21.439837  0
13.160143  -50.319553  -21.355280  0
12.423034  -50.411442  -21.694834  0
12.749250  -50.085449  -21.500580  0
13.822561  -50.717381  -21.638460  0
13.667811  -50.916313  -21.821383  0
13.492364  -50.692497  -21.491777  0
13.319613  -51.044003  -21.834934  0
13.119301  -50.760303  -21.558208  0
12.538759  -50.819431  -21.752010  0
12.875757  -50.989872  -21.752586  0
12.788363  -50.583111  -21.571741  0
13.578800  -49.065903  -21.382339  0
13.971467  -49.157265  -21.380964  0
13.449033  -49.511677  -21.181076  0
13.741412  -49.395985  -21.166386  0
13.985538  -49.618256  -21.215441  0
13.432231  -49.962891  -21.151423  0
13.711329  -49.776657  -21.101227  0
13.967498  -50.102741  -21.261307  0
13.512738  -50.332771  -21.234224  0
13.781273  -50.448112  -21.349457  0
13.685904  -50.138729  -21.143377  0
7 12 0 0
1 9 0 0
0 9 7 0
1 14 9 0
0 12 2 0
2 12 18 0
0 3 1 0
0 2 3 0
14 1 15 0
1 4 15 0
1 3 4 0
4 22 15 0
18 20 2 0
2 20 3 0
3 20 21 0
3 21 4 0
4 21 23 0
4 23 22 0
37 45 5 0
6 39 5 0
5 39 37 0
8 41 6 0
6 41 39 0
10 43 8 0
8 43 41 0
10 47 43 0
5 45 11 0
11 45 50 0
5 13 6 0
5 11 13 0
13 12 7 0
8 13 7 0
6 13 8 0
8 7 9 0
8 9 10 0
16 48 14 0
14 48 9 0
48 47 9 0
47 10 9 0
16 52 48 0
11 50 17 0
17 50 54 0
11 19 13 0
11 17 19 0
19 18 12 0
19 12 13 0
15 16 14 0
24 53 22 0
22 53 15 0
53 52 15 0
52 16 15 0
24 57 53 0
54 56 17 0
59 25 56 0
25 17 56 0
25 19 17 0
26 20 18 0
19 26 18 0
25 26 19 0
27 21 20 0
27 20 26 0
28 23 21 0
28 21 27 0
28 64 23 0
23 64 22 0
64 58 22 0
58 24 22 0
24 58 57 0
59 61 25 0
25 61 26 0
26 61 62 0
26 62 27 0
27 62 63 0
27 63 28 0
28 63 65 0
28 65 64 0
68 75 29 0
30 70 29 0
29 70 68 0
31 72 30 0
30 72 70 0
31 79 72 0
75 77 29 0
29 77 30 0
30 77 78 0
30 78 31 0
31 78 80 0
31 80 79 0
82 92 32 0
33 84 32 0
32 84 82 0
34 86 33 0
33 86 84 0
35 88 34 0
34 88 86 0
36 90 35 0
35 90 88 0
36 98 90 0
92 94 32 0
32 94 33 0
33 94 95 0
33 95 34 0
34 95 96 0
34 96 35 0
35 96 97 0
35 97 36 0
36 97 99 0
36 99 98 0
107 111 38 0
40 108 38 0
38 108 107 0
42 109 40 0
40 109 108 0
44 110 42 0
42 110 109 0
44 113 110 0
112 115 46 0
112 46 111 0
111 46 38 0
46 45 38 0
45 37 38 0
38 37 39 0
38 39 40 0
40 39 41 0
40 41 42 0
42 41 43 0
42 43 44 0
49 114 47 0
47 114 43 0
114 113 43 0
113 44 43 0
49 116 114 0
46 115 51 0
51 115 117 0
51 50 45 0
51 45 46 0
48 49 47 0
48 52 49 0
52 116 49 0
52 118 116 0
51 117 55 0
55 117 120 0
55 54 50 0
55 50 51 0
119 118 52 0
119 52 53 0
53 57 119 0
119 57 122 0
120 121 55 0
121 123 60 0
121 60 56 0
55 121 56 0
54 55 56 0
60 59 56 0
64 66 58 0
66 126 58 0
126 57 58 0
126 122 57 0
123 125 60 0
125 128 67 0
125 67 61 0
60 125 61 0
59 60 61 0
69 62 61 0
69 61 67 0
71 63 62 0
71 62 69 0
73 65 63 0
73 63 71 0
73 131 65 0
65 131 64 0
131 127 64 0
127 66 64 0
66 127 126 0
129 134 74 0
129 74 128 0
74 67 128 0
74 76 67 0
76 75 68 0
69 76 68 0
67 76 69 0
69 68 70 0
69 70 71 0
71 70 72 0
71 72 73 0
81 132 79 0
79 132 72 0
132 131 72 0
131 73 72 0
81 137 132 0
134 136 74 0
139 83 136 0
83 74 136 0
83 76 74 0
85 77 75 0
76 85 75 0
83 85 76 0
87 78 77 0
87 77 85 0
89 80 78 0
89 78 87 0
81 79 80 0
89 81 80 0
91 81 89 0
137 81 142 0
142 81 91 0
140 145 93 0
140 93 139 0
139 93 83 0
93 92 83 0
92 82 83 0
83 82 84 0
83 84 85 0
85 84 86 0
85 86 87 0
87 86 88 0
87 88 89 0
89 88 90 0
89 90 91 0
100 143 98 0
98 143 90 0
143 142 90 0
142 91 90 0
100 147 143 0
145 146 93 0
146 149 101 0
146 101 94 0
93 146 94 0
92 93 94 0
102 95 94 0
102 94 101 0
103 96 95 0
103 95 102 0
104 97 96 0
104 96 103 0
105 99 97 0
105 97 104 0
105 153 99 0
99 153 98 0
153 148 98 0
148 100 98 0
100 148 147 0
149 150 101 0
101 150 102 0
102 150 151 0
102 151 103 0
103 151 152 0
156 106 152 0
106 103 152 0
106 104 103 0
154 105 158 0
105 106 158 0
105 104 106 0
105 154 153 0
156 159 106 0
106 159 158 0
162 166 107 0
107 166 111 0
163 107 108 0
163 162 107 0
164 108 109 0
164 163 108 0
165 109 110 0
165 164 109 0
110 113 165 0
165 113 169 0
167 171 112 0
112 171 115 0
112 111 166 0
112 166 167 0
170 169 113 0
170 113 114 0
114 116 170 0
170 116 173 0
171 117 115 0
174 117 171 0
118 173 116 0
118 176 173 0
174 120 117 0
178 120 174 0
177 176 118 0
177 118 119 0
119 122 177 0
177 122 180 0
121 120 124 0
120 181 124 0
120 178 181 0
124 123 121 0
126 180 122 0
126 184 180 0
181 183 124 0
183 186 130 0
183 130 125 0
124 183 125 0
123 124 125 0
130 128 125 0
131 133 127 0
133 189 127 0
189 126 127 0
189 184 126 0
187 191 135 0
187 135 186 0
186 135 130 0
135 134 130 0
134 129 130 0
130 129 128 0
132 133 131 0
138 190 137 0
137 190 132 0
190 189 132 0
189 133 132 0
138 194 190 0
191 193 135 0
193 196 141 0
193 141 136 0
135 193 136 0
134 135 136 0
141 139 136 0
142 144 138 0
142 138 137 0
194 138 198 0
198 138 144 0
141 196 140 0
196 145 140 0
196 199 145 0
141 140 139 0
143 144 142 0
143 147 144 0
147 198 144 0
147 202 198 0
199 201 145 0
145 201 146 0
149 146 201 0
149 201 205 0
208 203 148 0
208 148 153 0
147 148 202 0
202 148 203 0
205 207 149 0
149 207 150 0
207 209 155 0
151 207 155 0
150 207 151 0
157 152 151 0
157 151 155 0
157 156 152 0
158 160 154 0
160 213 154 0
213 153 154 0
213 208 153 0
209 211 155 0
155 211 157 0
157 211 212 0
212 215 161 0
212 161 159 0
157 212 159 0
156 157 159 0
161 217 159 0
159 217 158 0
217 214 158 0
214 160 158 0
160 214 213 0
215 218 161 0
161 218 217 0
219 224 168 0
166 162 168 0
162 219 168 0
162 220 219 0
221 162 163 0
221 220 162 0
222 163 164 0
222 221 163 0
223 164 165 0
223 222 164 0
165 169 223 0
223 169 227 0
225 230 172 0
225 172 224 0
224 172 168 0
172 171 168 0
171 167 168 0
168 167 166 0
229 227 169 0
229 169 170 0
170 173 229 0
229 173 232 0
172 230 175 0
175 230 234 0
175 174 171 0
175 171 172 0
176 232 173 0
176 236 232 0
175 234 179 0
179 234 239 0
179 178 174 0
179 174 175 0
238 236 176 0
238 176 177 0
177 180 238 0
238 180 241 0
179 239 182 0
182 239 243 0
182 181 178 0
182 178 179 0
184 241 180 0
184 245 241 0
182 243 185 0
185 243 247 0
188 183 181 0
182 188 181 0
185 188 182 0
188 186 183 0
189 245 184 0
189 249 245 0
185 247 192 0
192 247 250 0
192 191 187 0
188 192 187 0
185 192 188 0
188 187 186 0
189 190 195 0
253 189 195 0
249 189 253 0
194 195 190 0
250 252 192 0
252 255 197 0
252 197 193 0
192 252 193 0
191 192 193 0
197 196 193 0
254 253 195 0
195 194 254 0
194 257 254 0
194 198 257 0
197 255 200 0
200 255 260 0
200 199 196 0
200 196 197 0
263 258 204 0
258 257 204 0
257 202 204 0
257 198 202 0
260 262 200 0
262 265 206 0
262 206 201 0
200 262 201 0
199 200 201 0
206 205 201 0
263 204 203 0
208 263 203 0
268 263 208 0
203 204 202 0
265 267 206 0
267 270 210 0
267 210 207 0
206 267 207 0
205 206 207 0
210 209 207 0
213 268 208 0
213 274 268 0
270 272 210 0
210 272 209 0
272 211 209 0
272 273 211 0
273 278 216 0
212 273 216 0
211 273 212 0
216 215 212 0
281 275 214 0
281 214 217 0
213 214 274 0
274 214 275 0
278 280 216 0
216 280 215 0
280 218 215 0
280 282 218 0
217 218 281 0
281 218 282 0
287 294 226 0
224 219 226 0
219 287 226 0
219 289 287 0
291 219 220 0
291 289 219 0
292 220 221 0
292 291 220 0
293 221 222 0
293 292 221 0
298 293 228 0
293 223 228 0
293 222 223 0
227 228 223 0
295 301 231 0
295 231 294 0
294 231 226 0
231 230 226 0
230 225 226 0
226 225 224 0
300 298 228 0
303 300 233 0
233 300 229 0
300 228 229 0
228 227 229 0
232 233 229 0
231 301 235 0
235 301 305 0
235 234 230 0
235 230 231 0
303 233 237 0
303 237 307 0
236 237 232 0
232 237 233 0
235 305 240 0
240 305 309 0
240 239 234 0
240 234 235 0
308 307 237 0
311 308 242 0
242 308 238 0
308 237 238 0
237 236 238 0
241 242 238 0
240 309 244 0
244 309 312 0
244 243 239 0
244 239 240 0
311 242 246 0
311 246 314 0
245 246 241 0
241 246 242 0
244 312 248 0
248 312 317 0
248 247 243 0
248 243 244 0
316 314 246 0
246 245 316 0
245 319 316 0
245 249 319 0
248 317 251 0
251 317 321 0
251 250 247 0
251 247 248 0
253 319 249 0
253 324 319 0
321 323 251 0
323 325 256 0
323 256 252 0
251 323 252 0
250 251 252 0
256 255 252 0
253 254 259 0
327 253 259 0
324 253 327 0
257 259 254 0
256 325 261 0
261 325 330 0
261 260 255 0
261 255 256 0
333 328 264 0
264 328 327 0
264 327 259 0
263 264 259 0
258 263 259 0
258 259 257 0
330 332 261 0
332 335 266 0
332 266 262 0
261 332 262 0
260 261 262 0
266 265 262 0
333 264 269 0
333 269 338 0
268 269 263 0
263 269 264 0
335 337 266 0
337 339 271 0
337 271 267 0
266 337 267 0
265 266 267 0
271 270 267 0
338 269 276 0
338 276 342 0
274 276 268 0
268 276 269 0
339 341 271 0
341 345 277 0
341 277 272 0
271 341 272 0
270 271 272 0
279 273 272 0
279 272 277 0
279 278 273 0
349 343 283 0
283 343 342 0
283 342 276 0
281 283 276 0
275 281 276 0
275 276 274 0
345 347 277 0
277 347 279 0
279 347 348 0
279 348 278 0
348 280 278 0
348 350 280 0
283 282 349 0
282 350 349 0
282 280 350 0
282 283 281 0
352 356 284 0
285 354 284 0
284 354 352 0
285 358 354 0
284 356 286 0
286 356 361 0
284 288 285 0
284 286 288 0
358 285 359 0
285 290 359 0
285 288 290 0
290 363 359 0
286 361 296 0
296 361 366 0
296 294 287 0
288 296 287 0
286 296 288 0
288 287 289 0
288 289 290 0
364 363 290 0
289 364 290 0
291 364 289 0
369 364 297 0
364 292 297 0
364 291 292 0
293 299 292 0
292 299 297 0
298 299 293 0
367 372 302 0
367 302 366 0
366 302 296 0
302 301 296 0
301 295 296 0
296 295 294 0
370 369 297 0
370 297 299 0
370 299 371 0
374 371 304 0
304 371 300 0
371 299 300 0
299 298 300 0
303 304 300 0
302 372 306 0
306 372 378 0
306 305 301 0
306 301 302 0
376 374 304 0
304 303 376 0
303 380 376 0
303 307 380 0
306 378 310 0
310 378 383 0
310 309 305 0
310 305 306 0
382 380 307 0
382 307 308 0
308 311 382 0
382 311 385 0
310 383 313 0
313 383 388 0
313 312 309 0
313 309 310 0
390 386 315 0
386 385 315 0
385 314 315 0
385 311 314 0
313 388 318 0
318 388 392 0
318 317 312 0
318 312 313 0
391 390 315 0
394 391 320 0
320 391 316 0
391 315 316 0
315 314 316 0
319 320 316 0
318 392 322 0
322 392 397 0
322 321 317 0
322 317 318 0
396 394 320 0
320 319 396 0
319 399 396 0
319 324 399 0
397 398 322 0
398 402 326 0
398 326 323 0
322 398 323 0
321 322 323 0
326 325 323 0
404 400 329 0
400 399 329 0
399 327 329 0
399 324 327 0
326 402 331 0
331 402 407 0
331 330 325 0
331 325 326 0
409 405 334 0
334 405 404 0
334 404 329 0
333 334 329 0
328 333 329 0
328 329 327 0
407 408 331 0
408 411 336 0
408 336 332 0
331 408 332 0
330 331 332 0
336 335 332 0
410 409 334 0
334 333 410 0
333 413 410 0
333 338 413 0
411 412 336 0
412 416 340 0
412 340 337 0
336 412 337 0
335 336 337 0
340 339 337 0
418 414 344 0
414 413 344 0
413 342 344 0
413 338 342 0
416 417 340 0
417 421 346 0
417 346 341 0
340 417 341 0
339 340 341 0
346 345 341 0
424 419 351 0
351 419 418 0
351 418 344 0
349 351 344 0
343 349 344 0
343 344 342 0
421 422 346 0
346 422 345 0
422 347 345 0
422 423 347 0
347 425 348 0
423 425 347 0
351 350 424 0
350 425 424 0
350 348 425 0
350 351 349 0
427 429 353 0
355 428 353 0
353 428 427 0
355 431 428 0
430 433 357 0
430 357 429 0
429 357 353 0
357 356 353 0
356 352 353 0
353 352 354 0
353 354 355 0
360 432 358 0
358 432 354 0
432 431 354 0
431 355 354 0
360 434 432 0
357 433 362 0
362 433 436 0
362 361 356 0
362 356 357 0
359 360 358 0
365 435 363 0
363 435 359 0
435 434 359 0
434 360 359 0
365 438 435 0
362 436 368 0
368 436 441 0
368 366 361 0
368 361 362 0
364 365 363 0
364 369 365 0
369 438 365 0
369 444 438 0
442 447 373 0
442 373 441 0
441 373 368 0
373 372 368 0
372 367 368 0
368 367 366 0
446 444 369 0
446 369 370 0
450 446 375 0
446 371 375 0
446 370 371 0
374 375 371 0
448 453 377 0
448 377 447 0
377 373 447 0
377 379 373 0
379 378 372 0
379 372 373 0
452 450 375 0
457 452 381 0
381 452 376 0
452 375 376 0
375 374 376 0
380 381 376 0
453 455 377 0
460 384 455 0
384 377 455 0
384 379 377 0
384 383 378 0
384 378 379 0
459 457 381 0
462 459 387 0
387 459 382 0
459 381 382 0
381 380 382 0
385 387 382 0
384 460 389 0
389 460 464 0
389 388 383 0
389 383 384 0
462 387 386 0
390 462 386 0
466 462 390 0
386 387 385 0
389 464 393 0
393 464 469 0
393 392 388 0
393 388 389 0
390 391 395 0
472 390 395 0
466 390 472 0
394 395 391 0
469 471 393 0
392 393 471 0
477 392 471 0
397 392 477 0
474 472 395 0
480 474 401 0
401 474 396 0
474 395 396 0
395 394 396 0
399 401 396 0
398 397 403 0
397 483 403 0
397 477 483 0
403 402 398 0
486 481 406 0
406 481 480 0
406 480 401 0
404 406 401 0
400 404 401 0
400 401 399 0
483 485 403 0
402 403 485 0
488 402 485 0
407 402 488 0
486 406 405 0
409 486 405 0
491 486 409 0
405 406 404 0
488 490 407 0
407 490 408 0
411 408 490 0
411 490 493 0
409 410 415 0
496 409 415 0
491 409 496 0
413 415 410 0
493 495 411 0
411 495 412 0
416 412 495 0
416 495 499 0
502 497 420 0
420 497 496 0
420 496 415 0
418 420 415 0
414 418 415 0
414 415 413 0
499 501 416 0
416 501 417 0
421 417 501 0
421 501 504 0
507 503 426 0
426 503 502 0
426 502 420 0
424 426 420 0
419 424 420 0
419 420 418 0
504 506 421 0
421 506 422 0
422 508 423 0
506 508 422 0
426 425 507 0
425 508 507 0
425 423 508 0
425 426 424 0
509 511 427 0
427 511 429 0
510 427 428 0
510 509 427 0
428 431 510 0
510 431 514 0
512 517 430 0
430 517 433 0
430 429 511 0
430 511 512 0
516 514 431 0
516 431 432 0
432 434 516 0
516 434 519 0
518 521 437 0
517 518 437 0
436 517 437 0
433 517 436 0
434 435 439 0
524 434 439 0
519 434 524 0
438 439 435 0
522 526 440 0
522 440 521 0
440 437 521 0
440 443 437 0
443 441 436 0
443 436 437 0
524 439 445 0
524 445 528 0
444 445 438 0
438 445 439 0
440 526 449 0
449 526 531 0
449 447 442 0
443 449 442 0
440 449 443 0
443 442 441 0
530 528 445 0
534 530 451 0
451 530 446 0
530 445 446 0
445 444 446 0
450 451 446 0
532 536 454 0
532 454 531 0
531 454 449 0
454 453 449 0
453 448 449 0
449 448 447 0
534 451 456 0
534 456 538 0
452 458 450 0
458 451 450 0
458 456 451 0
457 458 452 0
536 537 454 0
537 542 461 0
537 461 455 0
454 537 455 0
453 454 455 0
461 460 455 0
540 538 456 0
540 456 458 0
540 458 541 0
545 541 463 0
463 541 459 0
541 458 459 0
458 457 459 0
462 463 459 0
461 542 465 0
465 542 547 0
465 464 460 0
465 460 461 0
545 463 467 0
545 467 550 0
466 467 462 0
462 467 463 0
548 552 468 0
548 468 547 0
468 465 547 0
468 470 465 0
470 469 464 0
470 464 465 0
550 467 473 0
550 473 554 0
472 473 466 0
466 473 467 0
468 552 475 0
475 552 556 0
468 476 470 0
468 475 476 0
478 471 469 0
470 478 469 0
476 478 470 0
478 477 471 0
554 473 479 0
554 479 560 0
474 482 472 0
482 473 472 0
482 479 473 0
480 482 474 0
556 558 475 0
475 558 476 0
476 558 559 0
563 484 559 0
484 476 559 0
484 478 476 0
484 483 477 0
484 477 478 0
560 479 487 0
560 487 566 0
486 487 481 0
487 482 481 0
487 479 482 0
481 482 480 0
563 565 484 0
565 568 489 0
565 489 485 0
484 565 485 0
483 484 485 0
489 488 485 0
566 487 492 0
566 492 571 0
491 492 486 0
486 492 487 0
568 570 489 0
570 573 494 0
570 494 490 0
489 570 490 0
488 489 490 0
494 493 490 0
571 492 498 0
571 498 576 0
496 498 491 0
491 498 492 0
573 575 494 0
575 578 500 0
575 500 495 0
494 575 495 0
493 494 495 0
500 499 495 0
576 498 497 0
502 576 497 0
581 576 502 0
497 498 496 0
578 580 500 0
580 584 505 0
580 505 501 0
500 580 501 0
499 500 501 0
505 504 501 0
588 582 503 0
588 503 507 0
502 503 581 0
581 503 582 0
584 586 505 0
505 586 504 0
586 506 504 0
586 587 506 0
506 589 508 0
587 589 506 0
507 508 588 0
588 508 589 0
513 511 509 0
510 515 509 0
509 515 513 0
514 515 510 0
591 595 512 0
512 595 517 0
512 511 513 0
592 512 513 0
591 512 592 0
592 513 515 0
592 515 593 0
598 593 520 0
520 593 516 0
593 515 516 0
515 514 516 0
519 520 516 0
594 600 523 0
521 518 523 0
518 594 523 0
518 596 594 0
518 517 595 0
518 595 596 0
598 520 525 0
598 525 602 0
524 525 519 0
519 525 520 0
601 603 527 0
601 527 600 0
600 527 523 0
527 526 523 0
526 522 523 0
523 522 521 0
602 525 529 0
602 529 604 0
528 529 524 0
524 529 525 0
527 603 533 0
533 603 606 0
533 531 526 0
533 526 527 0
605 604 529 0
608 605 535 0
535 605 530 0
605 529 530 0
529 528 530 0
534 535 530 0
533 606 532 0
606 536 532 0
606 610 536 0
533 532 531 0
608 535 539 0
608 539 612 0
538 539 534 0
534 539 535 0
537 536 543 0
536 615 543 0
536 610 615 0
543 542 537 0
614 612 539 0
617 614 544 0
544 614 540 0
614 539 540 0
539 538 540 0
541 546 540 0
540 546 544 0
545 546 541 0
543 615 549 0
549 615 620 0
549 547 542 0
549 542 543 0
619 617 544 0
551 623 619 0
544 551 619 0
546 551 544 0
550 551 545 0
545 551 546 0
621 625 553 0
621 553 620 0
620 553 549 0
553 552 549 0
552 548 549 0
549 548 547 0
623 551 555 0
623 555 626 0
554 555 550 0
550 555 551 0
553 625 557 0
557 625 628 0
557 556 552 0
557 552 553 0
626 555 561 0
626 561 630 0
560 561 554 0
554 561 555 0
628 629 557 0
629 632 562 0
629 562 558 0
557 629 558 0
556 557 558 0
564 559 558 0
564 558 562 0
564 563 559 0
630 561 567 0
630 567 635 0
566 567 560 0
560 567 561 0
632 633 562 0
562 633 564 0
564 633 634 0
634 637 569 0
634 569 565 0
564 634 565 0
563 564 565 0
569 568 565 0
635 567 572 0
635 572 640 0
571 572 566 0
566 572 567 0
637 639 569 0
639 642 574 0
639 574 570 0
569 639 570 0
568 569 570 0
574 573 570 0
640 572 577 0
640 577 644 0
576 577 571 0
571 577 572 0
642 643 574 0
643 646 579 0
643 579 575 0
574 643 575 0
573 574 575 0
579 578 575 0
644 577 583 0
644 583 648 0
581 583 576 0
576 583 577 0
646 647 579 0
647 651 585 0
647 585 580 0
579 647 580 0
578 579 580 0
585 584 580 0
656 649 590 0
590 649 648 0
590 648 583 0
588 590 583 0
582 588 583 0
582 583 581 0
651 652 585 0
585 652 584 0
652 586 584 0
652 654 586 0
586 657 587 0
654 657 586 0
590 589 656 0
589 657 656 0
589 587 657 0
589 590 588 0
659 662 597 0
595 591 597 0
591 659 597 0
591 660 659 0
661 591 592 0
661 660 591 0
664 661 599 0
661 593 599 0
661 592 593 0
598 599 593 0
663 667 594 0
594 667 600 0
596 597 662 0
663 596 662 0
594 596 663 0
597 596 595 0
666 664 599 0
599 598 666 0
598 670 666 0
598 602 670 0
668 672 601 0
601 672 603 0
601 600 667 0
601 667 668 0
604 670 602 0
604 675 670 0
673 677 607 0
672 673 607 0
606 672 607 0
603 672 606 0
604 605 609 0
679 604 609 0
675 604 679 0
608 609 605 0
607 677 611 0
611 677 681 0
611 610 606 0
611 606 607 0
679 609 613 0
679 613 683 0
612 613 608 0
608 613 609 0
611 681 616 0
616 681 686 0
616 615 610 0
616 610 611 0
685 683 613 0
688 685 618 0
618 685 614 0
685 613 614 0
613 612 614 0
617 618 614 0
616 686 622 0
622 686 691 0
622 620 615 0
622 615 616 0
690 688 618 0
694 690 624 0
624 690 619 0
690 618 619 0
618 617 619 0
623 624 619 0
622 691 621 0
691 625 621 0
691 696 625 0
622 621 620 0
694 624 627 0
694 627 697 0
626 627 623 0
623 627 624 0
696 628 625 0
699 628 696 0
697 627 631 0
697 631 701 0
630 631 626 0
626 631 627 0
699 700 628 0
628 700 629 0
632 629 700 0
632 700 703 0
701 631 636 0
701 636 705 0
635 636 630 0
630 636 631 0
703 704 632 0
632 704 633 0
704 707 638 0
634 704 638 0
633 704 634 0
638 637 634 0
705 636 641 0
705 641 711 0
640 641 635 0
635 641 636 0
707 708 638 0
638 708 637 0
708 639 637 0
708 709 639 0
642 639 709 0
642 709 713 0
711 641 645 0
711 645 715 0
644 645 640 0
640 645 641 0
713 714 642 0
642 714 643 0
646 643 714 0
646 714 717 0
715 645 650 0
715 650 724 0
648 650 644 0
644 650 645 0
717 718 646 0
646 718 647 0
720 653 651 0
647 720 651 0
718 720 647 0
722 655 653 0
722 653 720 0
725 658 655 0
725 655 722 0
658 725 724 0
658 724 650 0
656 658 650 0
649 656 650 0
649 650 648 0
653 652 651 0
652 653 654 0
654 653 655 0
654 655 657 0
657 655 658 0
657 658 656 0
727 730 659 0
659 730 662 0
728 659 660 0
728 727 659 0
733 728 665 0
728 661 665 0
728 660 661 0
664 665 661 0
729 736 669 0
667 663 669 0
663 729 669 0
663 731 729 0
663 662 730 0
663 730 731 0
735 733 665 0
738 735 671 0
671 735 666 0
735 665 666 0
665 664 666 0
670 671 666 0
737 740 674 0
737 674 736 0
736 674 669 0
674 672 669 0
672 668 669 0
669 668 667 0
738 671 676 0
738 676 742 0
675 676 670 0
670 676 671 0
741 744 678 0
741 678 740 0
740 678 674 0
678 677 674 0
677 673 674 0
674 673 672 0
742 676 680 0
742 680 745 0
679 680 675 0
675 680 676 0
678 744 682 0
682 744 747 0
682 681 677 0
682 677 678 0
745 680 684 0
745 684 748 0
683 684 679 0
679 684 680 0
682 747 687 0
687 747 751 0
687 686 681 0
687 681 682 0
750 748 684 0
753 750 689 0
689 750 685 0
750 684 685 0
684 683 685 0
688 689 685 0
687 751 692 0
692 751 755 0
692 691 686 0
692 686 687 0
753 689 693 0
753 693 757 0
690 695 688 0
695 689 688 0
695 693 689 0
694 695 690 0
755 756 692 0
691 692 756 0
760 691 756 0
696 691 760 0
759 757 693 0
698 762 759 0
693 698 759 0
695 698 693 0
697 698 694 0
694 698 695 0
760 699 696 0
764 699 760 0
762 698 702 0
762 702 766 0
701 702 697 0
697 702 698 0
764 765 699 0
699 765 700 0
703 700 765 0
703 765 768 0
766 702 706 0
766 706 771 0
705 706 701 0
701 706 702 0
768 769 703 0
703 769 704 0
707 704 769 0
707 769 774 0
778 772 710 0
710 772 771 0
706 710 771 0
712 710 706 0
711 712 705 0
705 712 706 0
774 775 707 0
707 775 708 0
708 776 709 0
775 776 708 0
713 709 776 0
713 776 781 0
780 778 710 0
716 788 780 0
710 716 780 0
712 716 710 0
715 716 711 0
711 716 712 0
781 782 713 0
713 782 714 0
784 719 717 0
714 784 717 0
782 784 714 0
786 721 719 0
786 719 784 0
789 723 721 0
789 721 786 0
723 789 788 0
716 723 788 0
726 723 716 0
724 726 715 0
715 726 716 0
719 718 717 0
718 719 720 0
720 719 721 0
720 721 722 0
722 721 723 0
722 723 725 0
725 723 726 0
725 726 724 0
732 730 727 0
728 734 727 0
727 734 732 0
733 734 728 0
791 795 729 0
729 795 736 0
792 729 731 0
792 791 729 0
731 730 732 0
793 731 732 0
792 731 793 0
793 732 734 0
793 734 794 0
800 794 739 0
739 794 735 0
794 734 735 0
734 733 735 0
738 739 735 0
796 802 737 0
737 802 740 0
737 736 795 0
737 795 796 0
800 739 743 0
800 743 806 0
742 743 738 0
738 743 739 0
803 808 741 0
741 808 744 0
741 740 802 0
741 802 803 0
806 743 746 0
806 746 811 0
745 746 742 0
742 746 743 0
808 747 744 0
813 747 808 0
811 746 749 0
811 749 816 0
748 749 745 0
745 749 746 0
814 819 752 0
813 814 752 0
751 813 752 0
747 813 751 0
818 816 749 0
821 818 754 0
754 818 750 0
818 749 750 0
749 748 750 0
753 754 750 0
819 820 752 0
751 752 820 0
823 751 820 0
755 751 823 0
821 754 758 0
821 758 825 0
757 758 753 0
753 758 754 0
756 755 761 0
755 828 761 0
755 823 828 0
761 760 756 0
827 825 758 0
830 827 763 0
763 827 759 0
827 758 759 0
758 757 759 0
762 763 759 0
828 829 761 0
760 761 829 0
832 760 829 0
764 760 832 0
830 763 767 0
830 767 835 0
766 767 762 0
762 767 763 0
832 833 764 0
764 833 765 0
768 765 833 0
768 833 838 0
841 836 770 0
770 836 835 0
767 770 835 0
773 770 767 0
771 773 766 0
766 773 767 0
838 839 768 0
768 839 769 0
774 769 839 0
774 839 844 0
849 842 777 0
777 842 841 0
770 777 841 0
779 777 770 0
778 779 772 0
779 773 772 0
779 770 773 0
772 773 771 0
844 845 774 0
774 845 775 0
775 847 776 0
845 847 775 0
850 783 781 0
776 850 781 0
847 850 776 0
783 850 849 0
777 783 849 0
785 783 777 0
787 777 779 0
785 777 787 0
780 790 778 0
790 779 778 0
790 787 779 0
788 790 780 0
783 782 781 0
782 783 784 0
784 783 785 0
784 785 786 0
786 785 787 0
786 787 789 0
789 787 790 0
789 790 788 0
797 795 791 0
792 798 791 0
791 798 797 0
793 799 792 0
792 799 798 0
794 801 793 0
793 801 799 0
800 801 794 0
804 802 796 0
854 804 796 0
854 796 795 0
852 854 795 0
797 852 795 0
852 797 798 0
852 798 853 0
805 857 853 0
798 805 853 0
799 805 798 0
807 799 801 0
805 799 807 0
806 807 800 0
800 807 801 0
809 808 803 0
859 809 803 0
859 803 802 0
855 859 802 0
804 855 802 0
855 804 854 0
857 805 810 0
857 810 863 0
812 805 807 0
810 805 812 0
811 812 806 0
806 812 807 0
860 865 809 0
865 808 809 0
865 813 808 0
860 809 859 0
863 810 815 0
863 815 869 0
817 810 812 0
815 810 817 0
816 817 811 0
811 817 812 0
866 873 814 0
814 873 819 0
814 813 865 0
814 865 866 0
871 869 815 0
871 815 817 0
871 817 872 0
876 872 822 0
822 872 818 0
872 817 818 0
817 816 818 0
821 822 818 0
820 819 824 0
819 878 824 0
819 873 878 0
824 823 820 0
876 822 826 0
876 826 882 0
825 826 821 0
821 826 822 0
878 879 824 0
823 824 879 0
885 823 879 0
828 823 885 0
884 882 826 0
889 884 831 0
831 884 827 0
884 826 827 0
826 825 827 0
830 831 827 0
885 886 828 0
828 886 829 0
832 829 886 0
832 886 892 0
895 890 834 0
834 890 889 0
831 834 889 0
837 834 831 0
835 837 830 0
830 837 831 0
892 893 832 0
832 893 833 0
838 833 893 0
838 893 898 0
903 896 840 0
840 896 895 0
834 840 895 0
843 840 834 0
841 843 836 0
843 837 836 0
843 834 837 0
836 837 835 0
898 899 838 0
838 899 839 0
901 846 844 0
839 901 844 0
899 901 839 0
904 848 846 0
904 846 901 0
848 904 903 0
840 848 903 0
851 848 840 0
849 851 842 0
851 843 842 0
851 840 843 0
842 843 841 0
846 845 844 0
845 846 847 0
847 846 848 0
847 848 850 0
850 848 851 0
850 851 849 0
856 854 852 0
853 858 852 0
852 858 856 0
857 858 853 0
861 859 855 0
854 856 855 0
856 861 855 0
856 862 861 0
864 856 858 0
862 856 864 0
863 864 857 0
857 864 858 0
867 865 860 0
907 867 860 0
907 860 859 0
906 907 859 0
861 906 859 0
868 909 906 0
861 868 906 0
862 868 861 0
870 862 864 0
868 862 870 0
869 870 863 0
863 870 864 0
874 873 866 0
913 874 866 0
913 866 865 0
908 913 865 0
867 908 865 0
908 867 907 0
911 909 868 0
911 868 870 0
911 870 912 0
916 912 875 0
875 912 871 0
912 870 871 0
870 869 871 0
872 877 871 0
871 877 875 0
876 877 872 0
880 878 874 0
874 878 873 0
874 913 918 0
874 918 880 0
916 875 881 0
916 881 921 0
883 875 877 0
881 875 883 0
882 883 876 0
876 883 877 0
880 879 878 0
885 879 880 0
918 885 880 0
923 885 918 0
921 881 887 0
921 887 927 0
888 881 883 0
887 881 888 0
884 891 882 0
891 883 882 0
891 888 883 0
889 891 884 0
923 924 885 0
885 924 886 0
892 886 924 0
892 924 929 0
927 887 894 0
927 894 934 0
897 887 888 0
894 887 897 0
895 897 890 0
897 891 890 0
897 888 891 0
890 891 889 0
929 930 892 0
892 930 893 0
932 900 898 0
893 932 898 0
930 932 893 0
935 902 900 0
935 900 932 0
902 935 934 0
894 902 934 0
905 902 894 0
903 905 896 0
905 897 896 0
905 894 897 0
896 897 895 0
900 899 898 0
899 900 901 0
901 900 902 0
901 902 904 0
904 902 905 0
904 905 903 0
910 907 906 0
909 910 906 0
914 913 908 0
938 914 908 0
938 908 907 0
937 938 907 0
910 937 907 0
939 937 915 0
915 937 911 0
937 910 911 0
910 909 911 0
912 917 911 0
911 917 915 0
916 917 912 0
