#!ascii version in FreeSurfer format (SUMA)
608 1216
-4.326485  -49.741367  -28.019867  0
-4.826485  -49.741367  -28.019867  0
-3.326485  -50.241367  -28.019867  0
-3.826485  -50.241367  -28.019867  0
-4.326485  -50.241367  -28.019867  0
-4.826485  -50.241367  -28.019867  0
-3.826485  -50.741367  -28.019867  0
-4.326485  -50.741367  -28.019867  0
-4.826485  -50.741367  -28.019867  0
-4.326485  -49.491367  -27.769867  0
-4.326485  -49.241367  -27.519867  0
-4.826485  -49.491367  -27.769867  0
-4.826485  -49.241367  -27.519867  0
-3.326485  -49.991367  -27.769867  0
-4.076485  -49.741367  -27.769867  0
-3.826485  -49.991367  -27.769867  0
-3.826485  -49.741367  -27.519867  0
-5.076485  -49.741367  -27.769867  0
-5.326485  -49.741367  -27.519867  0
-3.076485  -50.241367  -27.769867  0
-3.326485  -50.491367  -27.769867  0
-3.326485  -50.241367  -27.519867  0
-5.076485  -50.241367  -27.769867  0
-5.326485  -50.241367  -27.519867  0
-3.576485  -50.741367  -27.769867  0
-3.826485  -50.991367  -27.769867  0
-4.326485  -50.991367  -27.769867  0
-5.076485  -50.741367  -27.769867  0
-4.826485  -50.991367  -27.769867  0
-5.326485  -50.741367  -27.519867  0
-4.326485  -51.241367  -27.519867  0
-4.826485  -51.241367  -27.519867  0
-5.326485  -51.241367  -27.519867  0
-4.326485  -48.991367  -27.269867  0
-4.826485  -48.991367  -27.269867  0
-4.826485  -48.741367  -27.019867  0
-5.326485  -48.741367  -27.019867  0
-4.076485  -49.241367  -27.269867  0
-3.826485  -49.491367  -27.269867  0
-5.076485  -49.241367  -27.269867  0
-5.326485  -49.491367  -27.269867  0
-5.326485  -49.241367  -27.019867  0
-3.576485  -49.741367  -27.269867  0
-5.576485  -49.741367  -27.269867  0
-5.826485  -49.741367  -27.019867  0
-3.576485  -50.241367  -27.269867  0
-5.576485  -50.241367  -27.269867  0
-5.826485  -50.241367  -27.019867  0
-6.326485  -50.241367  -27.019867  0
-3.576485  -50.741367  -27.269867  0
-3.826485  -50.991367  -27.269867  0
-5.576485  -50.741367  -27.269867  0
-5.826485  -50.741367  -27.019867  0
-6.326485  -50.741367  -27.019867  0
-4.076485  -51.241367  -27.269867  0
-3.826485  -51.241367  -27.019867  0
-4.326485  -51.491367  -27.269867  0
-4.826485  -51.491367  -27.269867  0
-5.576485  -51.241367  -27.269867  0
-5.326485  -51.491367  -27.269867  0
-5.826485  -51.241367  -27.019867  0
-6.326485  -51.241367  -27.019867  0
-4.326485  -51.741367  -27.019867  0
-4.826485  -51.741367  -27.019867  0
-5.326485  -51.741367  -27.019867  0
-5.326485  -52.241367  -27.019867  0
-5.826485  -52.241367  -27.019867  0
-6.326485  -52.241367  -27.019867  0
-4.826485  -52.741367  -27.019867  0
-5.326485  -52.741367  -27.019867  0
-5.826485  -52.741367  -27.019867  0
-6.326485  -52.741367  -27.019867  0
-5.326485  -53.241367  -27.019867  0
-5.826485  -53.241367  -27.019867  0
-6.326485  -47.241367  -26.519867  0
-5.826485  -47.741367  -26.519867  0
-6.326485  -47.741367  -26.519867  0
-4.826485  -48.491367  -26.769867  0
-5.326485  -48.491367  -26.769867  0
-5.326485  -48.241367  -26.519867  0
-5.826485  -48.241367  -26.519867  0
-6.326485  -48.241367  -26.519867  0
-4.576485  -48.741367  -26.769867  0
-4.326485  -48.991367  -26.769867  0
-5.576485  -48.741367  -26.769867  0
-5.826485  -48.741367  -26.519867  0
-6.326485  -48.741367  -26.519867  0
-4.076485  -49.241367  -26.769867  0
-3.826485  -49.491367  -26.769867  0
-4.326485  -49.241367  -26.519867  0
-5.576485  -49.241367  -26.769867  0
-5.826485  -49.491367  -26.769867  0
-5.826485  -49.241367  -26.519867  0
-6.326485  -49.241367  -26.519867  0
-3.576485  -49.741367  -26.769867  0
-3.826485  -49.741367  -26.519867  0
-6.076485  -49.741367  -26.769867  0
-6.326485  -49.991367  -26.769867  0
-6.326485  -49.741367  -26.519867  0
-3.576485  -50.241367  -26.769867  0
-3.826485  -50.241367  -26.519867  0
-6.576485  -50.241367  -26.769867  0
-3.576485  -50.741367  -26.769867  0
-6.576485  -50.741367  -26.769867  0
-6.826485  -50.741367  -26.519867  0
-3.576485  -51.241367  -26.769867  0
-3.826485  -51.491367  -26.769867  0
-3.826485  -51.241367  -26.519867  0
-5.826485  -51.491367  -26.769867  0
-6.576485  -51.241367  -26.769867  0
-6.326485  -51.491367  -26.769867  0
-6.826485  -51.241367  -26.519867  0
-4.076485  -51.741367  -26.769867  0
-4.326485  -51.991367  -26.769867  0
-4.826485  -51.991367  -26.769867  0
-5.576485  -51.741367  -26.769867  0
-5.826485  -51.991367  -26.769867  0
-5.826485  -51.741367  -26.519867  0
-6.326485  -51.991367  -26.769867  0
-6.326485  -51.741367  -26.519867  0
-6.826485  -51.741367  -26.519867  0
-5.076485  -52.241367  -26.769867  0
-4.826485  -52.491367  -26.769867  0
-5.326485  -52.241367  -26.519867  0
-6.576485  -52.241367  -26.769867  0
-6.826485  -52.241367  -26.519867  0
-4.576485  -52.741367  -26.769867  0
-4.826485  -52.991367  -26.769867  0
-4.826485  -52.741367  -26.519867  0
-6.576485  -52.741367  -26.769867  0
-6.326485  -52.991367  -26.769867  0
-6.826485  -52.741367  -26.519867  0
-5.076485  -53.241367  -26.769867  0
-5.326485  -53.491367  -26.769867  0
-5.326485  -53.241367  -26.519867  0
-6.076485  -53.241367  -26.769867  0
-5.826485  -53.491367  -26.769867  0
-6.326485  -53.241367  -26.519867  0
-6.326485  -46.991367  -26.269867  0
-6.076485  -47.241367  -26.269867  0
-5.826485  -47.491367  -26.269867  0
-6.576485  -47.241367  -26.269867  0
-6.826485  -47.241367  -26.019867  0
-5.576485  -47.741367  -26.269867  0
-5.326485  -47.991367  -26.269867  0
-6.576485  -47.741367  -26.269867  0
-6.826485  -47.741367  -26.019867  0
-5.076485  -48.241367  -26.269867  0
-4.826485  -48.491367  -26.269867  0
-5.326485  -48.241367  -26.019867  0
-6.576485  -48.241367  -26.269867  0
-6.826485  -48.241367  -26.019867  0
-4.576485  -48.741367  -26.269867  0
-4.826485  -48.741367  -26.019867  0
-6.576485  -48.741367  -26.269867  0
-6.826485  -48.741367  -26.019867  0
-4.576485  -49.241367  -26.269867  0
-4.326485  -49.491367  -26.269867  0
-6.576485  -49.241367  -26.269867  0
-6.826485  -49.241367  -26.019867  0
-4.076485  -49.741367  -26.269867  0
-4.326485  -49.741367  -26.019867  0
-6.576485  -49.741367  -26.269867  0
-6.826485  -49.741367  -26.019867  0
-7.326485  -49.741367  -26.019867  0
-4.076485  -50.241367  -26.269867  0
-3.826485  -50.491367  -26.269867  0
-6.576485  -50.241367  -26.269867  0
-6.826485  -50.491367  -26.269867  0
-6.826485  -50.241367  -26.019867  0
-7.326485  -50.241367  -26.019867  0
-3.576485  -50.741367  -26.269867  0
-3.826485  -50.991367  -26.269867  0
-3.826485  -50.741367  -26.019867  0
-7.076485  -50.741367  -26.269867  0
-7.326485  -50.741367  -26.019867  0
-7.826485  -50.741367  -26.019867  0
-4.076485  -51.241367  -26.269867  0
-7.076485  -51.241367  -26.269867  0
-7.326485  -51.241367  -26.019867  0
-7.826485  -51.241367  -26.019867  0
-4.076485  -51.741367  -26.269867  0
-4.326485  -51.991367  -26.269867  0
-4.826485  -51.991367  -26.269867  0
-5.326485  -51.991367  -26.269867  0
-7.076485  -51.741367  -26.269867  0
-7.326485  -51.741367  -26.019867  0
-7.826485  -51.741367  -26.019867  0
-5.576485  -52.241367  -26.269867  0
-5.326485  -52.491367  -26.269867  0
-5.826485  -52.241367  -26.019867  0
-7.076485  -52.241367  -26.269867  0
-7.326485  -52.241367  -26.019867  0
-7.826485  -52.241367  -26.019867  0
-5.076485  -52.741367  -26.269867  0
-5.326485  -52.991367  -26.269867  0
-5.326485  -52.741367  -26.019867  0
-7.076485  -52.741367  -26.269867  0
-6.826485  -52.991367  -26.269867  0
-7.326485  -52.741367  -26.019867  0
-5.576485  -53.241367  -26.269867  0
-5.826485  -53.491367  -26.269867  0
-5.826485  -53.241367  -26.019867  0
-6.576485  -53.241367  -26.269867  0
-6.326485  -53.491367  -26.269867  0
-6.826485  -53.241367  -26.019867  0
-6.326485  -46.991367  -25.769867  0
-6.826485  -46.991367  -25.769867  0
-6.076485  -47.241367  -25.769867  0
-5.826485  -47.491367  -25.769867  0
-6.326485  -47.241367  -25.519867  0
-7.076485  -47.241367  -25.769867  0
-7.326485  -47.241367  -25.519867  0
-7.826485  -47.241367  -25.519867  0
-5.576485  -47.741367  -25.769867  0
-5.826485  -47.741367  -25.519867  0
-7.076485  -47.741367  -25.769867  0
-7.326485  -47.741367  -25.519867  0
-7.826485  -47.741367  -25.519867  0
-5.576485  -48.241367  -25.769867  0
-5.326485  -48.491367  -25.769867  0
-7.076485  -48.241367  -25.769867  0
-7.326485  -48.241367  -25.519867  0
-7.826485  -48.241367  -25.519867  0
-5.076485  -48.741367  -25.769867  0
-4.826485  -48.991367  -25.769867  0
-7.076485  -48.741367  -25.769867  0
-7.326485  -48.741367  -25.519867  0
-7.826485  -48.741367  -25.519867  0
-4.576485  -49.241367  -25.769867  0
-4.826485  -49.241367  -25.519867  0
-7.076485  -49.241367  -25.769867  0
-7.326485  -49.491367  -25.769867  0
-7.326485  -49.241367  -25.519867  0
-7.826485  -49.241367  -25.519867  0
-4.576485  -49.741367  -25.769867  0
-4.326485  -49.991367  -25.769867  0
-4.826485  -49.741367  -25.519867  0
-7.576485  -49.741367  -25.769867  0
-7.826485  -49.741367  -25.519867  0
-8.326485  -49.741367  -25.519867  0
-4.076485  -50.241367  -25.769867  0
-4.326485  -50.241367  -25.519867  0
-7.576485  -50.241367  -25.769867  0
-7.826485  -50.491367  -25.769867  0
-7.826485  -50.241367  -25.519867  0
-8.326485  -50.241367  -25.519867  0
-8.826485  -50.241367  -25.519867  0
-4.076485  -50.741367  -25.769867  0
-4.326485  -50.741367  -25.519867  0
-8.076485  -50.741367  -25.769867  0
-8.326485  -50.741367  -25.519867  0
-8.826485  -50.741367  -25.519867  0
-4.076485  -51.241367  -25.769867  0
-4.326485  -51.241367  -25.519867  0
-8.076485  -51.241367  -25.769867  0
-8.326485  -51.241367  -25.519867  0
-8.826485  -51.241367  -25.519867  0
-4.076485  -51.741367  -25.769867  0
-4.326485  -51.991367  -25.769867  0
-4.326485  -51.741367  -25.519867  0
-4.826485  -51.991367  -25.769867  0
-4.826485  -51.741367  -25.519867  0
-5.326485  -51.991367  -25.769867  0
-5.826485  -51.991367  -25.769867  0
-8.076485  -51.741367  -25.769867  0
-8.326485  -51.741367  -25.519867  0
-8.826485  -51.741367  -25.519867  0
-6.076485  -52.241367  -25.769867  0
-5.826485  -52.491367  -25.769867  0
-6.326485  -52.241367  -25.519867  0
-8.076485  -52.241367  -25.769867  0
-7.826485  -52.491367  -25.769867  0
-8.326485  -52.241367  -25.519867  0
-5.576485  -52.741367  -25.769867  0
-5.826485  -52.991367  -25.769867  0
-5.826485  -52.741367  -25.519867  0
-7.576485  -52.741367  -25.769867  0
-7.326485  -52.991367  -25.769867  0
-7.826485  -52.741367  -25.519867  0
-6.076485  -53.241367  -25.769867  0
-6.326485  -53.491367  -25.769867  0
-6.326485  -53.241367  -25.519867  0
-7.076485  -53.241367  -25.769867  0
-6.826485  -53.491367  -25.769867  0
-6.826485  -53.241367  -25.519867  0
-7.326485  -53.241367  -25.519867  0
-6.826485  -46.991367  -25.269867  0
-7.326485  -46.991367  -25.269867  0
-7.826485  -46.991367  -25.269867  0
-6.576485  -47.241367  -25.269867  0
-6.326485  -47.491367  -25.269867  0
-6.826485  -47.241367  -25.019867  0
-7.326485  -47.241367  -25.019867  0
-8.076485  -47.241367  -25.269867  0
-7.826485  -47.241367  -25.019867  0
-8.326485  -47.241367  -25.019867  0
-8.826485  -47.241367  -25.019867  0
-6.076485  -47.741367  -25.269867  0
-5.826485  -47.991367  -25.269867  0
-6.326485  -47.741367  -25.019867  0
-8.076485  -47.741367  -25.269867  0
-8.326485  -47.741367  -25.019867  0
-8.826485  -47.741367  -25.019867  0
-5.576485  -48.241367  -25.269867  0
-5.326485  -48.491367  -25.269867  0
-5.826485  -48.241367  -25.019867  0
-8.076485  -48.241367  -25.269867  0
-8.326485  -48.241367  -25.019867  0
-8.826485  -48.241367  -25.019867  0
-5.076485  -48.741367  -25.269867  0
-5.326485  -48.741367  -25.019867  0
-8.076485  -48.741367  -25.269867  0
-8.326485  -48.741367  -25.019867  0
-8.826485  -48.741367  -25.019867  0
-5.076485  -49.241367  -25.269867  0
-5.326485  -49.241367  -25.019867  0
-8.076485  -49.241367  -25.269867  0
-8.326485  -49.491367  -25.269867  0
-8.326485  -49.241367  -25.019867  0
-8.826485  -49.241367  -25.019867  0
-5.076485  -49.741367  -25.269867  0
-4.826485  -49.991367  -25.269867  0
-5.326485  -49.741367  -25.019867  0
-8.576485  -49.741367  -25.269867  0
-8.826485  -49.991367  -25.269867  0
-8.826485  -49.741367  -25.019867  0
-4.576485  -50.241367  -25.269867  0
-4.826485  -50.241367  -25.019867  0
-5.326485  -50.241367  -25.019867  0
-9.076485  -50.241367  -25.269867  0
-4.576485  -50.741367  -25.269867  0
-4.826485  -50.741367  -25.019867  0
-5.326485  -50.741367  -25.019867  0
-9.076485  -50.741367  -25.269867  0
-4.576485  -51.241367  -25.269867  0
-4.826485  -51.491367  -25.269867  0
-4.826485  -51.241367  -25.019867  0
-5.326485  -51.241367  -25.019867  0
-9.076485  -51.241367  -25.269867  0
-5.076485  -51.741367  -25.269867  0
-5.326485  -51.991367  -25.269867  0
-5.326485  -51.741367  -25.019867  0
-5.826485  -51.991367  -25.269867  0
-6.326485  -51.991367  -25.269867  0
-9.076485  -51.741367  -25.269867  0
-8.826485  -51.991367  -25.269867  0
-6.576485  -52.241367  -25.269867  0
-6.326485  -52.491367  -25.269867  0
-6.826485  -52.241367  -25.019867  0
-8.576485  -52.241367  -25.269867  0
-8.326485  -52.491367  -25.269867  0
-8.826485  -52.241367  -25.019867  0
-6.076485  -52.741367  -25.269867  0
-6.326485  -52.991367  -25.269867  0
-6.326485  -52.741367  -25.019867  0
-6.826485  -52.991367  -25.269867  0
-6.826485  -52.741367  -25.019867  0
-8.076485  -52.741367  -25.269867  0
-7.826485  -52.991367  -25.269867  0
-8.326485  -52.741367  -25.019867  0
-7.076485  -53.241367  -25.269867  0
-7.576485  -53.241367  -25.269867  0
-7.326485  -53.491367  -25.269867  0
-7.326485  -53.241367  -25.019867  0
-8.326485  -46.991367  -24.769867  0
-8.826485  -46.991367  -24.769867  0
-6.826485  -47.491367  -24.769867  0
-7.326485  -47.491367  -24.769867  0
-8.076485  -47.241367  -24.769867  0
-7.826485  -47.491367  -24.769867  0
-9.076485  -47.241367  -24.769867  0
-6.576485  -47.741367  -24.769867  0
-6.326485  -47.991367  -24.769867  0
-6.826485  -47.741367  -24.519867  0
-7.326485  -47.741367  -24.519867  0
-7.826485  -47.741367  -24.519867  0
-9.076485  -47.741367  -24.769867  0
-6.076485  -48.241367  -24.769867  0
-5.826485  -48.491367  -24.769867  0
-6.326485  -48.241367  -24.519867  0
-9.076485  -48.241367  -24.769867  0
-9.326485  -48.241367  -24.519867  0
-5.576485  -48.741367  -24.769867  0
-5.826485  -48.741367  -24.519867  0
-9.076485  -48.741367  -24.769867  0
-9.326485  -48.741367  -24.519867  0
-5.576485  -49.241367  -24.769867  0
-5.826485  -49.241367  -24.519867  0
-9.076485  -49.241367  -24.769867  0
-9.326485  -49.241367  -24.519867  0
-5.576485  -49.741367  -24.769867  0
-5.826485  -49.741367  -24.519867  0
-9.076485  -49.741367  -24.769867  0
-9.326485  -49.741367  -24.519867  0
-5.576485  -50.241367  -24.769867  0
-5.826485  -50.241367  -24.519867  0
-9.076485  -50.241367  -24.769867  0
-9.326485  -50.241367  -24.519867  0
-5.576485  -50.741367  -24.769867  0
-5.826485  -50.741367  -24.519867  0
-9.076485  -50.741367  -24.769867  0
-9.326485  -50.741367  -24.519867  0
-5.576485  -51.241367  -24.769867  0
-5.826485  -51.241367  -24.519867  0
-6.326485  -51.241367  -24.519867  0
-9.076485  -51.241367  -24.769867  0
-9.326485  -51.241367  -24.519867  0
-5.576485  -51.741367  -24.769867  0
-5.826485  -51.991367  -24.769867  0
-5.826485  -51.741367  -24.519867  0
-6.326485  -51.991367  -24.769867  0
-6.826485  -51.991367  -24.769867  0
-9.076485  -51.741367  -24.769867  0
-7.076485  -52.241367  -24.769867  0
-7.326485  -52.241367  -24.519867  0
-9.076485  -52.241367  -24.769867  0
-8.826485  -52.491367  -24.769867  0
-7.076485  -52.741367  -24.769867  0
-7.326485  -52.991367  -24.769867  0
-7.326485  -52.741367  -24.519867  0
-7.826485  -52.991367  -24.769867  0
-8.576485  -52.741367  -24.769867  0
-8.326485  -52.991367  -24.769867  0
-8.326485  -46.991367  -24.269867  0
-8.826485  -46.991367  -24.269867  0
-8.076485  -47.241367  -24.269867  0
-8.326485  -47.241367  -24.019867  0
-9.076485  -47.241367  -24.269867  0
-8.826485  -47.241367  -24.019867  0
-6.826485  -47.991367  -24.269867  0
-7.326485  -47.991367  -24.269867  0
-8.076485  -47.741367  -24.269867  0
-7.826485  -47.991367  -24.269867  0
-8.326485  -47.741367  -24.019867  0
-9.076485  -47.741367  -24.269867  0
-8.826485  -47.741367  -24.019867  0
-9.326485  -47.991367  -24.269867  0
-6.576485  -48.241367  -24.269867  0
-6.326485  -48.491367  -24.269867  0
-6.826485  -48.241367  -24.019867  0
-9.576485  -48.241367  -24.269867  0
-6.076485  -48.741367  -24.269867  0
-6.326485  -48.741367  -24.019867  0
-6.826485  -48.741367  -24.019867  0
-9.576485  -48.741367  -24.269867  0
-6.076485  -49.241367  -24.269867  0
-6.326485  -49.241367  -24.019867  0
-6.826485  -49.241367  -24.019867  0
-9.576485  -49.241367  -24.269867  0
-9.826485  -49.241367  -24.019867  0
-6.076485  -49.741367  -24.269867  0
-6.326485  -49.741367  -24.019867  0
-9.576485  -49.741367  -24.269867  0
-9.826485  -49.741367  -24.019867  0
-6.076485  -50.241367  -24.269867  0
-6.326485  -50.241367  -24.019867  0
-9.576485  -50.241367  -24.269867  0
-6.076485  -50.741367  -24.269867  0
-6.326485  -50.991367  -24.269867  0
-6.326485  -50.741367  -24.019867  0
-9.576485  -50.741367  -24.269867  0
-6.576485  -51.241367  -24.269867  0
-6.326485  -51.491367  -24.269867  0
-6.826485  -51.241367  -24.019867  0
-9.576485  -51.241367  -24.269867  0
-9.326485  -51.491367  -24.269867  0
-6.076485  -51.741367  -24.269867  0
-6.326485  -51.991367  -24.269867  0
-6.326485  -51.741367  -24.019867  0
-6.826485  -51.991367  -24.269867  0
-6.826485  -51.741367  -24.019867  0
-7.326485  -51.991367  -24.269867  0
-9.076485  -51.741367  -24.269867  0
-9.326485  -51.741367  -24.019867  0
-7.576485  -52.241367  -24.269867  0
-7.826485  -52.241367  -24.019867  0
-8.326485  -52.241367  -24.019867  0
-9.076485  -52.241367  -24.269867  0
-8.826485  -52.491367  -24.269867  0
-7.576485  -52.741367  -24.269867  0
-7.826485  -52.991367  -24.269867  0
-7.826485  -52.741367  -24.019867  0
-8.576485  -52.741367  -24.269867  0
-8.326485  -52.991367  -24.269867  0
-8.326485  -52.741367  -24.019867  0
-7.326485  -47.991367  -23.769867  0
-7.826485  -47.991367  -23.769867  0
-8.326485  -47.991367  -23.769867  0
-8.826485  -47.991367  -23.769867  0
-9.326485  -47.991367  -23.769867  0
-7.076485  -48.241367  -23.769867  0
-7.326485  -48.241367  -23.519867  0
-9.576485  -48.241367  -23.769867  0
-7.076485  -48.741367  -23.769867  0
-7.326485  -48.741367  -23.519867  0
-9.576485  -48.741367  -23.769867  0
-9.826485  -48.991367  -23.769867  0
-7.076485  -49.241367  -23.769867  0
-6.826485  -49.491367  -23.769867  0
-7.326485  -49.241367  -23.519867  0
-10.076485  -49.241367  -23.769867  0
-9.826485  -49.241367  -23.519867  0
-6.576485  -49.741367  -23.769867  0
-6.826485  -49.741367  -23.519867  0
-10.076485  -49.741367  -23.769867  0
-9.826485  -49.991367  -23.769867  0
-9.826485  -49.741367  -23.519867  0
-6.576485  -50.241367  -23.769867  0
-6.826485  -50.241367  -23.519867  0
-7.326485  -50.241367  -23.519867  0
-9.576485  -50.241367  -23.769867  0
-6.576485  -50.741367  -23.769867  0
-6.826485  -50.991367  -23.769867  0
-6.826485  -50.741367  -23.519867  0
-7.326485  -50.741367  -23.519867  0
-9.576485  -50.741367  -23.769867  0
-7.076485  -51.241367  -23.769867  0
-7.326485  -51.241367  -23.519867  0
-9.576485  -51.241367  -23.769867  0
-7.076485  -51.741367  -23.769867  0
-7.326485  -51.991367  -23.769867  0
-7.326485  -51.741367  -23.519867  0
-7.826485  -51.991367  -23.769867  0
-8.326485  -51.991367  -23.769867  0
-9.576485  -51.741367  -23.769867  0
-9.326485  -51.991367  -23.769867  0
-8.576485  -52.241367  -23.769867  0
-9.076485  -52.241367  -23.769867  0
-8.826485  -52.491367  -23.769867  0
-8.826485  -52.241367  -23.519867  0
-7.826485  -47.991367  -23.269867  0
-8.326485  -47.991367  -23.269867  0
-8.826485  -47.991367  -23.269867  0
-9.326485  -47.991367  -23.269867  0
-7.576485  -48.241367  -23.269867  0
-7.826485  -48.241367  -23.019867  0
-9.576485  -48.241367  -23.269867  0
-7.576485  -48.741367  -23.269867  0
-7.826485  -48.741367  -23.019867  0
-9.576485  -48.741367  -23.269867  0
-7.576485  -49.241367  -23.269867  0
-7.326485  -49.491367  -23.269867  0
-7.826485  -49.241367  -23.019867  0
-9.576485  -49.241367  -23.269867  0
-7.076485  -49.741367  -23.269867  0
-7.326485  -49.991367  -23.269867  0
-7.326485  -49.741367  -23.019867  0
-7.826485  -49.741367  -23.019867  0
-9.576485  -49.741367  -23.269867  0
-7.576485  -50.241367  -23.269867  0
-7.826485  -50.241367  -23.019867  0
-9.576485  -50.241367  -23.269867  0
-7.576485  -50.741367  -23.269867  0
-7.826485  -50.741367  -23.019867  0
-8.326485  -50.741367  -23.019867  0
-9.576485  -50.741367  -23.269867  0
-7.576485  -51.241367  -23.269867  0
-7.826485  -51.241367  -23.019867  0
-8.326485  -51.241367  -23.019867  0
-8.826485  -51.241367  -23.019867  0
-9.576485  -51.241367  -23.269867  0
-9.326485  -51.241367  -23.019867  0
-7.576485  -51.741367  -23.269867  0
-7.826485  -51.991367  -23.269867  0
-7.826485  -51.741367  -23.019867  0
-8.326485  -51.991367  -23.269867  0
-8.326485  -51.741367  -23.019867  0
-8.826485  -51.991367  -23.269867  0
-8.826485  -51.741367  -23.019867  0
-9.576485  -51.741367  -23.269867  0
-9.326485  -51.991367  -23.269867  0
-9.326485  -51.741367  -23.019867  0
-8.326485  -47.991367  -22.769867  0
-8.826485  -47.991367  -22.769867  0
-9.326485  -47.991367  -22.769867  0
-8.076485  -48.241367  -22.769867  0
-8.326485  -48.241367  -22.519867  0
-8.826485  -48.241367  -22.519867  0
-9.576485  -48.241367  -22.769867  0
-9.326485  -48.241367  -22.519867  0
-8.076485  -48.741367  -22.769867  0
-8.326485  -48.741367  -22.519867  0
-8.826485  -48.741367  -22.519867  0
-9.576485  -48.741367  -22.769867  0
-9.326485  -48.741367  -22.519867  0
-8.076485  -49.241367  -22.769867  0
-8.326485  -49.241367  -22.519867  0
-8.826485  -49.241367  -22.519867  0
-9.576485  -49.241367  -22.769867  0
-9.326485  -49.241367  -22.519867  0
-8.076485  -49.741367  -22.769867  0
-8.326485  -49.741367  -22.519867  0
-8.826485  -49.741367  -22.519867  0
-9.576485  -49.741367  -22.769867  0
-9.326485  -49.741367  -22.519867  0
-8.076485  -50.241367  -22.769867  0
-8.326485  -50.491367  -22.769867  0
-8.326485  -50.241367  -22.519867  0
-8.826485  -50.241367  -22.519867  0
-9.576485  -50.241367  -22.769867  0
-9.326485  -50.241367  -22.519867  0
-8.576485  -50.741367  -22.769867  0
-8.826485  -50.991367  -22.769867  0
-8.826485  -50.741367  -22.519867  0
-9.576485  -50.741367  -22.769867  0
-9.326485  -50.991367  -22.769867  0
-9.326485  -50.741367  -22.519867  0
9 14 0 0
1 11 0 0
0 11 9 0
1 17 11 0
13 19 2 0
3 15 2 0
2 15 13 0
15 3 14 0
3 0 14 0
3 4 0 0
0 5 1 0
0 4 5 0
17 1 22 0
22 1 5 0
19 20 2 0
24 6 20 0
6 2 20 0
6 3 2 0
3 7 4 0
3 6 7 0
4 8 5 0
4 7 8 0
22 5 27 0
27 5 8 0
24 25 6 0
6 25 7 0
7 25 26 0
7 26 8 0
8 26 28 0
8 28 27 0
33 37 10 0
12 34 10 0
10 34 33 0
12 39 34 0
38 42 16 0
38 16 37 0
37 16 10 0
16 14 10 0
14 9 10 0
10 9 11 0
10 11 12 0
18 40 17 0
17 40 11 0
40 39 11 0
39 12 11 0
18 43 40 0
21 19 13 0
42 45 16 0
45 13 16 0
13 15 16 0
13 45 21 0
16 15 14 0
22 23 18 0
22 18 17 0
43 18 46 0
46 18 23 0
21 20 19 0
24 20 21 0
45 24 21 0
49 24 45 0
27 29 23 0
27 23 22 0
46 23 51 0
51 23 29 0
49 50 24 0
24 50 25 0
50 54 30 0
26 50 30 0
25 50 26 0
31 28 26 0
31 26 30 0
29 27 28 0
31 29 28 0
32 29 31 0
51 29 58 0
58 29 32 0
54 56 30 0
30 56 31 0
31 56 57 0
31 57 32 0
32 57 59 0
32 59 58 0
77 82 35 0
36 78 35 0
35 78 77 0
36 84 78 0
83 87 33 0
33 87 37 0
34 35 82 0
83 34 82 0
33 34 83 0
35 34 39 0
41 35 39 0
36 35 41 0
84 36 90 0
90 36 41 0
88 94 38 0
38 94 42 0
38 37 87 0
38 87 88 0
40 41 39 0
44 91 43 0
43 91 40 0
91 90 40 0
90 41 40 0
44 96 91 0
94 45 42 0
99 45 94 0
46 47 44 0
46 44 43 0
96 44 97 0
44 48 97 0
44 47 48 0
48 101 97 0
99 49 45 0
102 49 99 0
51 52 47 0
51 47 46 0
47 53 48 0
47 52 53 0
101 48 103 0
103 48 53 0
50 49 55 0
49 105 55 0
49 102 105 0
55 54 50 0
58 60 52 0
58 52 51 0
52 61 53 0
52 60 61 0
103 53 109 0
109 53 61 0
105 106 55 0
106 112 62 0
106 62 56 0
55 106 56 0
54 55 56 0
63 57 56 0
63 56 62 0
64 59 57 0
64 57 63 0
64 115 59 0
59 115 58 0
115 108 58 0
108 60 58 0
60 108 61 0
61 108 110 0
61 110 109 0
112 113 62 0
62 113 63 0
63 113 114 0
121 65 114 0
65 63 114 0
65 64 63 0
115 64 116 0
64 66 116 0
64 65 66 0
67 118 66 0
66 118 116 0
67 124 118 0
122 126 68 0
122 68 121 0
68 65 121 0
68 69 65 0
65 70 66 0
65 69 70 0
66 71 67 0
66 70 71 0
124 67 129 0
129 67 71 0
126 127 68 0
132 72 127 0
72 68 127 0
72 69 68 0
69 73 70 0
69 72 73 0
130 71 135 0
71 73 135 0
71 70 73 0
71 130 129 0
132 133 72 0
72 133 73 0
73 133 136 0
73 136 135 0
138 139 74 0
74 141 138 0
140 143 75 0
140 75 139 0
75 74 139 0
75 76 74 0
141 74 145 0
145 74 76 0
144 147 79 0
144 79 143 0
79 75 143 0
79 80 75 0
75 81 76 0
75 80 81 0
145 76 150 0
150 76 81 0
148 152 77 0
77 152 82 0
78 79 147 0
148 78 147 0
77 78 148 0
79 78 84 0
85 79 84 0
80 79 85 0
80 86 81 0
80 85 86 0
150 81 154 0
154 81 86 0
89 87 83 0
156 89 83 0
82 156 83 0
152 156 82 0
90 92 85 0
90 85 84 0
85 93 86 0
85 92 93 0
154 86 158 0
158 86 93 0
95 94 88 0
160 95 88 0
160 88 87 0
157 160 87 0
89 157 87 0
157 89 156 0
91 92 90 0
92 91 96 0
98 92 96 0
93 92 98 0
158 93 162 0
162 93 98 0
100 99 95 0
95 99 94 0
95 160 165 0
95 165 100 0
97 98 96 0
97 101 98 0
101 162 98 0
101 167 162 0
166 171 100 0
171 99 100 0
171 102 99 0
166 100 165 0
103 104 168 0
167 103 168 0
101 103 167 0
104 174 168 0
107 105 172 0
105 171 172 0
105 102 171 0
177 107 172 0
109 111 104 0
109 104 103 0
174 104 178 0
178 104 111 0
107 106 105 0
112 106 107 0
177 112 107 0
181 112 177 0
115 117 108 0
119 110 108 0
119 108 117 0
111 109 110 0
119 111 110 0
120 111 119 0
178 111 185 0
185 111 120 0
181 182 112 0
112 182 113 0
113 183 114 0
182 183 113 0
184 123 121 0
114 184 121 0
183 184 114 0
117 116 115 0
188 184 123 0
117 116 118 0
117 118 119 0
119 118 124 0
125 119 124 0
120 119 125 0
185 120 191 0
191 120 125 0
128 126 122 0
194 128 122 0
194 122 121 0
189 194 121 0
123 189 121 0
189 123 188 0
129 131 125 0
129 125 124 0
191 125 197 0
197 125 131 0
128 127 126 0
195 134 132 0
195 132 127 0
194 195 127 0
128 194 127 0
200 134 195 0
135 137 130 0
137 203 130 0
130 203 129 0
203 198 129 0
198 131 129 0
131 198 197 0
134 133 132 0
200 201 134 0
201 133 134 0
201 136 133 0
135 136 137 0
136 204 137 0
136 201 204 0
137 204 203 0
206 208 138 0
138 208 139 0
142 207 141 0
207 138 141 0
207 206 138 0
142 211 207 0
209 214 140 0
140 214 143 0
140 139 208 0
140 208 209 0
145 146 142 0
145 142 141 0
211 142 216 0
216 142 146 0
149 147 144 0
219 149 144 0
143 219 144 0
214 219 143 0
150 151 146 0
150 146 145 0
216 146 221 0
221 146 151 0
153 152 148 0
224 153 148 0
224 148 147 0
220 224 147 0
149 220 147 0
220 149 219 0
154 155 151 0
154 151 150 0
221 151 226 0
226 151 155 0
225 229 153 0
229 152 153 0
229 156 152 0
225 153 224 0
158 159 155 0
158 155 154 0
226 155 231 0
231 155 159 0
161 160 157 0
235 161 157 0
156 235 157 0
229 235 156 0
162 163 159 0
162 159 158 0
231 159 232 0
159 164 232 0
159 163 164 0
164 238 232 0
236 241 161 0
241 160 161 0
241 165 160 0
236 161 235 0
167 169 163 0
167 163 162 0
163 170 164 0
163 169 170 0
238 164 243 0
243 164 170 0
173 171 166 0
248 173 166 0
165 248 166 0
241 248 165 0
168 169 167 0
169 168 174 0
175 169 174 0
170 169 175 0
243 170 244 0
170 176 244 0
170 175 176 0
176 250 244 0
173 172 171 0
177 172 173 0
248 177 173 0
253 177 248 0
178 179 175 0
178 175 174 0
175 180 176 0
175 179 180 0
250 176 255 0
255 176 180 0
253 181 177 0
258 181 253 0
185 186 179 0
185 179 178 0
179 187 180 0
179 186 187 0
255 180 265 0
265 180 187 0
258 259 181 0
181 259 182 0
182 261 183 0
259 261 182 0
183 263 184 0
261 263 183 0
264 190 188 0
184 264 188 0
263 264 184 0
268 190 264 0
191 192 186 0
191 186 185 0
186 193 187 0
186 192 193 0
265 187 271 0
271 187 193 0
196 194 189 0
274 196 189 0
274 189 188 0
269 274 188 0
190 269 188 0
269 190 268 0
197 199 192 0
197 192 191 0
272 193 277 0
193 199 277 0
193 192 199 0
193 272 271 0
196 195 194 0
275 202 200 0
275 200 195 0
274 275 195 0
196 274 195 0
280 202 275 0
203 205 198 0
205 283 198 0
198 283 197 0
283 278 197 0
278 199 197 0
199 278 277 0
202 201 200 0
280 281 202 0
281 201 202 0
281 204 201 0
203 204 205 0
204 284 205 0
204 281 284 0
205 284 283 0
210 208 206 0
210 206 290 0
206 287 290 0
206 207 287 0
212 288 211 0
288 207 211 0
288 287 207 0
213 289 212 0
212 289 288 0
213 294 289 0
215 214 209 0
298 215 209 0
298 209 208 0
291 298 208 0
210 291 208 0
291 210 290 0
216 217 212 0
216 212 211 0
212 218 213 0
212 217 218 0
294 213 301 0
301 213 218 0
299 304 215 0
304 214 215 0
304 219 214 0
299 215 298 0
221 222 217 0
221 217 216 0
217 223 218 0
217 222 223 0
301 218 307 0
307 218 223 0
305 310 220 0
220 310 224 0
220 219 304 0
220 304 305 0
226 227 222 0
226 222 221 0
222 228 223 0
222 227 228 0
307 223 312 0
312 223 228 0
230 229 225 0
315 230 225 0
224 315 225 0
310 315 224 0
231 233 227 0
231 227 226 0
227 234 228 0
227 233 234 0
312 228 317 0
317 228 234 0
237 235 230 0
230 235 229 0
230 315 321 0
230 321 237 0
232 233 231 0
233 232 238 0
239 233 238 0
234 233 239 0
317 234 318 0
234 240 318 0
234 239 240 0
240 324 318 0
242 241 236 0
327 242 236 0
327 236 235 0
322 327 235 0
237 322 235 0
322 237 321 0
243 245 239 0
243 239 238 0
239 246 240 0
239 245 246 0
324 240 325 0
240 247 325 0
240 246 247 0
247 330 325 0
249 248 242 0
242 248 241 0
242 327 331 0
242 331 249 0
244 245 243 0
245 244 250 0
251 245 250 0
246 245 251 0
246 252 247 0
246 251 252 0
330 247 334 0
334 247 252 0
254 253 249 0
249 253 248 0
249 331 335 0
249 335 254 0
255 256 251 0
255 251 250 0
251 257 252 0
251 256 257 0
334 252 339 0
339 252 257 0
260 258 254 0
254 258 253 0
254 335 336 0
262 254 336 0
260 254 262 0
340 262 336 0
265 266 256 0
265 256 255 0
256 267 257 0
256 266 267 0
339 257 345 0
345 257 267 0
260 259 258 0
259 260 261 0
261 260 262 0
340 341 262 0
341 261 262 0
341 263 261 0
263 343 264 0
341 343 263 0
344 270 268 0
264 344 268 0
343 344 264 0
347 270 344 0
271 273 266 0
271 266 265 0
346 267 350 0
267 273 350 0
267 266 273 0
267 346 345 0
276 274 269 0
353 276 269 0
353 269 268 0
348 353 268 0
270 348 268 0
348 270 347 0
277 279 272 0
279 358 272 0
272 358 271 0
358 351 271 0
351 273 271 0
273 351 350 0
276 275 274 0
354 282 280 0
354 280 275 0
353 354 275 0
276 353 275 0
356 285 282 0
356 282 354 0
356 283 285 0
356 278 283 0
356 361 286 0
278 356 286 0
286 362 278 0
278 362 277 0
362 359 277 0
359 279 277 0
279 359 358 0
282 281 280 0
281 282 284 0
284 282 285 0
284 361 285 0
284 363 361 0
284 283 286 0
363 284 286 0
286 363 362 0
292 290 287 0
288 293 287 0
287 293 292 0
289 295 288 0
288 295 293 0
365 295 369 0
365 289 295 0
365 296 294 0
289 365 294 0
297 366 296 0
296 366 365 0
297 371 366 0
300 298 291 0
372 300 291 0
372 291 290 0
367 372 290 0
292 367 290 0
367 292 293 0
367 293 368 0
368 293 295 0
368 295 370 0
301 295 294 0
370 301 295 0
302 370 301 0
369 302 370 0
296 369 302 0
296 303 297 0
296 302 303 0
371 297 377 0
377 297 303 0
306 304 299 0
378 306 299 0
378 299 298 0
373 378 298 0
300 373 298 0
373 300 372 0
307 308 302 0
307 302 301 0
302 309 303 0
302 308 309 0
377 303 381 0
381 303 309 0
311 310 305 0
383 311 305 0
383 305 304 0
379 383 304 0
306 379 304 0
379 306 378 0
312 313 308 0
312 308 307 0
308 314 309 0
308 313 314 0
381 309 385 0
385 309 314 0
316 315 311 0
311 315 310 0
311 383 387 0
311 387 316 0
317 319 313 0
317 313 312 0
313 320 314 0
313 319 320 0
385 314 389 0
389 314 320 0
323 321 316 0
316 321 315 0
316 387 391 0
316 391 323 0
318 319 317 0
319 318 324 0
326 319 324 0
320 319 326 0
389 320 393 0
393 320 326 0
328 327 322 0
321 323 322 0
323 328 322 0
323 329 328 0
323 391 395 0
323 395 329 0
325 326 324 0
325 330 326 0
330 393 326 0
330 397 393 0
332 331 328 0
328 331 327 0
333 328 329 0
332 328 333 0
329 395 399 0
329 399 333 0
334 397 330 0
334 401 397 0
337 335 332 0
332 335 331 0
338 332 333 0
337 332 338 0
333 399 403 0
333 403 338 0
339 401 334 0
339 406 401 0
337 336 335 0
336 337 340 0
337 342 340 0
337 338 342 0
338 403 408 0
338 408 342 0
345 406 339 0
345 413 406 0
342 341 340 0
408 409 342 0
409 341 342 0
409 343 341 0
343 411 344 0
409 411 343 0
412 349 347 0
344 412 347 0
411 412 344 0
414 349 412 0
350 352 346 0
352 416 346 0
416 345 346 0
416 413 345 0
355 353 348 0
347 349 348 0
349 355 348 0
349 357 355 0
349 414 418 0
349 418 357 0
358 360 351 0
360 422 351 0
351 422 350 0
422 417 350 0
417 352 350 0
352 417 416 0
355 354 353 0
354 355 356 0
356 355 357 0
419 364 361 0
419 361 356 0
418 419 356 0
357 418 356 0
359 362 364 0
419 359 364 0
421 359 419 0
358 359 360 0
359 423 360 0
359 421 423 0
360 423 422 0
364 363 361 0
363 364 362 0
424 426 365 0
365 426 369 0
425 365 366 0
425 424 365 0
366 371 425 0
425 371 428 0
374 372 367 0
368 375 367 0
367 375 374 0
370 376 368 0
368 376 375 0
432 376 370 0
369 432 370 0
426 432 369 0
377 428 371 0
377 435 428 0
380 378 373 0
438 380 373 0
438 373 372 0
430 438 372 0
374 430 372 0
430 374 375 0
430 375 431 0
431 375 376 0
431 376 433 0
433 376 432 0
381 382 437 0
435 381 437 0
377 381 435 0
382 441 437 0
384 383 379 0
442 384 379 0
442 379 378 0
439 442 378 0
380 439 378 0
439 380 438 0
385 386 382 0
385 382 381 0
441 382 445 0
445 382 386 0
388 387 384 0
384 387 383 0
384 442 446 0
384 446 388 0
389 390 386 0
389 386 385 0
445 386 449 0
449 386 390 0
392 391 388 0
388 391 387 0
388 446 451 0
388 451 392 0
393 394 390 0
393 390 389 0
449 390 453 0
453 390 394 0
396 395 392 0
392 395 391 0
392 451 455 0
392 455 396 0
397 398 394 0
397 394 393 0
453 394 457 0
457 394 398 0
400 399 396 0
396 399 395 0
396 455 458 0
396 458 400 0
401 402 398 0
401 398 397 0
457 398 461 0
461 398 402 0
404 403 400 0
400 403 399 0
400 458 459 0
405 400 459 0
404 400 405 0
462 405 459 0
406 407 402 0
406 402 401 0
461 402 465 0
465 402 407 0
410 408 404 0
404 408 403 0
405 463 467 0
410 405 467 0
404 405 410 0
463 405 462 0
473 466 407 0
406 473 407 0
413 473 406 0
407 466 465 0
410 409 408 0
467 468 410 0
468 409 410 0
468 411 409 0
411 470 412 0
468 470 411 0
472 415 414 0
412 472 414 0
470 472 412 0
475 415 472 0
416 473 413 0
416 478 473 0
420 418 415 0
415 418 414 0
415 475 480 0
415 480 420 0
483 479 417 0
483 417 422 0
416 417 478 0
478 417 479 0
420 419 418 0
480 481 420 0
481 419 420 0
481 421 419 0
421 484 423 0
481 484 421 0
422 423 483 0
483 423 484 0
427 426 424 0
425 429 424 0
424 429 427 0
428 429 425 0
434 432 427 0
427 432 426 0
436 427 429 0
434 427 436 0
435 436 428 0
428 436 429 0
440 438 430 0
440 430 491 0
430 486 491 0
430 431 486 0
487 431 433 0
487 486 431 0
433 432 434 0
488 433 434 0
487 433 488 0
488 434 436 0
488 436 489 0
489 436 435 0
437 489 435 0
490 489 437 0
437 441 490 0
490 441 493 0
443 442 439 0
438 440 439 0
440 443 439 0
440 444 443 0
440 491 494 0
440 494 444 0
445 493 441 0
445 496 493 0
447 446 443 0
443 446 442 0
448 443 444 0
447 443 448 0
444 494 498 0
444 498 448 0
449 450 497 0
496 449 497 0
445 449 496 0
450 501 497 0
452 451 447 0
447 451 446 0
448 499 503 0
452 448 503 0
447 448 452 0
499 448 498 0
453 454 450 0
453 450 449 0
501 450 505 0
505 450 454 0
456 455 452 0
452 455 451 0
452 503 508 0
452 508 456 0
511 506 454 0
453 511 454 0
457 511 453 0
454 506 505 0
460 458 456 0
456 458 455 0
456 508 512 0
456 512 460 0
461 511 457 0
461 516 511 0
460 459 458 0
513 464 462 0
513 462 459 0
512 513 459 0
460 512 459 0
517 464 513 0
465 516 461 0
465 519 516 0
469 467 463 0
462 464 463 0
464 469 463 0
464 471 469 0
464 517 520 0
464 520 471 0
473 474 466 0
474 525 466 0
525 465 466 0
525 519 465 0
469 468 467 0
468 469 470 0
470 469 471 0
520 521 471 0
521 470 471 0
521 472 470 0
523 476 475 0
472 523 475 0
521 523 472 0
524 477 476 0
524 476 523 0
527 477 524 0
528 526 474 0
473 528 474 0
478 528 473 0
474 526 525 0
482 480 476 0
476 480 475 0
485 476 477 0
482 476 485 0
529 479 483 0
477 529 483 0
485 477 483 0
529 477 527 0
478 479 528 0
528 479 529 0
482 481 480 0
481 482 484 0
484 482 485 0
484 485 483 0
492 491 486 0
492 486 535 0
486 531 535 0
486 487 531 0
532 487 488 0
532 531 487 0
533 488 489 0
533 532 488 0
534 489 490 0
534 533 489 0
490 493 534 0
534 493 537 0
495 494 492 0
492 494 491 0
492 535 538 0
492 538 495 0
496 537 493 0
496 540 537 0
500 498 495 0
495 498 494 0
495 538 541 0
495 541 500 0
496 497 502 0
544 496 502 0
540 496 544 0
501 502 497 0
504 503 499 0
545 504 499 0
545 499 498 0
542 545 498 0
500 542 498 0
542 500 541 0
544 502 507 0
544 507 549 0
505 507 501 0
501 507 502 0
509 508 504 0
504 508 503 0
504 545 546 0
510 504 546 0
509 504 510 0
550 510 546 0
549 507 506 0
511 549 506 0
552 549 511 0
506 507 505 0
514 512 509 0
509 512 508 0
515 509 510 0
514 509 515 0
510 550 553 0
510 553 515 0
516 552 511 0
516 556 552 0
514 513 512 0
513 514 517 0
514 518 517 0
514 515 518 0
515 553 557 0
515 557 518 0
519 556 516 0
519 561 556 0
522 520 518 0
518 520 517 0
518 557 563 0
518 563 522 0
525 561 519 0
525 570 561 0
522 521 520 0
563 564 522 0
564 521 522 0
564 523 521 0
523 566 524 0
564 566 523 0
568 530 527 0
524 568 527 0
566 568 524 0
526 528 530 0
568 526 530 0
571 526 568 0
525 526 570 0
570 526 571 0
530 529 527 0
529 530 528 0
536 535 531 0
536 531 576 0
531 573 576 0
531 532 573 0
574 532 533 0
574 573 532 0
575 533 534 0
575 574 533 0
534 537 575 0
575 537 579 0
539 538 536 0
536 538 535 0
536 576 581 0
536 581 539 0
540 579 537 0
540 584 579 0
543 541 539 0
539 541 538 0
539 581 586 0
539 586 543 0
544 584 540 0
544 589 584 0
547 545 542 0
541 543 542 0
543 547 542 0
543 548 547 0
543 586 591 0
543 591 548 0
549 589 544 0
549 594 589 0
547 546 545 0
546 547 550 0
547 551 550 0
547 548 551 0
548 591 596 0
548 596 551 0
552 594 549 0
552 600 594 0
554 553 551 0
551 553 550 0
551 596 597 0
555 551 597 0
554 551 555 0
602 555 597 0
556 600 552 0
556 605 600 0
558 557 554 0
554 557 553 0
559 554 555 0
558 554 559 0
555 602 603 0
560 555 603 0
559 555 560 0
606 562 560 0
606 560 603 0
606 605 562 0
605 561 562 0
605 556 561 0
565 563 558 0
558 563 557 0
567 558 559 0
565 558 567 0
569 559 560 0
567 559 569 0
572 560 562 0
569 560 572 0
570 572 561 0
561 572 562 0
565 564 563 0
564 565 566 0
566 565 567 0
566 567 568 0
568 567 569 0
568 569 571 0
571 569 572 0
571 572 570 0
577 576 573 0
574 578 573 0
573 578 577 0
575 580 574 0
574 580 578 0
579 580 575 0
582 581 577 0
577 581 576 0
583 577 578 0
582 577 583 0
585 578 580 0
583 578 585 0
584 585 579 0
579 585 580 0
587 586 582 0
582 586 581 0
588 582 583 0
587 582 588 0
590 583 585 0
588 583 590 0
589 590 584 0
584 590 585 0
592 591 587 0
587 591 586 0
593 587 588 0
592 587 593 0
595 588 590 0
593 588 595 0
594 595 589 0
589 595 590 0
598 596 592 0
592 596 591 0
599 592 593 0
598 592 599 0
601 593 595 0
599 593 601 0
600 601 594 0
594 601 595 0
598 597 596 0
597 598 602 0
598 604 602 0
598 599 604 0
607 599 601 0
604 599 607 0
605 607 600 0
600 607 601 0
604 603 602 0
603 604 606 0
606 604 607 0
606 607 605 0
