#!ascii version in FreeSurfer format (SUMA)
692 1380
-6.244678  -49.539787  -16.478174  0
-6.426176  -49.600937  -16.476845  0
-6.740560  -47.694653  -16.080505  0
-7.216251  -47.678677  -16.009699  0
-6.346622  -48.012299  -16.094263  0
-6.775263  -48.143620  -16.187187  0
-7.141502  -48.076824  -16.136982  0
-7.546925  -48.048138  -15.986869  0
-6.187903  -48.595161  -16.159573  0
-6.672431  -48.560619  -16.231966  0
-7.123850  -48.541424  -16.201599  0
-7.526320  -48.485493  -16.076227  0
-6.176091  -49.405163  -16.451853  0
-6.050017  -49.169842  -16.272781  0
-6.366209  -49.396641  -16.457861  0
-6.588613  -49.136417  -16.334099  0
-7.104839  -49.073120  -16.250750  0
-7.541995  -48.987125  -16.121964  0
-6.066128  -49.486103  -16.382435  0
-5.774393  -49.473881  -16.112654  0
-6.188347  -49.753605  -16.324890  0
-6.634742  -49.517090  -16.440243  0
-6.604413  -49.746967  -16.403669  0
-7.020888  -49.686100  -16.303501  0
-7.552984  -49.534542  -16.148775  0
-6.109439  -50.041840  -16.104963  0
-6.623630  -50.098251  -16.219284  0
-7.172218  -50.194550  -16.200821  0
-7.555116  -50.082859  -16.116251  0
-6.991116  -50.466339  -16.086153  0
-7.435732  -50.512035  -16.029173  0
-6.631311  -47.373547  -15.958504  0
-6.611362  -47.122440  -15.726269  0
-6.940484  -47.352470  -15.923646  0
-7.203178  -47.089279  -15.678253  0
-7.584927  -47.086189  -15.539452  0
-6.367301  -47.521202  -15.947990  0
-6.108510  -47.734512  -15.935670  0
-6.048124  -47.452351  -15.676275  0
-7.318317  -47.392986  -15.854665  0
-7.641304  -47.654800  -15.799879  0
-7.545249  -47.302174  -15.693489  0
-5.898523  -48.086872  -15.891498  0
-5.663424  -47.874226  -15.533833  0
-7.853986  -48.032192  -15.789198  0
-8.119846  -48.236671  -15.623711  0
-5.757184  -48.700222  -15.975406  0
-5.551143  -48.367943  -15.660069  0
-7.865835  -48.393963  -15.867471  0
-8.183150  -48.675041  -15.674555  0
-5.660890  -49.109226  -16.005709  0
-5.498288  -49.234291  -15.814626  0
-5.479733  -48.853573  -15.718312  0
-7.896545  -48.862671  -15.923465  0
-8.250073  -49.207535  -15.704772  0
-5.510822  -49.512447  -15.721067  0
-5.786868  -49.823555  -15.979534  0
-7.917964  -49.374210  -15.965611  0
-8.172971  -49.666412  -15.791438  0
-8.446903  -49.686478  -15.523781  0
-5.895300  -50.092636  -15.785225  0
-6.247794  -50.243866  -15.977106  0
-6.583014  -50.433601  -15.969020  0
-7.925625  -49.904007  -15.950167  0
-8.221006  -50.137100  -15.662395  0
-6.843712  -50.608387  -15.952035  0
-6.639578  -50.644695  -15.732206  0
-7.119068  -50.790871  -15.841976  0
-7.903887  -50.520134  -15.797347  0
-7.586721  -50.844700  -15.803146  0
-8.175691  -50.516361  -15.595650  0
-7.096950  -51.053654  -15.589367  0
-7.421063  -51.106846  -15.627866  0
-6.614109  -46.812195  -15.476865  0
-6.644018  -46.589405  -15.174582  0
-6.944129  -46.777363  -15.458791  0
-7.191638  -46.507645  -15.180774  0
-7.419678  -46.806625  -15.409986  0
-7.755703  -46.609497  -15.178062  0
-8.305881  -46.633728  -15.123003  0
-8.784470  -46.640949  -15.072228  0
-9.132156  -46.670319  -15.004739  0
-6.323891  -46.944061  -15.454018  0
-6.013938  -47.119244  -15.351511  0
-6.201465  -46.809612  -15.136580  0
-7.779074  -46.971298  -15.381373  0
-8.193129  -47.108124  -15.272666  0
-8.669114  -47.065247  -15.160674  0
-9.060662  -47.016830  -15.074403  0
-5.779376  -47.454197  -15.288895  0
-5.558438  -47.827999  -15.139492  0
-7.881893  -47.362320  -15.514993  0
-8.028883  -47.829647  -15.578815  0
-8.292365  -47.670113  -15.353818  0
-8.648630  -47.578037  -15.192609  0
-9.029455  -47.491020  -15.075269  0
-5.463222  -48.156376  -15.350308  0
-8.308959  -48.057812  -15.424960  0
-8.649411  -48.144028  -15.243217  0
-9.028917  -48.017952  -15.067179  0
-5.386415  -48.553558  -15.358063  0
-8.422153  -48.447212  -15.435159  0
-8.751512  -48.703110  -15.262651  0
-9.050830  -48.548599  -15.077140  0
-5.379659  -49.059200  -15.404594  0
-8.495914  -48.904491  -15.472128  0
-8.557202  -49.293198  -15.460478  0
-8.787421  -49.146873  -15.279998  0
-9.071074  -49.038631  -15.079389  0
-5.429543  -49.440575  -15.291128  0
-5.594110  -49.802849  -15.563846  0
-5.538735  -49.676876  -15.176232  0
-8.783289  -49.589222  -15.222920  0
-8.640078  -49.895088  -15.252306  0
-9.033220  -49.400166  -15.075801  0
-5.783607  -50.011360  -15.253519  0
-6.191826  -50.375179  -15.607769  0
-8.466552  -50.124802  -15.358749  0
-8.640370  -50.157501  -15.110753  0
-6.397120  -50.642063  -15.310901  0
-6.779922  -50.876816  -15.506274  0
-8.336770  -50.521660  -15.360385  0
-8.164323  -50.831459  -15.413876  0
-6.931183  -51.119965  -15.286868  0
-7.228906  -51.242054  -15.431536  0
-7.864171  -51.129532  -15.443867  0
-7.516445  -51.375214  -15.325121  0
-8.165421  -51.128277  -15.208595  0
-7.539092  -51.589539  -15.015455  0
-6.678175  -46.377895  -14.708892  0
-6.985221  -46.319038  -14.906176  0
-7.439294  -46.222549  -14.854897  0
-7.777476  -45.996323  -14.643668  0
-7.984241  -46.257107  -14.939458  0
-8.228435  -45.994980  -14.709855  0
-8.503695  -46.279270  -14.940230  0
-8.726676  -45.996567  -14.686878  0
-9.071175  -46.291237  -14.814825  0
-9.060406  -46.002659  -14.627818  0
-6.382308  -46.580200  -14.864725  0
-6.137495  -46.802147  -14.759035  0
-9.372557  -46.562542  -14.824111  0
-9.635506  -46.724960  -14.650034  0
-5.930404  -47.098351  -15.019691  0
-9.371075  -46.909904  -14.917749  0
-9.633454  -47.168381  -14.705791  0
-5.734919  -47.513901  -14.799886  0
-5.554793  -47.895439  -14.768288  0
-9.358972  -47.362198  -14.927934  0
-9.635759  -47.670559  -14.694061  0
-5.427480  -48.229584  -14.966649  0
-5.520626  -48.145977  -14.577917  0
-9.358129  -47.874645  -14.904087  0
-9.639860  -48.193901  -14.679982  0
-5.363466  -48.669941  -15.025639  0
-9.363958  -48.399200  -14.894022  0
-9.641502  -48.711494  -14.676575  0
-5.410532  -49.023144  -14.892769  0
-5.474420  -49.396755  -14.946736  0
-5.524442  -49.184769  -14.654123  0
-9.370023  -48.915668  -14.881165  0
-9.642138  -49.207478  -14.632844  0
-5.652678  -49.568760  -14.757204  0
-9.374584  -49.475945  -14.770926  0
-9.110090  -49.766083  -14.870810  0
-9.645443  -49.523067  -14.556105  0
-5.888884  -49.969429  -14.695644  0
-6.079614  -50.335670  -15.032255  0
-8.888577  -50.068192  -14.894802  0
-8.728709  -50.379868  -14.871634  0
-9.144887  -50.049484  -14.676017  0
-6.323120  -50.600788  -14.809248  0
-6.596281  -50.884205  -15.072450  0
-8.540709  -50.480053  -15.064569  0
-8.704128  -50.761314  -14.690987  0
-6.825814  -51.126053  -14.826350  0
-7.198365  -51.392063  -15.059856  0
-8.424800  -51.030262  -14.915170  0
-8.134414  -51.383568  -15.002021  0
-8.687213  -51.072430  -14.539314  0
-7.428023  -51.645367  -14.678112  0
-7.826339  -51.533520  -15.071148  0
-7.789527  -51.737038  -14.713415  0
-8.067837  -51.659653  -14.742890  0
-7.701916  -45.858200  -14.259188  0
-8.025937  -45.831501  -14.431564  0
-8.472434  -45.746567  -14.369704  0
-8.812166  -45.539505  -14.108727  0
-9.075929  -45.751949  -14.327442  0
-9.095657  -45.531925  -14.095062  0
-6.732085  -46.353283  -14.254358  0
-7.442978  -46.007793  -14.486844  0
-7.071760  -46.168716  -14.474521  0
-9.369296  -46.007763  -14.445945  0
-9.642478  -46.290257  -14.434442  0
-9.663754  -46.005871  -14.229009  0
-6.417060  -46.607761  -14.388843  0
-6.157988  -46.908646  -14.385540  0
-6.589101  -46.505623  -14.112270  0
-9.893414  -46.566166  -14.333609  0
-10.137124  -46.706787  -14.105587  0
-5.958712  -47.130512  -14.589985  0
-6.085356  -47.230053  -14.163463  0
-9.882309  -46.940342  -14.424060  0
-10.123732  -47.153530  -14.168879  0
-5.894054  -47.509148  -14.309893  0
-6.048308  -47.558376  -13.976445  0
-9.879717  -47.417446  -14.440443  0
-10.123477  -47.655224  -14.176303  0
-5.705304  -47.931335  -14.375059  0
-5.603257  -48.311584  -14.326967  0
-9.882727  -47.934380  -14.431253  0
-10.124207  -48.173504  -14.183369  0
-5.460599  -48.530785  -14.611104  0
-5.515690  -48.870682  -14.504908  0
-5.602354  -48.625729  -14.299162  0
-9.885259  -48.456863  -14.433473  0
-10.126065  -48.693344  -14.188183  0
-5.692095  -49.042213  -14.312482  0
-9.887583  -48.979584  -14.414974  0
-10.134990  -49.208096  -14.135722  0
-5.895276  -49.543076  -14.267534  0
-6.108508  -49.765644  -14.064713  0
-9.896055  -49.539295  -14.278372  0
-9.653296  -49.811207  -14.380349  0
-10.143568  -49.541149  -14.049370  0
-5.996394  -49.933762  -14.350336  0
-6.174191  -50.236565  -14.430579  0
-6.112493  -50.005848  -14.217386  0
-9.405975  -50.067024  -14.419391  0
-9.163341  -50.346481  -14.452663  0
-9.664786  -50.094139  -14.174691  0
-6.408342  -50.551285  -14.389187  0
-6.553616  -50.827744  -14.597492  0
-6.604547  -50.691200  -14.205593  0
-8.929628  -50.555222  -14.550505  0
-9.162737  -50.771488  -14.166260  0
-6.824505  -51.010426  -14.267537  0
-7.096827  -51.381413  -14.524268  0
-8.921715  -51.062630  -14.230577  0
-8.647703  -51.354462  -14.379331  0
-9.150537  -51.038441  -13.978058  0
-7.393386  -51.632175  -14.204826  0
-7.744620  -51.811642  -14.294428  0
-8.352720  -51.536030  -14.578557  0
-8.172446  -51.792450  -14.314142  0
-8.533441  -51.659103  -14.189956  0
-8.700291  -45.378918  -13.751009  0
-9.091858  -45.373402  -13.812057  0
-7.696563  -45.828354  -13.758996  0
-8.463784  -45.544487  -14.012087  0
-8.077505  -45.680099  -14.015737  0
-9.374678  -45.508675  -13.921639  0
-9.667512  -45.747303  -13.958060  0
-9.657005  -45.485500  -13.703619  0
-7.368710  -45.998627  -14.060614  0
-7.040771  -46.260323  -13.838460  0
-9.934684  -46.002426  -13.953510  0
-10.167091  -46.276848  -13.904892  0
-10.196292  -45.996330  -13.678658  0
-6.747376  -46.517864  -13.831313  0
-6.545674  -46.736473  -13.886769  0
-10.397024  -46.544456  -13.795625  0
-10.646639  -46.694519  -13.597839  0
-6.331829  -47.027420  -13.953259  0
-6.536406  -47.058548  -13.593403  0
-10.383710  -46.911556  -13.892014  0
-10.664192  -47.130341  -13.669555  0
-6.228303  -47.470322  -13.774038  0
-6.134654  -47.798313  -13.734939  0
-10.392987  -47.389679  -13.924136  0
-10.757573  -47.675713  -13.667684  0
-5.945086  -47.894287  -13.984186  0
-6.115669  -48.202637  -13.655901  0
-10.397377  -47.909130  -13.943989  0
-10.690351  -48.225163  -13.759573  0
-11.074359  -48.137215  -13.513011  0
-5.828489  -48.458378  -14.021453  0
-6.111968  -48.695004  -13.637663  0
-10.379583  -48.418911  -13.971562  0
-10.618548  -48.659386  -13.800925  0
-10.962065  -48.657867  -13.580487  0
-5.955003  -49.027328  -13.921021  0
-6.177805  -49.343098  -13.768420  0
-6.133561  -49.017715  -13.663589  0
-10.387497  -48.935268  -13.940975  0
-10.708323  -49.134880  -13.661888  0
-6.337799  -49.651855  -13.748641  0
-6.577457  -49.767441  -13.581937  0
-10.406687  -49.528278  -13.777963  0
-10.155425  -49.841209  -13.871032  0
-10.674980  -49.523548  -13.560868  0
-6.324833  -49.980644  -13.964334  0
-6.581134  -50.313980  -13.924153  0
-6.567382  -50.012161  -13.729973  0
-9.910574  -50.098701  -13.919987  0
-9.667878  -50.360756  -13.936442  0
-10.162246  -50.125050  -13.665892  0
-6.831254  -50.684948  -13.870417  0
-7.082899  -50.763920  -13.581614  0
-9.411819  -50.613403  -13.981467  0
-9.651948  -50.693291  -13.605172  0
-6.970931  -50.961018  -13.872002  0
-7.181055  -51.263851  -13.904611  0
-7.106756  -51.004803  -13.701231  0
-9.281205  -50.962669  -13.852460  0
-9.101526  -51.262630  -13.720497  0
-7.474190  -51.585430  -13.783442  0
-7.708387  -51.788357  -13.869453  0
-7.711563  -51.671280  -13.542438  0
-8.101313  -51.862659  -13.868499  0
-8.798762  -51.509487  -13.952097  0
-8.511415  -51.775043  -13.854520  0
-8.582058  -45.314854  -13.368755  0
-8.984899  -45.178333  -13.342294  0
-9.319216  -44.972500  -13.076929  0
-9.545856  -45.229424  -13.381441  0
-9.555964  -44.974888  -13.061840  0
-7.742042  -45.874706  -13.244431  0
-8.337346  -45.478428  -13.643163  0
-8.011300  -45.651501  -13.454309  0
-9.912149  -45.498215  -13.447997  0
-10.182808  -45.758240  -13.427613  0
-10.161258  -45.517715  -13.163480  0
-7.426643  -46.114216  -13.392948  0
-7.157653  -46.392437  -13.312175  0
-7.616970  -46.040836  -13.096515  0
-10.423648  -46.007797  -13.427176  0
-10.644773  -46.286491  -13.392476  0
-10.645783  -46.019917  -13.164774  0
-6.945769  -46.574627  -13.409306  0
-7.109218  -46.629646  -13.062408  0
-10.880181  -46.567440  -13.320580  0
-11.124422  -46.731899  -13.096530  0
-6.742919  -46.907814  -13.413163  0
-6.643263  -47.289024  -13.294089  0
-10.908104  -46.906834  -13.403941  0
-11.170274  -47.129776  -13.172988  0
-6.451550  -47.402237  -13.505316  0
-6.632165  -47.696342  -13.147956  0
-10.969476  -47.318764  -13.435493  0
-11.192498  -47.715015  -13.335446  0
-11.180532  -47.410000  -13.248848  0
-6.358337  -47.895897  -13.430369  0
-6.612048  -48.205704  -13.081416  0
-11.395244  -48.100273  -13.288395  0
-11.634251  -48.238968  -13.084129  0
-6.354044  -48.452827  -13.352863  0
-6.605670  -48.684334  -13.103865  0
-11.407660  -48.520660  -13.259947  0
-11.204361  -48.906033  -13.361417  0
-11.673807  -48.453979  -13.028931  0
-6.358548  -48.947090  -13.412983  0
-6.603584  -49.334824  -13.333671  0
-6.602636  -48.992756  -13.177232  0
-10.999617  -49.099873  -13.463120  0
-11.175035  -49.252796  -13.223558  0
-6.851063  -49.626499  -13.253662  0
-7.111283  -49.733944  -13.068067  0
-10.920661  -49.528862  -13.294117  0
-10.657613  -49.822704  -13.384233  0
-11.140570  -49.503025  -13.067708  0
-6.837135  -49.963398  -13.446848  0
-7.077829  -50.314575  -13.378350  0
-7.100685  -49.979507  -13.202756  0
-10.404097  -50.102123  -13.397512  0
-10.142696  -50.359566  -13.443797  0
-10.649723  -50.087666  -13.155033  0
-7.312054  -50.613178  -13.248288  0
-7.561607  -50.745609  -13.039565  0
-9.887017  -50.523251  -13.529655  0
-9.760702  -50.848724  -13.153593  0
-10.065460  -50.634060  -13.170118  0
-7.320606  -50.971958  -13.421639  0
-7.607637  -51.337135  -13.357570  0
-7.565062  -51.017975  -13.160798  0
-9.409416  -51.012173  -13.481052  0
-9.033496  -51.362789  -13.199268  0
-7.922912  -51.605209  -13.278018  0
-8.017917  -51.786175  -13.502523  0
-8.293110  -51.638325  -13.175953  0
-8.805184  -51.610832  -13.524231  0
-8.426674  -51.780823  -13.474972  0
-8.665917  -51.608616  -13.202815  0
-9.257398  -44.888252  -12.719311  0
-9.494374  -44.884323  -12.868147  0
-9.027393  -45.016724  -12.903994  0
-8.679707  -45.244576  -12.860635  0
-9.739670  -45.026211  -12.816478  0
-10.011544  -45.318237  -13.003796  0
-8.314445  -45.474598  -13.115607  0
-8.028518  -45.776722  -12.838102  0
-10.344058  -45.542652  -12.803629  0
-10.554679  -45.837433  -13.016951  0
-7.765445  -46.050953  -12.822291  0
-7.571339  -46.252167  -12.871259  0
-10.839215  -46.053463  -12.842400  0
-11.010688  -46.383080  -13.013461  0
-7.357589  -46.539486  -12.857224  0
-7.179393  -46.843327  -12.795782  0
-7.556278  -46.479813  -12.626535  0
-11.260183  -46.572174  -12.779293  0
-6.984777  -46.910202  -13.025843  0
-7.139411  -47.209988  -12.672143  0
-11.426600  -46.985676  -12.744068  0
-11.632969  -47.116535  -12.440722  0
-6.870180  -47.380962  -12.962229  0
-7.120029  -47.700462  -12.587120  0
-11.407893  -47.483665  -12.972939  0
-11.534137  -47.907940  -13.055442  0
-6.868792  -47.953438  -12.829543  0
-7.122032  -48.215672  -12.564275  0
-11.730271  -48.088428  -12.831659  0
-6.866205  -48.463127  -12.828093  0
-7.124367  -48.685158  -12.615653  0
-11.777723  -48.346813  -12.785795  0
-11.669181  -48.690689  -12.787522  0
-6.863809  -48.940445  -12.926436  0
-7.117585  -49.317257  -12.843410  0
-7.124367  -48.988029  -12.693289  0
-11.407600  -48.994320  -13.054709  0
-7.366510  -49.598606  -12.744933  0
-7.612985  -49.716412  -12.561168  0
-11.307288  -49.384563  -12.873509  0
-11.108091  -49.732380  -12.769165  0
-7.351959  -49.932228  -12.926903  0
-7.568507  -50.298737  -12.863456  0
-7.599262  -49.960789  -12.693907  0
-10.832630  -49.967331  -12.993234  0
-10.629643  -50.290012  -12.818398  0
-7.825511  -50.620895  -12.755233  0
-8.213005  -50.766922  -12.582410  0
-9.643277  -50.946358  -12.621408  0
-10.315926  -50.497387  -13.006456  0
-10.076742  -50.763344  -12.780712  0
-7.858869  -50.999798  -12.914314  0
-8.082444  -51.373627  -13.015389  0
-8.285034  -51.124718  -12.756467  0
-8.597018  -51.376003  -12.917385  0
-8.719790  -51.043762  -12.604224  0
-9.372824  -51.119999  -12.973097  0
-9.005437  -51.232372  -12.837174  0
-9.194415  -51.074451  -12.654353  0
-9.265364  -44.893837  -12.411017  0
-9.500116  -44.878441  -12.565088  0
-8.999709  -45.085236  -12.388904  0
-8.668136  -45.353970  -12.334455  0
-9.222240  -44.984394  -12.192280  0
-9.735333  -45.003128  -12.369395  0
-9.458840  -44.967857  -12.196167  0
-10.073375  -45.235226  -12.415844  0
-8.391267  -45.607418  -12.417564  0
-8.142438  -45.916851  -12.308745  0
-8.591986  -45.529003  -12.115856  0
-10.433523  -45.493793  -12.188619  0
-10.675700  -45.755886  -12.496460  0
-7.942830  -46.114128  -12.397646  0
-8.089614  -46.174351  -12.029355  0
-10.961769  -45.989307  -12.254223  0
-11.157884  -46.284607  -12.558287  0
-7.731275  -46.419743  -12.428197  0
-7.562957  -46.748245  -12.407389  0
-11.439713  -46.603233  -12.366999  0
-11.603478  -46.902241  -12.418986  0
-7.361832  -46.995411  -12.510202  0
-7.590571  -47.197540  -12.155907  0
-11.697356  -47.023464  -12.235595  0
-11.703515  -47.241596  -12.124355  0
-7.364472  -47.462276  -12.356500  0
-7.612255  -47.699623  -12.059269  0
-11.623558  -47.426826  -12.449207  0
-11.666335  -47.809006  -12.664081  0
-7.370497  -47.964867  -12.314187  0
-7.618708  -48.208565  -12.074732  0
-11.803548  -48.113838  -12.456058  0
-7.375444  -48.462421  -12.343585  0
-7.619781  -48.673450  -12.130278  0
-11.825787  -48.460556  -12.332439  0
-11.748072  -48.862064  -12.217226  0
-7.374716  -48.933697  -12.440003  0
-7.616368  -49.299179  -12.342224  0
-7.618350  -48.974037  -12.199308  0
-11.542857  -49.140949  -12.576053  0
-7.884124  -49.600365  -12.236819  0
-8.257756  -49.776173  -12.014483  0
-11.364562  -49.532738  -12.396093  0
-11.144226  -49.876034  -12.197392  0
-7.873959  -49.970280  -12.443032  0
-7.997386  -50.373798  -12.524165  0
-8.285381  -50.202763  -12.245098  0
-8.708677  -50.164974  -11.932723  0
-10.912445  -50.106735  -12.492007  0
-10.695249  -50.386948  -12.257672  0
-8.330028  -50.507240  -12.373038  0
-8.600592  -50.739983  -12.396691  0
-8.678139  -50.507599  -12.204692  0
-9.150002  -50.842121  -12.320823  0
-9.109729  -50.546516  -11.975192  0
-9.699121  -50.862854  -12.218758  0
-10.403545  -50.592918  -12.504284  0
-10.070785  -50.793510  -12.320167  0
-9.295497  -45.226372  -11.815133  0
-9.794828  -45.171612  -11.920136  0
-10.181030  -45.325230  -11.916156  0
-8.864077  -45.500572  -11.824434  0
-8.572643  -45.770405  -11.844595  0
-9.133216  -45.488987  -11.520523  0
-10.405342  -45.509392  -11.671519  0
-10.706227  -45.726143  -11.928634  0
-8.334251  -46.069805  -11.806655  0
-8.143671  -46.378456  -11.701029  0
-8.560439  -46.019997  -11.564730  0
-10.972064  -45.972893  -11.685132  0
-11.240075  -46.251480  -12.021395  0
-7.955356  -46.498787  -11.930717  0
-8.095840  -46.642498  -11.519258  0
-11.483271  -46.517815  -11.787621  0
-11.645426  -46.807369  -12.073020  0
-7.779145  -46.868717  -12.010375  0
-11.725655  -47.035587  -11.864475  0
-11.724609  -47.281040  -11.642292  0
-7.864642  -47.383041  -11.742525  0
-8.096788  -47.714642  -11.471169  0
-11.709688  -47.522038  -11.890228  0
-11.745173  -47.809147  -12.158557  0
-7.857659  -47.942825  -11.790721  0
-8.099605  -48.181877  -11.559307  0
-11.827189  -48.156261  -11.931288  0
-7.858301  -48.436993  -11.848725  0
-8.101741  -48.640556  -11.630404  0
-11.842507  -48.585629  -11.756662  0
-11.774945  -48.972149  -11.801614  0
-7.856927  -48.907307  -11.941428  0
-8.110432  -49.285252  -11.852228  0
-8.099253  -48.945126  -11.700865  0
-11.593675  -49.271015  -12.000773  0
-11.699206  -49.171818  -11.617326  0
-8.402094  -49.524097  -11.718665  0
-8.648192  -49.768517  -11.688631  0
-8.566752  -49.526291  -11.576542  0
-11.353445  -49.630775  -11.938589  0
-11.069084  -49.899345  -11.675940  0
-8.914283  -50.038101  -11.675813  0
-9.159976  -50.280617  -11.684628  0
-9.086685  -50.074173  -11.566998  0
-10.895732  -50.182213  -12.001644  0
-10.702601  -50.381584  -11.933555  0
-10.659596  -50.279327  -11.660103  0
-9.445730  -50.546623  -11.740545  0
-9.544672  -50.737892  -11.960965  0
-9.812265  -50.580486  -11.654702  0
-10.426053  -50.563313  -11.992105  0
-9.988897  -50.727188  -11.931515  0
-10.234680  -50.494614  -11.619510  0
-9.695369  -45.363071  -11.416134  0
-10.065069  -45.373188  -11.518925  0
-9.406594  -45.556557  -11.249311  0
-9.084401  -45.735287  -11.298192  0
-9.694466  -45.526009  -11.124621  0
-10.280866  -45.553020  -11.285797  0
-9.962362  -45.526340  -11.147070  0
-10.622944  -45.748840  -11.350867  0
-8.817225  -45.987442  -11.329749  0
-8.560544  -46.258591  -11.319231  0
-9.076023  -45.969585  -11.086675  0
-10.919739  -45.996971  -11.169877  0
-11.222202  -46.230850  -11.444932  0
-8.338754  -46.548534  -11.302113  0
-8.159337  -46.833099  -11.288836  0
-8.573949  -46.489033  -11.090319  0
-11.431111  -46.493351  -11.219223  0
-11.638622  -46.777496  -11.547084  0
-8.001819  -46.938511  -11.541579  0
-8.157372  -47.279392  -11.293755  0
-8.142075  -47.015129  -11.250608  0
-11.703629  -47.043869  -11.361446  0
-11.697191  -47.266148  -11.178397  0
-8.306890  -47.585457  -11.196795  0
-8.551139  -47.720425  -11.017354  0
-11.692019  -47.521935  -11.340356  0
-11.745093  -47.829277  -11.585687  0
-8.343084  -47.951805  -11.272341  0
-8.704395  -48.200718  -11.060764  0
-11.802156  -48.190220  -11.376887  0
-8.378584  -48.426014  -11.350299  0
-8.742884  -48.737656  -11.181549  0
-9.152204  -48.635166  -10.967700  0
-11.812495  -48.579632  -11.253949  0
-11.742574  -48.581131  -10.960862  0
-8.370301  -48.929150  -11.477236  0
-8.486902  -49.323112  -11.531999  0
-8.776886  -49.203732  -11.295862  0
-9.190141  -49.138603  -11.096943  0
-9.687776  -49.110447  -10.959610  0
-10.245324  -49.271141  -10.922674  0
-11.789155  -48.919281  -11.475105  0
-11.687909  -49.154980  -11.409296  0
-11.628576  -48.998978  -11.146840  0
-8.766920  -49.541412  -11.447941  0
-8.980014  -49.855141  -11.497780  0
-9.185355  -49.625813  -11.268395  0
-9.669081  -49.564781  -11.098845  0
-10.102596  -49.516022  -11.025011  0
-10.698189  -49.973412  -11.340292  0
-10.670712  -49.584469  -11.060687  0
-11.453747  -49.435093  -11.501996  0
-11.059793  -49.699760  -11.309809  0
-11.236087  -49.392460  -11.109468  0
-9.278037  -50.051884  -11.437928  0
-9.567647  -50.337875  -11.496457  0
-9.654597  -49.996700  -11.267924  0
-10.377625  -50.233299  -11.385967  0
-9.989908  -50.305279  -11.385169  0
-10.183352  -49.917160  -11.182729  0
-9.744254  -45.771732  -10.912546  0
-10.270315  -45.776299  -10.946874  0
-10.651711  -45.902134  -10.958887  0
-9.320874  -45.909233  -10.972311  0
-9.111190  -46.201630  -10.908604  0
-9.544926  -46.225765  -10.673434  0
-10.014178  -46.047752  -10.668143  0
-10.815742  -46.035748  -10.870917  0
-10.516632  -46.133694  -10.640306  0
-11.068079  -46.259117  -10.863189  0
-8.799410  -46.397259  -10.996446  0
-8.648129  -46.709068  -10.931705  0
-9.141680  -46.674160  -10.675549  0
-9.547993  -46.575607  -10.508237  0
-9.967799  -46.483200  -10.427898  0
-11.353009  -46.491150  -10.858729  0
-11.198421  -46.540543  -10.582238  0
-11.516301  -46.784836  -10.927457  0
-8.359119  -46.982262  -11.069912  0
-8.460870  -47.353264  -10.996516  0
-8.789407  -47.141525  -10.773707  0
-9.230880  -47.198223  -10.564610  0
-9.603308  -46.967171  -10.425894  0
-11.654631  -47.088528  -10.987529  0
-11.645363  -47.221085  -10.904467  0
-11.498788  -47.121891  -10.664847  0
-8.736525  -47.521011  -10.829077  0
-9.136728  -47.640228  -10.664005  0
-9.643401  -47.609798  -10.454609  0
-11.604798  -47.400398  -10.885510  0
-11.363285  -47.458874  -10.474553  0
-11.621396  -47.833916  -10.928515  0
-8.875902  -47.878654  -10.847902  0
-9.032836  -48.230007  -10.879441  0
-9.247016  -48.116428  -10.751287  0
-9.643463  -48.116505  -10.609810  0
-10.145435  -48.167046  -10.439086  0
-11.748464  -48.282810  -10.963666  0
-11.693498  -48.428326  -10.806104  0
-11.522538  -48.242970  -10.649899  0
-9.300555  -48.424049  -10.834915  0
-9.532370  -48.708054  -10.864850  0
-9.629096  -48.486481  -10.754592  0
-9.940622  -48.894634  -10.829336  0
-10.168413  -48.640404  -10.663831  0
-10.714542  -48.568180  -10.509867  0
-11.526146  -48.686352  -10.781296  0
-11.215504  -48.493614  -10.524299  0
-10.354166  -49.053940  -10.805618  0
-10.621010  -49.282455  -10.874887  0
-10.695100  -48.998367  -10.729882  0
-11.354322  -49.089417  -10.898347  0
-10.992229  -49.261776  -10.879146  0
-11.129389  -48.893353  -10.697702  0
-10.809827  -46.423958  -10.428287  0
-10.418449  -46.463551  -10.333764  0
-10.228168  -46.724197  -10.235218  0
-10.970947  -46.671051  -10.298396  0
-10.599131  -46.750290  -10.190986  0
-11.252221  -46.845753  -10.438163  0
-9.973567  -46.920971  -10.276666  0
-10.308264  -47.125710  -10.163889  0
-10.619639  -47.070278  -10.108318  0
-11.236020  -47.131241  -10.330918  0
-11.070498  -47.322403  -10.208039  0
-10.924643  -47.010208  -10.178306  0
-9.937524  -47.350159  -10.285388  0
-10.038219  -47.780102  -10.317512  0
-10.299637  -47.636185  -10.203774  0
-11.099877  -47.604317  -10.238868  0
-10.730727  -47.459145  -10.139067  0
-11.324376  -47.867054  -10.434562  0
-10.319407  -47.994675  -10.279624  0
-10.552719  -48.232376  -10.328899  0
-10.633338  -47.950249  -10.214760  0
-11.226349  -48.166897  -10.388036  0
-10.913907  -48.255207  -10.328591  0
-10.998479  -47.903362  -10.237982  0
12 18 0 0
1 14 0 0
0 14 12 0
1 21 14 0
18 20 0 0
0 20 1 0
1 20 22 0
1 22 21 0
31 36 2 0
3 33 2 0
2 33 31 0
3 39 33 0
37 42 4 0
37 4 36 0
4 2 36 0
4 5 2 0
2 6 3 0
2 5 6 0
39 3 40 0
3 7 40 0
3 6 7 0
7 44 40 0
4 42 8 0
8 42 46 0
4 9 5 0
4 8 9 0
5 10 6 0
5 9 10 0
6 11 7 0
6 10 11 0
44 7 48 0
48 7 11 0
8 46 13 0
13 46 50 0
8 15 9 0
8 13 15 0
9 16 10 0
9 15 16 0
10 17 11 0
10 16 17 0
48 11 53 0
53 11 17 0
51 55 19 0
51 19 50 0
50 19 13 0
19 18 13 0
18 12 13 0
13 12 14 0
13 14 15 0
15 14 21 0
23 15 21 0
16 15 23 0
16 24 17 0
16 23 24 0
53 17 57 0
57 17 24 0
55 56 19 0
56 60 25 0
56 25 20 0
19 56 20 0
18 19 20 0
26 22 20 0
26 20 25 0
23 21 22 0
26 23 22 0
27 23 26 0
23 28 24 0
23 27 28 0
57 24 63 0
63 24 28 0
60 61 25 0
25 61 26 0
26 61 62 0
65 29 62 0
29 26 62 0
29 27 26 0
27 30 28 0
27 29 30 0
63 28 68 0
68 28 30 0
65 67 29 0
29 67 30 0
30 67 69 0
30 69 68 0
73 82 32 0
34 75 32 0
32 75 73 0
35 77 34 0
34 77 75 0
35 85 77 0
83 89 38 0
83 38 82 0
82 38 32 0
38 36 32 0
36 31 32 0
32 31 33 0
32 33 34 0
34 33 39 0
41 34 39 0
35 34 41 0
85 35 91 0
91 35 41 0
90 96 43 0
90 43 89 0
89 43 38 0
43 42 38 0
42 37 38 0
38 37 36 0
40 41 39 0
45 92 44 0
44 92 40 0
92 91 40 0
91 41 40 0
45 97 92 0
43 96 47 0
47 96 100 0
47 46 42 0
47 42 43 0
48 49 45 0
48 45 44 0
97 45 101 0
101 45 49 0
47 100 52 0
52 100 104 0
52 50 46 0
52 46 47 0
53 54 49 0
53 49 48 0
101 49 105 0
105 49 54 0
52 104 51 0
104 55 51 0
104 109 55 0
52 51 50 0
57 58 54 0
57 54 53 0
105 54 106 0
54 59 106 0
54 58 59 0
59 112 106 0
109 110 55 0
55 110 56 0
60 56 110 0
60 110 115 0
63 64 58 0
63 58 57 0
113 59 117 0
59 64 117 0
59 58 64 0
59 113 112 0
115 116 60 0
60 116 61 0
116 119 66 0
62 116 66 0
61 116 62 0
66 65 62 0
68 70 64 0
68 64 63 0
117 64 121 0
121 64 70 0
119 120 66 0
120 123 71 0
120 71 67 0
66 120 67 0
65 66 67 0
72 69 67 0
72 67 71 0
72 125 69 0
69 125 68 0
125 122 68 0
122 70 68 0
70 122 121 0
123 124 71 0
71 124 72 0
72 124 126 0
72 126 125 0
129 139 74 0
76 130 74 0
74 130 129 0
78 131 76 0
76 131 130 0
79 133 78 0
78 133 131 0
80 135 79 0
79 135 133 0
81 137 80 0
80 137 135 0
81 141 137 0
140 143 84 0
140 84 139 0
139 84 74 0
84 82 74 0
82 73 74 0
74 73 75 0
74 75 76 0
76 75 77 0
76 77 78 0
78 77 85 0
86 78 85 0
79 78 86 0
79 87 80 0
79 86 87 0
80 88 81 0
80 87 88 0
141 81 144 0
144 81 88 0
84 143 83 0
143 89 83 0
143 146 89 0
84 83 82 0
91 93 86 0
91 86 85 0
86 94 87 0
86 93 94 0
87 95 88 0
87 94 95 0
144 88 148 0
148 88 95 0
147 150 90 0
90 150 96 0
90 89 146 0
90 146 147 0
92 93 91 0
93 92 97 0
98 93 97 0
94 93 98 0
94 99 95 0
94 98 99 0
148 95 152 0
152 95 99 0
150 100 96 0
154 100 150 0
101 102 98 0
101 98 97 0
98 103 99 0
98 102 103 0
152 99 155 0
155 99 103 0
154 104 100 0
157 104 154 0
105 107 102 0
105 102 101 0
102 108 103 0
102 107 108 0
155 103 160 0
160 103 108 0
111 109 158 0
109 157 158 0
109 104 157 0
162 111 158 0
106 107 105 0
107 106 112 0
114 107 112 0
108 107 114 0
160 108 163 0
163 108 114 0
111 110 109 0
115 110 111 0
162 115 111 0
166 115 162 0
117 118 113 0
118 168 113 0
113 168 112 0
168 164 112 0
164 114 112 0
114 164 163 0
166 167 115 0
115 167 116 0
119 116 167 0
119 167 171 0
173 169 118 0
117 173 118 0
121 173 117 0
118 169 168 0
171 172 119 0
119 172 120 0
123 120 172 0
123 172 175 0
125 127 122 0
127 177 122 0
177 121 122 0
177 173 121 0
175 176 123 0
123 176 124 0
176 180 128 0
126 176 128 0
124 176 126 0
128 181 126 0
126 181 125 0
181 178 125 0
178 127 125 0
127 178 177 0
180 182 128 0
128 182 181 0
184 191 132 0
134 185 132 0
132 185 184 0
136 186 134 0
134 186 185 0
138 188 136 0
136 188 186 0
138 193 188 0
190 196 129 0
129 196 139 0
192 129 130 0
192 190 129 0
131 132 191 0
192 131 191 0
130 131 192 0
132 131 133 0
132 133 134 0
134 133 135 0
134 135 136 0
136 135 137 0
136 137 138 0
142 194 141 0
141 194 137 0
194 193 137 0
193 138 137 0
142 199 194 0
197 201 140 0
140 201 143 0
140 139 196 0
140 196 197 0
144 145 142 0
144 142 141 0
199 142 203 0
203 142 145 0
201 146 143 0
205 146 201 0
148 149 145 0
148 145 144 0
203 145 207 0
207 145 149 0
151 150 147 0
209 151 147 0
146 209 147 0
205 209 146 0
152 153 149 0
152 149 148 0
207 149 211 0
211 149 153 0
210 213 151 0
213 150 151 0
213 154 150 0
210 151 209 0
155 156 153 0
155 153 152 0
211 153 216 0
216 153 156 0
159 157 214 0
157 213 214 0
157 154 213 0
218 159 214 0
160 161 156 0
160 156 155 0
216 156 219 0
219 156 161 0
159 158 157 0
162 158 159 0
218 162 159 0
221 162 218 0
163 165 161 0
163 161 160 0
219 161 223 0
223 161 165 0
221 166 162 0
226 166 221 0
168 170 164 0
170 229 164 0
164 229 163 0
229 224 163 0
224 165 163 0
165 224 223 0
226 227 166 0
166 227 167 0
171 167 227 0
171 227 232 0
173 174 169 0
174 235 169 0
169 235 168 0
235 230 168 0
230 170 168 0
170 230 229 0
232 233 171 0
171 233 172 0
175 172 233 0
175 233 237 0
177 179 174 0
177 174 173 0
235 174 239 0
239 174 179 0
237 238 175 0
175 238 176 0
180 176 238 0
180 238 242 0
181 183 178 0
183 244 178 0
178 244 177 0
244 240 177 0
240 179 177 0
179 240 239 0
242 243 180 0
180 243 182 0
181 182 183 0
182 245 183 0
182 243 245 0
183 245 244 0
247 250 187 0
189 248 187 0
187 248 247 0
189 252 248 0
249 255 184 0
184 255 191 0
251 184 185 0
251 249 184 0
186 187 250 0
251 186 250 0
185 186 251 0
187 186 188 0
187 188 189 0
195 253 193 0
193 253 188 0
253 252 188 0
252 189 188 0
195 257 253 0
198 196 190 0
198 190 260 0
190 256 260 0
190 192 256 0
192 191 255 0
192 255 256 0
194 195 193 0
200 258 199 0
199 258 194 0
258 257 194 0
257 195 194 0
200 262 258 0
202 201 197 0
264 202 197 0
264 197 196 0
261 264 196 0
198 261 196 0
261 198 260 0
203 204 200 0
203 200 199 0
262 200 266 0
266 200 204 0
206 205 202 0
202 205 201 0
202 264 268 0
202 268 206 0
207 208 204 0
207 204 203 0
266 204 270 0
270 204 208 0
269 272 206 0
272 205 206 0
272 209 205 0
269 206 268 0
211 212 208 0
211 208 207 0
270 208 274 0
274 208 212 0
215 213 210 0
277 215 210 0
209 277 210 0
272 277 209 0
216 217 212 0
216 212 211 0
274 212 279 0
279 212 217 0
215 214 213 0
218 214 215 0
277 218 215 0
282 218 277 0
219 220 217 0
219 217 216 0
279 217 285 0
285 217 220 0
222 221 283 0
221 282 283 0
221 218 282 0
287 222 283 0
223 225 220 0
223 220 219 0
285 220 289 0
289 220 225 0
228 226 222 0
222 226 221 0
222 287 292 0
222 292 228 0
229 231 224 0
231 295 224 0
224 295 223 0
295 290 223 0
290 225 223 0
225 290 289 0
228 227 226 0
293 234 232 0
293 232 227 0
292 293 227 0
228 292 227 0
298 234 293 0
235 236 230 0
236 300 230 0
230 300 229 0
300 296 229 0
296 231 229 0
231 296 295 0
234 233 232 0
237 233 234 0
298 237 234 0
302 237 298 0
239 241 236 0
239 236 235 0
300 236 305 0
305 236 241 0
302 303 237 0
237 303 238 0
242 238 303 0
242 303 307 0
244 246 240 0
246 311 240 0
240 311 239 0
311 306 239 0
306 241 239 0
241 306 305 0
307 308 242 0
242 308 243 0
243 310 245 0
308 310 243 0
244 245 246 0
245 312 246 0
245 310 312 0
246 312 311 0
313 319 247 0
247 319 250 0
314 247 248 0
314 313 247 0
254 316 252 0
316 248 252 0
316 314 248 0
254 321 316 0
318 324 249 0
249 324 255 0
320 249 251 0
320 318 249 0
251 250 319 0
251 319 320 0
253 254 252 0
259 322 257 0
257 322 253 0
322 321 253 0
321 254 253 0
259 327 322 0
325 330 256 0
256 330 260 0
256 255 324 0
256 324 325 0
258 259 257 0
263 328 262 0
262 328 258 0
328 327 258 0
327 259 258 0
263 332 328 0
265 264 261 0
334 265 261 0
260 334 261 0
330 334 260 0
266 267 263 0
266 263 262 0
332 263 336 0
336 263 267 0
335 338 265 0
338 264 265 0
338 268 264 0
335 265 334 0
270 271 267 0
270 267 266 0
336 267 340 0
340 267 271 0
273 272 269 0
343 273 269 0
268 343 269 0
338 343 268 0
274 275 271 0
274 271 270 0
340 271 341 0
271 276 341 0
271 275 276 0
276 345 341 0
278 277 273 0
273 277 272 0
273 343 347 0
273 347 278 0
279 280 275 0
279 275 274 0
275 281 276 0
275 280 281 0
345 276 349 0
349 276 281 0
284 282 278 0
278 282 277 0
278 347 352 0
278 352 284 0
285 286 280 0
285 280 279 0
350 281 355 0
281 286 355 0
281 280 286 0
281 350 349 0
284 283 282 0
353 288 287 0
353 287 283 0
352 353 283 0
284 352 283 0
357 288 353 0
289 291 286 0
289 286 285 0
355 286 359 0
359 286 291 0
294 292 288 0
288 292 287 0
288 357 362 0
288 362 294 0
295 297 290 0
297 365 290 0
290 365 289 0
365 360 289 0
360 291 289 0
291 360 359 0
294 293 292 0
363 299 298 0
363 298 293 0
362 363 293 0
294 362 293 0
368 299 363 0
300 301 296 0
301 370 296 0
296 370 295 0
370 366 295 0
366 297 295 0
297 366 365 0
304 302 299 0
299 302 298 0
299 368 373 0
299 373 304 0
376 371 301 0
300 376 301 0
305 376 300 0
301 371 370 0
304 303 302 0
374 309 307 0
374 307 303 0
373 374 303 0
304 373 303 0
378 309 374 0
381 377 306 0
381 306 311 0
305 306 376 0
376 306 377 0
309 308 307 0
378 379 309 0
379 308 309 0
379 310 308 0
310 382 312 0
379 382 310 0
311 312 381 0
381 312 382 0
384 386 315 0
317 385 315 0
315 385 384 0
317 388 385 0
387 390 313 0
313 390 319 0
314 315 386 0
387 314 386 0
313 314 387 0
315 314 316 0
315 316 317 0
323 389 321 0
321 389 316 0
389 388 316 0
388 317 316 0
323 392 389 0
326 324 318 0
326 318 394 0
318 391 394 0
318 320 391 0
320 319 390 0
320 390 391 0
322 323 321 0
329 393 327 0
327 393 322 0
393 392 322 0
392 323 322 0
329 396 393 0
331 330 325 0
398 331 325 0
398 325 324 0
395 398 324 0
326 395 324 0
395 326 394 0
328 329 327 0
333 397 332 0
332 397 328 0
397 396 328 0
396 329 328 0
333 401 397 0
399 402 331 0
402 330 331 0
402 334 330 0
399 331 398 0
336 337 333 0
336 333 332 0
401 333 404 0
404 333 337 0
339 338 335 0
406 339 335 0
334 406 335 0
402 406 334 0
340 342 337 0
340 337 336 0
404 337 408 0
408 337 342 0
344 343 339 0
339 343 338 0
339 406 410 0
339 410 344 0
341 342 340 0
346 409 345 0
345 409 341 0
409 408 341 0
408 342 341 0
346 412 409 0
348 347 344 0
344 347 343 0
344 410 413 0
344 413 348 0
349 351 346 0
349 346 345 0
412 346 415 0
415 346 351 0
354 352 348 0
348 352 347 0
348 413 417 0
348 417 354 0
355 356 350 0
356 420 350 0
350 420 349 0
420 416 349 0
416 351 349 0
351 416 415 0
354 353 352 0
418 358 357 0
418 357 353 0
417 418 353 0
354 417 353 0
421 358 418 0
359 361 356 0
359 356 355 0
420 356 423 0
423 356 361 0
364 362 358 0
358 362 357 0
358 421 425 0
358 425 364 0
365 367 360 0
367 428 360 0
360 428 359 0
428 424 359 0
424 361 359 0
361 424 423 0
364 363 362 0
426 369 368 0
426 368 363 0
425 426 363 0
364 425 363 0
430 369 426 0
370 372 366 0
372 433 366 0
366 433 365 0
433 429 365 0
429 367 365 0
367 429 428 0
375 373 369 0
369 373 368 0
369 430 435 0
369 435 375 0
440 432 371 0
440 371 376 0
370 371 372 0
371 434 372 0
371 432 434 0
372 434 433 0
375 374 373 0
436 380 378 0
436 378 374 0
435 436 374 0
375 435 374 0
438 383 380 0
438 380 436 0
377 381 383 0
438 377 383 0
441 377 438 0
376 377 440 0
440 377 441 0
380 379 378 0
379 380 382 0
382 380 383 0
382 383 381 0
443 445 384 0
384 445 386 0
444 384 385 0
444 443 384 0
385 388 444 0
444 388 448 0
446 451 387 0
387 451 390 0
387 386 445 0
387 445 446 0
450 448 388 0
450 388 389 0
389 392 450 0
450 392 454 0
452 456 391 0
391 456 394 0
391 390 451 0
391 451 452 0
455 454 392 0
455 392 393 0
393 396 455 0
455 396 458 0
400 398 395 0
460 400 395 0
394 460 395 0
456 460 394 0
459 458 396 0
459 396 397 0
397 401 459 0
459 401 462 0
403 402 399 0
464 403 399 0
464 399 398 0
461 464 398 0
400 461 398 0
461 400 460 0
404 405 463 0
462 404 463 0
401 404 462 0
405 466 463 0
407 406 403 0
403 406 402 0
403 464 468 0
403 468 407 0
470 467 405 0
404 470 405 0
408 470 404 0
405 467 466 0
411 410 407 0
407 410 406 0
407 468 472 0
407 472 411 0
471 470 408 0
471 408 409 0
409 412 471 0
471 412 474 0
414 413 411 0
411 413 410 0
411 472 475 0
411 475 414 0
415 474 412 0
415 477 474 0
419 417 414 0
414 417 413 0
414 475 479 0
414 479 419 0
482 478 416 0
482 416 420 0
415 416 477 0
477 416 478 0
419 418 417 0
480 422 421 0
480 421 418 0
479 480 418 0
419 479 418 0
483 422 480 0
423 482 420 0
423 485 482 0
427 425 422 0
422 425 421 0
422 483 487 0
422 487 427 0
491 486 424 0
491 424 428 0
423 424 485 0
485 424 486 0
427 426 425 0
488 431 430 0
488 430 426 0
487 488 426 0
427 487 426 0
493 431 488 0
499 492 429 0
499 429 433 0
428 429 491 0
491 429 492 0
437 435 431 0
431 435 430 0
431 493 494 0
439 431 494 0
437 431 439 0
496 442 439 0
496 439 494 0
432 440 442 0
496 432 442 0
498 432 496 0
432 500 434 0
498 500 432 0
433 434 499 0
499 434 500 0
437 436 435 0
436 437 438 0
438 437 439 0
438 439 441 0
441 439 442 0
441 442 440 0
447 445 443 0
444 449 443 0
443 449 447 0
448 449 444 0
453 451 446 0
504 453 446 0
504 446 445 0
501 504 445 0
447 501 445 0
501 447 449 0
501 449 502 0
502 449 448 0
450 502 448 0
503 502 450 0
450 454 503 0
503 454 507 0
457 456 452 0
509 457 452 0
509 452 451 0
505 509 451 0
453 505 451 0
505 453 504 0
508 507 454 0
508 454 455 0
455 458 508 0
508 458 512 0
510 514 457 0
514 456 457 0
514 460 456 0
510 457 509 0
513 512 458 0
513 458 459 0
459 462 513 0
513 462 516 0
465 464 461 0
518 465 461 0
460 518 461 0
514 518 460 0
517 516 462 0
517 462 463 0
463 466 517 0
517 466 519 0
469 468 465 0
465 468 464 0
465 518 521 0
465 521 469 0
523 520 467 0
523 467 470 0
466 467 519 0
519 467 520 0
473 472 469 0
469 472 468 0
469 521 525 0
469 525 473 0
524 523 470 0
524 470 471 0
471 474 524 0
524 474 527 0
476 475 473 0
473 475 472 0
473 525 528 0
473 528 476 0
477 527 474 0
477 530 527 0
481 479 476 0
476 479 475 0
476 528 532 0
476 532 481 0
535 531 478 0
535 478 482 0
477 478 530 0
530 478 531 0
481 480 479 0
533 484 483 0
533 483 480 0
532 533 480 0
481 532 480 0
537 484 533 0
485 535 482 0
485 540 535 0
489 487 484 0
484 487 483 0
484 537 538 0
490 484 538 0
489 484 490 0
542 490 538 0
545 541 486 0
545 486 491 0
485 486 540 0
540 486 541 0
489 488 487 0
488 489 493 0
489 495 493 0
489 490 495 0
490 542 543 0
497 490 543 0
495 490 497 0
548 497 543 0
551 546 492 0
551 492 499 0
491 492 545 0
545 492 546 0
495 494 493 0
494 495 496 0
496 495 497 0
548 549 497 0
549 496 497 0
549 498 496 0
498 552 500 0
549 552 498 0
499 500 551 0
551 500 552 0
506 504 501 0
506 501 556 0
501 554 556 0
501 502 554 0
555 502 503 0
555 554 502 0
503 507 555 0
555 507 559 0
511 509 505 0
562 511 505 0
562 505 504 0
557 562 504 0
506 557 504 0
557 506 556 0
561 559 507 0
561 507 508 0
508 512 561 0
561 512 565 0
515 514 510 0
567 515 510 0
567 510 509 0
563 567 509 0
511 563 509 0
563 511 562 0
566 565 512 0
566 512 513 0
513 516 566 0
566 516 570 0
568 572 515 0
572 514 515 0
572 518 514 0
568 515 567 0
571 570 516 0
571 516 517 0
517 519 571 0
571 519 575 0
522 521 573 0
521 572 573 0
521 518 572 0
577 522 573 0
579 576 520 0
579 520 523 0
519 520 575 0
575 520 576 0
526 525 522 0
522 525 521 0
522 577 581 0
522 581 526 0
580 579 523 0
580 523 524 0
524 527 580 0
580 527 583 0
529 528 526 0
526 528 525 0
526 581 584 0
526 584 529 0
530 583 527 0
530 587 583 0
534 532 529 0
529 532 528 0
529 584 589 0
529 589 534 0
535 536 531 0
536 595 531 0
595 530 531 0
595 587 530 0
534 533 532 0
590 539 537 0
590 537 533 0
589 590 533 0
534 589 533 0
598 539 590 0
605 596 536 0
535 605 536 0
540 605 535 0
536 596 595 0
539 538 537 0
599 544 542 0
599 542 538 0
598 599 538 0
539 598 538 0
608 544 599 0
611 603 547 0
541 545 547 0
603 541 547 0
606 541 603 0
540 541 605 0
605 541 606 0
544 543 542 0
609 550 548 0
609 548 543 0
608 609 543 0
544 608 543 0
612 553 550 0
612 550 609 0
553 612 611 0
553 611 547 0
551 553 547 0
546 551 547 0
546 547 545 0
550 549 548 0
549 550 552 0
552 550 553 0
552 553 551 0
558 556 554 0
555 560 554 0
554 560 558 0
559 560 555 0
564 562 557 0
617 564 557 0
617 557 556 0
614 617 556 0
558 614 556 0
614 558 560 0
614 560 615 0
615 560 559 0
561 615 559 0
616 615 561 0
561 565 616 0
616 565 621 0
569 567 563 0
624 569 563 0
624 563 562 0
618 624 562 0
564 618 562 0
618 564 617 0
623 621 565 0
623 565 566 0
566 570 623 0
623 570 629 0
574 572 568 0
632 574 568 0
632 568 567 0
625 632 567 0
569 625 567 0
625 569 624 0
631 629 570 0
631 570 571 0
571 575 631 0
631 575 637 0
574 573 572 0
633 578 577 0
633 577 573 0
632 633 573 0
574 632 573 0
640 578 633 0
643 638 576 0
643 576 579 0
575 576 637 0
637 576 638 0
582 581 578 0
578 581 577 0
578 640 646 0
578 646 582 0
645 643 579 0
645 579 580 0
580 583 645 0
645 583 651 0
585 584 582 0
582 584 581 0
582 646 647 0
586 582 647 0
585 582 586 0
654 586 647 0
660 652 588 0
652 651 588 0
651 587 588 0
651 583 587 0
591 589 585 0
585 589 584 0
592 585 586 0
591 585 592 0
586 654 655 0
593 586 655 0
592 586 593 0
657 594 593 0
657 593 655 0
662 594 657 0
660 588 597 0
660 597 665 0
595 597 587 0
587 597 588 0
591 590 589 0
590 591 598 0
591 600 598 0
591 592 600 0
601 592 593 0
600 592 601 0
602 593 594 0
601 593 602 0
594 662 663 0
604 594 663 0
602 594 604 0
666 607 604 0
666 604 663 0
607 666 665 0
607 665 597 0
605 607 597 0
596 605 597 0
596 597 595 0
600 599 598 0
599 600 608 0
600 610 608 0
600 601 610 0
613 601 602 0
610 601 613 0
611 613 603 0
613 604 603 0
613 602 604 0
603 604 606 0
606 604 607 0
606 607 605 0
610 609 608 0
609 610 612 0
612 610 613 0
612 613 611 0
619 617 614 0
615 620 614 0
614 620 619 0
616 622 615 0
615 622 620 0
621 622 616 0
626 624 618 0
617 619 618 0
619 626 618 0
619 627 626 0
628 619 620 0
627 619 628 0
622 668 669 0
628 622 669 0
620 622 628 0
671 668 630 0
630 668 623 0
668 622 623 0
622 621 623 0
629 630 623 0
634 632 625 0
624 626 625 0
626 634 625 0
626 635 634 0
636 626 627 0
635 626 636 0
628 670 674 0
636 628 674 0
627 628 636 0
670 628 669 0
673 671 630 0
677 673 639 0
639 673 631 0
673 630 631 0
630 629 631 0
637 639 631 0
634 633 632 0
633 634 640 0
634 641 640 0
634 635 641 0
642 635 636 0
641 635 642 0
636 674 680 0
636 680 642 0
683 678 644 0
644 678 677 0
644 677 639 0
643 644 639 0
638 643 639 0
638 639 637 0
648 646 641 0
641 646 640 0
649 641 642 0
648 641 649 0
642 680 681 0
650 642 681 0
649 642 650 0
686 650 681 0
685 683 644 0
689 685 653 0
653 685 645 0
685 644 645 0
644 643 645 0
651 653 645 0
648 647 646 0
647 648 654 0
648 656 654 0
648 649 656 0
658 649 650 0
656 649 658 0
650 686 687 0
659 650 687 0
658 650 659 0
690 661 659 0
690 659 687 0
661 690 689 0
661 689 653 0
660 661 653 0
652 660 653 0
652 653 651 0
656 655 654 0
655 656 657 0
657 656 658 0
657 658 662 0
658 664 662 0
658 659 664 0
667 659 661 0
664 659 667 0
665 667 660 0
660 667 661 0
664 663 662 0
663 664 666 0
666 664 667 0
666 667 665 0
672 669 668 0
671 672 668 0
675 674 670 0
669 672 670 0
672 675 670 0
672 676 675 0
673 679 671 0
679 672 671 0
679 676 672 0
677 679 673 0
682 680 675 0
675 680 674 0
684 675 676 0
682 675 684 0
683 684 678 0
684 679 678 0
684 676 679 0
678 679 677 0
682 681 680 0
681 682 686 0
682 688 686 0
682 684 688 0
685 691 683 0
691 684 683 0
691 688 684 0
689 691 685 0
688 687 686 0
687 688 690 0
690 688 691 0
690 691 689 0
