#!ascii version in FreeSurfer format (SUMA)
498 992
-6.127495  -49.557014  -16.131744  0
-6.627495  -49.557014  -16.131744  0
-6.627495  -47.557014  -15.631744  0
-7.127495  -47.557014  -15.631744  0
-6.127495  -48.057014  -15.631744  0
-6.627495  -48.057014  -15.631744  0
-7.127495  -48.057014  -15.631744  0
-7.627495  -48.057014  -15.631744  0
-6.127495  -48.557014  -15.631744  0
-6.627495  -48.557014  -15.631744  0
-7.127495  -48.557014  -15.631744  0
-7.627495  -48.557014  -15.631744  0
-6.127495  -49.307014  -15.881744  0
-6.127495  -49.057014  -15.631744  0
-6.627495  -49.307014  -15.881744  0
-6.627495  -49.057014  -15.631744  0
-7.127495  -49.057014  -15.631744  0
-7.627495  -49.057014  -15.631744  0
-5.877495  -49.557014  -15.881744  0
-6.127495  -49.807014  -15.881744  0
-6.877495  -49.557014  -15.881744  0
-6.627495  -49.807014  -15.881744  0
-7.127495  -49.557014  -15.631744  0
-7.627495  -49.557014  -15.631744  0
-6.627495  -50.057014  -15.631744  0
-7.127495  -50.057014  -15.631744  0
-7.627495  -50.057014  -15.631744  0
-7.127495  -50.557014  -15.631744  0
-7.627495  -50.557014  -15.631744  0
-6.627495  -47.307014  -15.381744  0
-6.627495  -47.057014  -15.131744  0
-7.127495  -47.307014  -15.381744  0
-7.127495  -47.057014  -15.131744  0
-7.627495  -47.057014  -15.131744  0
-6.377495  -47.557014  -15.381744  0
-6.127495  -47.807014  -15.381744  0
-7.377495  -47.557014  -15.381744  0
-7.627495  -47.807014  -15.381744  0
-7.627495  -47.557014  -15.131744  0
-5.877495  -48.057014  -15.381744  0
-7.877495  -48.057014  -15.381744  0
-5.877495  -48.557014  -15.381744  0
-7.877495  -48.557014  -15.381744  0
-5.877495  -49.057014  -15.381744  0
-7.877495  -49.057014  -15.381744  0
-8.127495  -49.057014  -15.131744  0
-5.877495  -49.557014  -15.381744  0
-6.127495  -49.807014  -15.381744  0
-6.127495  -49.557014  -15.131744  0
-7.877495  -49.557014  -15.381744  0
-8.127495  -49.557014  -15.131744  0
-8.627495  -49.557014  -15.131744  0
-6.377495  -50.057014  -15.381744  0
-6.627495  -50.307014  -15.381744  0
-7.877495  -50.057014  -15.381744  0
-8.127495  -50.057014  -15.131744  0
-6.877495  -50.557014  -15.381744  0
-7.127495  -50.807014  -15.381744  0
-7.877495  -50.557014  -15.381744  0
-7.627495  -50.807014  -15.381744  0
-7.627495  -51.057014  -15.131744  0
-6.627495  -46.807014  -14.881744  0
-7.127495  -46.807014  -14.881744  0
-7.627495  -46.807014  -14.881744  0
-7.627495  -46.557014  -14.631744  0
-8.127495  -46.557014  -14.631744  0
-8.627495  -46.557014  -14.631744  0
-9.127495  -46.557014  -14.631744  0
-6.377495  -47.057014  -14.881744  0
-7.877495  -47.057014  -14.881744  0
-8.127495  -47.057014  -14.631744  0
-8.627495  -47.057014  -14.631744  0
-9.127495  -47.057014  -14.631744  0
-6.377495  -47.557014  -14.881744  0
-6.127495  -47.807014  -14.881744  0
-7.877495  -47.557014  -14.881744  0
-8.127495  -47.557014  -14.631744  0
-8.627495  -47.557014  -14.631744  0
-9.127495  -47.557014  -14.631744  0
-5.877495  -48.057014  -14.881744  0
-6.127495  -48.057014  -14.631744  0
-7.877495  -48.057014  -14.881744  0
-8.127495  -48.057014  -14.631744  0
-8.627495  -48.057014  -14.631744  0
-9.127495  -48.057014  -14.631744  0
-5.877495  -48.557014  -14.881744  0
-7.877495  -48.557014  -14.881744  0
-8.127495  -48.807014  -14.881744  0
-8.127495  -48.557014  -14.631744  0
-8.627495  -48.557014  -14.631744  0
-9.127495  -48.557014  -14.631744  0
-5.877495  -49.057014  -14.881744  0
-6.127495  -49.307014  -14.881744  0
-6.127495  -49.057014  -14.631744  0
-8.377495  -49.057014  -14.881744  0
-8.627495  -49.307014  -14.881744  0
-8.627495  -49.057014  -14.631744  0
-9.127495  -49.057014  -14.631744  0
-6.377495  -49.557014  -14.881744  0
-8.877495  -49.557014  -14.881744  0
-8.627495  -49.807014  -14.881744  0
-9.127495  -49.557014  -14.631744  0
-6.377495  -50.057014  -14.881744  0
-6.627495  -50.307014  -14.881744  0
-8.377495  -50.057014  -14.881744  0
-8.127495  -50.307014  -14.881744  0
-8.627495  -50.057014  -14.631744  0
-6.877495  -50.557014  -14.881744  0
-7.127495  -50.807014  -14.881744  0
-7.877495  -50.557014  -14.881744  0
-8.127495  -50.557014  -14.631744  0
-7.377495  -51.057014  -14.881744  0
-7.877495  -51.057014  -14.881744  0
-7.627495  -51.307014  -14.881744  0
-8.127495  -51.057014  -14.631744  0
-7.627495  -46.307014  -14.381744  0
-8.127495  -46.307014  -14.381744  0
-8.627495  -46.307014  -14.381744  0
-8.627495  -46.057014  -14.131744  0
-9.127495  -46.307014  -14.381744  0
-9.127495  -46.057014  -14.131744  0
-6.627495  -46.807014  -14.381744  0
-7.377495  -46.557014  -14.381744  0
-7.127495  -46.807014  -14.381744  0
-9.377495  -46.557014  -14.381744  0
-9.627495  -46.557014  -14.131744  0
-6.377495  -47.057014  -14.381744  0
-6.627495  -47.057014  -14.131744  0
-9.377495  -47.057014  -14.381744  0
-6.377495  -47.557014  -14.381744  0
-6.627495  -47.557014  -14.131744  0
-9.377495  -47.557014  -14.381744  0
-6.377495  -48.057014  -14.381744  0
-6.127495  -48.307014  -14.381744  0
-9.377495  -48.057014  -14.381744  0
-5.877495  -48.557014  -14.381744  0
-6.127495  -48.807014  -14.381744  0
-6.127495  -48.557014  -14.131744  0
-9.377495  -48.557014  -14.381744  0
-6.377495  -49.057014  -14.381744  0
-9.377495  -49.057014  -14.381744  0
-9.627495  -49.057014  -14.131744  0
-6.377495  -49.557014  -14.381744  0
-6.627495  -49.557014  -14.131744  0
-9.377495  -49.557014  -14.381744  0
-9.127495  -49.807014  -14.381744  0
-9.627495  -49.557014  -14.131744  0
-6.377495  -50.057014  -14.381744  0
-6.627495  -50.307014  -14.381744  0
-6.627495  -50.057014  -14.131744  0
-8.877495  -50.057014  -14.381744  0
-8.627495  -50.307014  -14.381744  0
-9.127495  -50.057014  -14.131744  0
-6.877495  -50.557014  -14.381744  0
-7.127495  -50.807014  -14.381744  0
-7.127495  -50.557014  -14.131744  0
-8.377495  -50.557014  -14.381744  0
-8.627495  -50.557014  -14.131744  0
-7.377495  -51.057014  -14.381744  0
-7.627495  -51.307014  -14.381744  0
-8.377495  -51.057014  -14.381744  0
-8.127495  -51.307014  -14.381744  0
-8.627495  -51.057014  -14.131744  0
-8.627495  -45.807014  -13.881744  0
-9.127495  -45.807014  -13.881744  0
-7.627495  -46.307014  -13.881744  0
-8.377495  -46.057014  -13.881744  0
-8.127495  -46.307014  -13.881744  0
-9.377495  -46.057014  -13.881744  0
-9.627495  -46.307014  -13.881744  0
-7.377495  -46.557014  -13.881744  0
-7.127495  -46.807014  -13.881744  0
-9.877495  -46.557014  -13.881744  0
-9.627495  -46.807014  -13.881744  0
-10.127495  -46.557014  -13.631744  0
-6.877495  -47.057014  -13.881744  0
-7.127495  -47.057014  -13.631744  0
-9.377495  -47.057014  -13.881744  0
-9.627495  -47.057014  -13.631744  0
-10.127495  -47.057014  -13.631744  0
-6.877495  -47.557014  -13.881744  0
-6.627495  -47.807014  -13.881744  0
-9.377495  -47.557014  -13.881744  0
-9.627495  -47.557014  -13.631744  0
-10.127495  -47.557014  -13.631744  0
-6.377495  -48.057014  -13.881744  0
-6.627495  -48.057014  -13.631744  0
-9.377495  -48.057014  -13.881744  0
-9.627495  -48.057014  -13.631744  0
-10.127495  -48.057014  -13.631744  0
-6.377495  -48.557014  -13.881744  0
-6.627495  -48.557014  -13.631744  0
-9.377495  -48.557014  -13.881744  0
-9.627495  -48.807014  -13.881744  0
-9.627495  -48.557014  -13.631744  0
-10.127495  -48.557014  -13.631744  0
-6.377495  -49.057014  -13.881744  0
-6.627495  -49.307014  -13.881744  0
-6.627495  -49.057014  -13.631744  0
-9.877495  -49.057014  -13.881744  0
-10.127495  -49.057014  -13.631744  0
-6.877495  -49.557014  -13.881744  0
-7.127495  -49.557014  -13.631744  0
-9.877495  -49.557014  -13.881744  0
-9.627495  -49.807014  -13.881744  0
-10.127495  -49.557014  -13.631744  0
-6.877495  -50.057014  -13.881744  0
-7.127495  -50.307014  -13.881744  0
-7.127495  -50.057014  -13.631744  0
-9.377495  -50.057014  -13.881744  0
-9.127495  -50.307014  -13.881744  0
-9.627495  -50.057014  -13.631744  0
-7.377495  -50.557014  -13.881744  0
-7.627495  -50.557014  -13.631744  0
-8.877495  -50.557014  -13.881744  0
-9.127495  -50.557014  -13.631744  0
-7.377495  -51.057014  -13.881744  0
-7.627495  -51.307014  -13.881744  0
-7.627495  -51.057014  -13.631744  0
-8.127495  -51.307014  -13.881744  0
-8.877495  -51.057014  -13.881744  0
-8.627495  -51.307014  -13.881744  0
-8.627495  -45.807014  -13.381744  0
-9.127495  -45.807014  -13.381744  0
-9.127495  -45.557014  -13.131744  0
-9.627495  -45.557014  -13.131744  0
-7.627495  -46.307014  -13.381744  0
-8.377495  -46.057014  -13.381744  0
-8.127495  -46.307014  -13.381744  0
-9.377495  -46.057014  -13.381744  0
-9.627495  -46.307014  -13.381744  0
-9.627495  -46.057014  -13.131744  0
-10.127495  -46.307014  -13.381744  0
-7.377495  -46.557014  -13.381744  0
-7.627495  -46.557014  -13.131744  0
-10.377495  -46.557014  -13.381744  0
-10.627495  -46.557014  -13.131744  0
-7.377495  -47.057014  -13.381744  0
-7.127495  -47.307014  -13.381744  0
-10.377495  -47.057014  -13.381744  0
-10.627495  -47.057014  -13.131744  0
-6.877495  -47.557014  -13.381744  0
-7.127495  -47.557014  -13.131744  0
-10.377495  -47.557014  -13.381744  0
-10.627495  -47.557014  -13.131744  0
-6.877495  -48.057014  -13.381744  0
-7.127495  -48.057014  -13.131744  0
-10.377495  -48.057014  -13.381744  0
-10.627495  -48.057014  -13.131744  0
-11.127495  -48.057014  -13.131744  0
-6.877495  -48.557014  -13.381744  0
-7.127495  -48.557014  -13.131744  0
-10.377495  -48.557014  -13.381744  0
-10.627495  -48.557014  -13.131744  0
-11.127495  -48.557014  -13.131744  0
-6.877495  -49.057014  -13.381744  0
-7.127495  -49.307014  -13.381744  0
-7.127495  -49.057014  -13.131744  0
-10.377495  -49.057014  -13.381744  0
-10.627495  -49.057014  -13.131744  0
-7.377495  -49.557014  -13.381744  0
-7.627495  -49.557014  -13.131744  0
-10.377495  -49.557014  -13.381744  0
-10.127495  -49.807014  -13.381744  0
-10.627495  -49.557014  -13.131744  0
-7.377495  -50.057014  -13.381744  0
-7.627495  -50.307014  -13.381744  0
-7.627495  -50.057014  -13.131744  0
-9.877495  -50.057014  -13.381744  0
-9.627495  -50.307014  -13.381744  0
-10.127495  -50.057014  -13.131744  0
-7.877495  -50.557014  -13.381744  0
-8.127495  -50.557014  -13.131744  0
-9.377495  -50.557014  -13.381744  0
-9.127495  -50.807014  -13.381744  0
-7.877495  -51.057014  -13.381744  0
-8.127495  -51.307014  -13.381744  0
-8.127495  -51.057014  -13.131744  0
-8.877495  -51.057014  -13.381744  0
-8.627495  -51.307014  -13.381744  0
-8.627495  -51.057014  -13.131744  0
-9.127495  -45.307014  -12.881744  0
-9.627495  -45.307014  -12.881744  0
-8.877495  -45.557014  -12.881744  0
-8.627495  -45.807014  -12.881744  0
-9.877495  -45.557014  -12.881744  0
-8.377495  -46.057014  -12.881744  0
-8.127495  -46.307014  -12.881744  0
-9.877495  -46.057014  -12.881744  0
-10.127495  -46.307014  -12.881744  0
-10.627495  -46.307014  -12.881744  0
-7.877495  -46.557014  -12.881744  0
-7.627495  -46.807014  -12.881744  0
-8.127495  -46.557014  -12.631744  0
-10.877495  -46.557014  -12.881744  0
-7.377495  -47.057014  -12.881744  0
-7.627495  -47.057014  -12.631744  0
-10.877495  -47.057014  -12.881744  0
-11.127495  -47.057014  -12.631744  0
-7.377495  -47.557014  -12.881744  0
-7.627495  -47.557014  -12.631744  0
-10.877495  -47.557014  -12.881744  0
-11.127495  -47.807014  -12.881744  0
-7.377495  -48.057014  -12.881744  0
-7.627495  -48.057014  -12.631744  0
-11.377495  -48.057014  -12.881744  0
-7.377495  -48.557014  -12.881744  0
-7.627495  -48.557014  -12.631744  0
-11.377495  -48.557014  -12.881744  0
-11.127495  -48.807014  -12.881744  0
-7.377495  -49.057014  -12.881744  0
-7.627495  -49.307014  -12.881744  0
-7.627495  -49.057014  -12.631744  0
-10.877495  -49.057014  -12.881744  0
-7.877495  -49.557014  -12.881744  0
-8.127495  -49.557014  -12.631744  0
-10.877495  -49.557014  -12.881744  0
-10.627495  -49.807014  -12.881744  0
-7.877495  -50.057014  -12.881744  0
-8.127495  -50.307014  -12.881744  0
-8.127495  -50.057014  -12.631744  0
-8.627495  -50.057014  -12.631744  0
-9.627495  -50.307014  -12.881744  0
-10.377495  -50.057014  -12.881744  0
-10.127495  -50.307014  -12.881744  0
-8.377495  -50.557014  -12.881744  0
-8.627495  -50.807014  -12.881744  0
-8.627495  -50.557014  -12.631744  0
-9.377495  -50.557014  -12.881744  0
-9.127495  -50.807014  -12.881744  0
-9.127495  -50.557014  -12.631744  0
-9.127495  -45.307014  -12.381744  0
-9.627495  -45.307014  -12.381744  0
-8.877495  -45.557014  -12.381744  0
-8.627495  -45.807014  -12.381744  0
-9.127495  -45.557014  -12.131744  0
-9.877495  -45.557014  -12.381744  0
-9.627495  -45.557014  -12.131744  0
-8.377495  -46.057014  -12.381744  0
-8.627495  -46.057014  -12.131744  0
-9.877495  -46.057014  -12.381744  0
-10.127495  -46.307014  -12.381744  0
-10.127495  -46.057014  -12.131744  0
-10.627495  -46.307014  -12.381744  0
-8.377495  -46.557014  -12.381744  0
-8.127495  -46.807014  -12.381744  0
-10.877495  -46.557014  -12.381744  0
-11.127495  -46.807014  -12.381744  0
-7.877495  -47.057014  -12.381744  0
-8.127495  -47.057014  -12.131744  0
-11.377495  -47.057014  -12.381744  0
-11.127495  -47.307014  -12.381744  0
-7.877495  -47.557014  -12.381744  0
-8.127495  -47.557014  -12.131744  0
-10.877495  -47.557014  -12.381744  0
-11.127495  -47.807014  -12.381744  0
-7.877495  -48.057014  -12.381744  0
-8.127495  -48.057014  -12.131744  0
-11.377495  -48.057014  -12.381744  0
-7.877495  -48.557014  -12.381744  0
-8.127495  -48.557014  -12.131744  0
-11.377495  -48.557014  -12.381744  0
-11.127495  -48.807014  -12.381744  0
-7.877495  -49.057014  -12.381744  0
-8.127495  -49.307014  -12.381744  0
-8.127495  -49.057014  -12.131744  0
-10.877495  -49.057014  -12.381744  0
-8.377495  -49.557014  -12.381744  0
-8.627495  -49.807014  -12.381744  0
-8.627495  -49.557014  -12.131744  0
-10.877495  -49.557014  -12.381744  0
-10.627495  -49.807014  -12.381744  0
-8.877495  -50.057014  -12.381744  0
-9.127495  -50.307014  -12.381744  0
-9.127495  -50.057014  -12.131744  0
-9.627495  -50.307014  -12.381744  0
-10.377495  -50.057014  -12.381744  0
-10.127495  -50.307014  -12.381744  0
-9.127495  -45.807014  -11.881744  0
-9.627495  -45.807014  -11.881744  0
-10.127495  -45.807014  -11.881744  0
-8.877495  -46.057014  -11.881744  0
-8.627495  -46.307014  -11.881744  0
-9.127495  -46.057014  -11.631744  0
-10.377495  -46.057014  -11.881744  0
-10.627495  -46.307014  -11.881744  0
-8.377495  -46.557014  -11.881744  0
-8.627495  -46.557014  -11.631744  0
-10.877495  -46.557014  -11.881744  0
-11.127495  -46.807014  -11.881744  0
-8.377495  -47.057014  -11.881744  0
-11.377495  -47.057014  -11.881744  0
-11.127495  -47.307014  -11.881744  0
-8.377495  -47.557014  -11.881744  0
-8.627495  -47.557014  -11.631744  0
-10.877495  -47.557014  -11.881744  0
-11.127495  -47.807014  -11.881744  0
-8.377495  -48.057014  -11.881744  0
-8.627495  -48.057014  -11.631744  0
-11.377495  -48.057014  -11.881744  0
-8.377495  -48.557014  -11.881744  0
-8.627495  -48.557014  -11.631744  0
-9.127495  -48.557014  -11.631744  0
-11.377495  -48.557014  -11.881744  0
-11.127495  -48.807014  -11.881744  0
-8.377495  -49.057014  -11.881744  0
-8.627495  -49.307014  -11.881744  0
-8.627495  -49.057014  -11.631744  0
-9.127495  -49.057014  -11.631744  0
-9.627495  -49.057014  -11.631744  0
-10.127495  -49.057014  -11.631744  0
-10.877495  -49.057014  -11.881744  0
-11.127495  -49.057014  -11.631744  0
-8.877495  -49.557014  -11.881744  0
-9.127495  -49.807014  -11.881744  0
-9.127495  -49.557014  -11.631744  0
-9.627495  -49.557014  -11.631744  0
-10.127495  -49.557014  -11.631744  0
-10.877495  -49.557014  -11.881744  0
-10.627495  -49.807014  -11.881744  0
-10.627495  -49.557014  -11.631744  0
-9.377495  -50.057014  -11.881744  0
-9.627495  -50.307014  -11.881744  0
-9.627495  -50.057014  -11.631744  0
-10.377495  -50.057014  -11.881744  0
-10.127495  -50.307014  -11.881744  0
-10.127495  -50.057014  -11.631744  0
-9.627495  -45.807014  -11.381744  0
-10.127495  -45.807014  -11.381744  0
-9.377495  -46.057014  -11.381744  0
-9.127495  -46.307014  -11.381744  0
-9.627495  -46.057014  -11.131744  0
-10.377495  -46.057014  -11.381744  0
-10.127495  -46.057014  -11.131744  0
-10.627495  -46.307014  -11.381744  0
-8.877495  -46.557014  -11.381744  0
-8.627495  -46.807014  -11.381744  0
-9.127495  -46.557014  -11.131744  0
-9.627495  -46.557014  -11.131744  0
-10.127495  -46.557014  -11.131744  0
-10.877495  -46.557014  -11.381744  0
-11.127495  -46.807014  -11.381744  0
-8.377495  -47.057014  -11.381744  0
-8.627495  -47.307014  -11.381744  0
-8.627495  -47.057014  -11.131744  0
-9.127495  -47.057014  -11.131744  0
-9.627495  -47.057014  -11.131744  0
-11.377495  -47.057014  -11.381744  0
-11.127495  -47.307014  -11.381744  0
-8.877495  -47.557014  -11.381744  0
-9.127495  -47.557014  -11.131744  0
-9.627495  -47.557014  -11.131744  0
-10.877495  -47.557014  -11.381744  0
-11.127495  -47.807014  -11.381744  0
-8.877495  -48.057014  -11.381744  0
-9.127495  -48.307014  -11.381744  0
-9.127495  -48.057014  -11.131744  0
-9.627495  -48.057014  -11.131744  0
-10.127495  -48.057014  -11.131744  0
-11.377495  -48.057014  -11.381744  0
-9.377495  -48.557014  -11.381744  0
-9.627495  -48.807014  -11.381744  0
-9.627495  -48.557014  -11.131744  0
-10.127495  -48.807014  -11.381744  0
-10.127495  -48.557014  -11.131744  0
-10.627495  -48.557014  -11.131744  0
-11.377495  -48.557014  -11.381744  0
-11.127495  -48.557014  -11.131744  0
-10.377495  -49.057014  -11.381744  0
-10.627495  -49.307014  -11.381744  0
-10.627495  -49.057014  -11.131744  0
-11.377495  -49.057014  -11.381744  0
-11.127495  -49.307014  -11.381744  0
-11.127495  -49.057014  -11.131744  0
-10.627495  -46.307014  -10.881744  0
-10.377495  -46.557014  -10.881744  0
-10.127495  -46.807014  -10.881744  0
-10.877495  -46.557014  -10.881744  0
-10.627495  -46.557014  -10.631744  0
-11.127495  -46.807014  -10.881744  0
-9.877495  -47.057014  -10.881744  0
-10.127495  -47.057014  -10.631744  0
-10.627495  -47.057014  -10.631744  0
-11.377495  -47.057014  -10.881744  0
-11.127495  -47.307014  -10.881744  0
-11.127495  -47.057014  -10.631744  0
-9.877495  -47.557014  -10.881744  0
-10.127495  -47.807014  -10.881744  0
-10.127495  -47.557014  -10.631744  0
-10.877495  -47.557014  -10.881744  0
-10.627495  -47.557014  -10.631744  0
-11.127495  -47.807014  -10.881744  0
-10.377495  -48.057014  -10.881744  0
-10.627495  -48.307014  -10.881744  0
-10.627495  -48.057014  -10.631744  0
-11.377495  -48.057014  -10.881744  0
-11.127495  -48.307014  -10.881744  0
-11.127495  -48.057014  -10.631744  0
12 18 0 0
1 14 0 0
0 14 12 0
1 20 14 0
18 19 0 0
0 19 1 0
1 19 21 0
1 21 20 0
29 34 2 0
3 31 2 0
2 31 29 0
3 36 31 0
35 39 4 0
35 4 34 0
4 2 34 0
4 5 2 0
2 6 3 0
2 5 6 0
36 3 37 0
3 7 37 0
3 6 7 0
7 40 37 0
4 39 8 0
8 39 41 0
4 9 5 0
4 8 9 0
5 10 6 0
5 9 10 0
6 11 7 0
6 10 11 0
40 7 42 0
42 7 11 0
8 41 13 0
13 41 43 0
8 15 9 0
8 13 15 0
9 16 10 0
9 15 16 0
10 17 11 0
10 16 17 0
42 11 44 0
44 11 17 0
13 43 12 0
43 18 12 0
43 46 18 0
13 12 14 0
13 14 15 0
15 14 20 0
22 15 20 0
16 15 22 0
16 23 17 0
16 22 23 0
44 17 49 0
49 17 23 0
46 47 18 0
18 47 19 0
47 52 24 0
21 47 24 0
19 47 21 0
22 20 21 0
24 22 21 0
25 22 24 0
22 26 23 0
22 25 26 0
49 23 54 0
54 23 26 0
52 53 24 0
56 27 53 0
27 24 53 0
27 25 24 0
25 28 26 0
25 27 28 0
54 26 58 0
58 26 28 0
56 57 27 0
27 57 28 0
28 57 59 0
28 59 58 0
61 68 30 0
32 62 30 0
30 62 61 0
33 63 32 0
32 63 62 0
33 69 63 0
30 68 29 0
68 34 29 0
68 73 34 0
30 29 31 0
30 31 32 0
32 31 36 0
38 32 36 0
33 32 38 0
69 33 75 0
75 33 38 0
74 79 35 0
35 79 39 0
35 34 73 0
35 73 74 0
37 38 36 0
37 40 38 0
40 75 38 0
40 81 75 0
79 41 39 0
85 41 79 0
42 81 40 0
42 86 81 0
85 43 41 0
91 43 85 0
44 45 87 0
86 44 87 0
42 44 86 0
45 94 87 0
48 46 92 0
46 91 92 0
46 43 91 0
98 48 92 0
49 50 45 0
49 45 44 0
94 45 95 0
45 51 95 0
45 50 51 0
51 99 95 0
48 47 46 0
52 47 48 0
98 52 48 0
102 52 98 0
54 55 50 0
54 50 49 0
100 51 104 0
51 55 104 0
51 50 55 0
51 100 99 0
102 103 52 0
52 103 53 0
56 53 103 0
56 103 107 0
109 105 55 0
54 109 55 0
58 109 54 0
55 105 104 0
107 108 56 0
56 108 57 0
108 111 60 0
59 108 60 0
57 108 59 0
60 112 59 0
112 58 59 0
112 109 58 0
111 113 60 0
60 113 112 0
115 122 64 0
65 116 64 0
64 116 115 0
66 117 65 0
65 117 116 0
67 119 66 0
66 119 117 0
67 124 119 0
121 126 61 0
61 126 68 0
123 61 62 0
123 121 61 0
63 64 122 0
123 63 122 0
62 63 123 0
64 63 69 0
70 64 69 0
65 64 70 0
65 71 66 0
65 70 71 0
66 72 67 0
66 71 72 0
124 67 128 0
128 67 72 0
126 73 68 0
129 73 126 0
75 76 70 0
75 70 69 0
70 77 71 0
70 76 77 0
71 78 72 0
71 77 78 0
128 72 131 0
131 72 78 0
80 79 74 0
132 80 74 0
73 132 74 0
129 132 73 0
81 82 76 0
81 76 75 0
76 83 77 0
76 82 83 0
77 84 78 0
77 83 84 0
131 78 134 0
134 78 84 0
133 135 80 0
135 79 80 0
135 85 79 0
133 80 132 0
86 88 82 0
86 82 81 0
82 89 83 0
82 88 89 0
83 90 84 0
83 89 90 0
134 84 138 0
138 84 90 0
93 91 136 0
91 135 136 0
91 85 135 0
139 93 136 0
87 88 86 0
88 87 94 0
96 88 94 0
89 88 96 0
89 97 90 0
89 96 97 0
138 90 140 0
140 90 97 0
93 92 91 0
98 92 93 0
139 98 93 0
142 98 139 0
95 96 94 0
96 95 99 0
101 96 99 0
97 96 101 0
140 97 144 0
144 97 101 0
142 102 98 0
147 102 142 0
104 106 100 0
106 150 100 0
100 150 99 0
150 145 99 0
145 101 99 0
101 145 144 0
147 148 102 0
102 148 103 0
107 103 148 0
107 148 153 0
109 110 105 0
110 156 105 0
105 156 104 0
156 151 104 0
151 106 104 0
106 151 150 0
153 154 107 0
107 154 108 0
111 108 154 0
111 154 158 0
112 114 110 0
112 110 109 0
156 110 160 0
160 110 114 0
158 159 111 0
111 159 113 0
112 113 114 0
113 161 114 0
113 159 161 0
114 161 160 0
163 166 118 0
120 164 118 0
118 164 163 0
120 168 164 0
165 170 115 0
115 170 122 0
167 115 116 0
167 165 115 0
117 118 166 0
167 117 166 0
116 117 167 0
118 117 119 0
118 119 120 0
125 169 124 0
124 169 119 0
169 168 119 0
168 120 119 0
125 172 169 0
127 126 121 0
127 121 175 0
121 171 175 0
121 123 171 0
123 122 170 0
123 170 171 0
177 173 125 0
124 177 125 0
128 177 124 0
125 173 172 0
130 129 127 0
127 129 126 0
127 175 180 0
127 180 130 0
131 177 128 0
131 182 177 0
181 185 130 0
185 129 130 0
185 132 129 0
181 130 180 0
134 182 131 0
134 187 182 0
137 135 133 0
190 137 133 0
132 190 133 0
185 190 132 0
138 187 134 0
138 192 187 0
137 136 135 0
139 136 137 0
190 139 137 0
196 139 190 0
140 141 193 0
192 140 193 0
138 140 192 0
141 199 193 0
143 142 197 0
142 196 197 0
142 139 196 0
201 143 197 0
144 146 141 0
144 141 140 0
199 141 203 0
203 141 146 0
149 147 143 0
143 147 142 0
143 201 206 0
143 206 149 0
150 152 145 0
152 209 145 0
145 209 144 0
209 204 144 0
204 146 144 0
146 204 203 0
149 148 147 0
207 155 153 0
207 153 148 0
206 207 148 0
149 206 148 0
212 155 207 0
156 157 151 0
157 214 151 0
151 214 150 0
214 210 150 0
210 152 150 0
152 210 209 0
155 154 153 0
158 154 155 0
212 158 155 0
216 158 212 0
160 162 157 0
160 157 156 0
214 157 220 0
220 157 162 0
216 217 158 0
158 217 159 0
159 219 161 0
217 219 159 0
160 161 162 0
161 221 162 0
161 219 221 0
162 221 220 0
222 227 163 0
163 227 166 0
223 163 164 0
223 222 163 0
164 168 223 0
223 168 229 0
226 233 165 0
165 233 170 0
228 165 167 0
228 226 165 0
167 166 227 0
167 227 228 0
230 229 168 0
230 168 169 0
174 232 172 0
232 169 172 0
232 230 169 0
174 235 232 0
176 175 171 0
237 176 171 0
170 237 171 0
233 237 170 0
177 178 173 0
174 172 173 0
178 174 173 0
179 174 178 0
235 174 239 0
239 174 179 0
238 241 176 0
241 175 176 0
241 180 175 0
238 176 237 0
182 183 178 0
182 178 177 0
178 184 179 0
178 183 184 0
239 179 243 0
243 179 184 0
186 185 181 0
245 186 181 0
180 245 181 0
241 245 180 0
187 188 183 0
187 183 182 0
183 189 184 0
183 188 189 0
243 184 247 0
247 184 189 0
191 190 186 0
186 190 185 0
186 245 250 0
186 250 191 0
192 194 188 0
192 188 187 0
188 195 189 0
188 194 195 0
247 189 252 0
252 189 195 0
198 196 191 0
191 196 190 0
191 250 255 0
191 255 198 0
193 194 192 0
194 193 199 0
200 194 199 0
195 194 200 0
252 195 258 0
258 195 200 0
198 197 196 0
256 202 201 0
256 201 197 0
255 256 197 0
198 255 197 0
260 202 256 0
203 205 200 0
203 200 199 0
258 200 262 0
262 200 205 0
208 206 202 0
202 206 201 0
202 260 265 0
202 265 208 0
209 211 204 0
211 268 204 0
204 268 203 0
268 263 203 0
263 205 203 0
205 263 262 0
208 207 206 0
266 213 212 0
266 212 207 0
265 266 207 0
208 265 207 0
271 213 266 0
214 215 210 0
215 273 210 0
210 273 209 0
273 269 209 0
269 211 209 0
211 269 268 0
218 216 213 0
213 216 212 0
213 271 275 0
213 275 218 0
278 274 215 0
214 278 215 0
220 278 214 0
215 274 273 0
218 217 216 0
275 276 218 0
276 217 218 0
276 219 217 0
219 279 221 0
276 279 219 0
220 221 278 0
278 221 279 0
281 283 224 0
225 282 224 0
224 282 281 0
225 285 282 0
284 286 222 0
222 286 227 0
223 224 283 0
284 223 283 0
222 223 284 0
224 223 229 0
231 224 229 0
225 224 231 0
285 225 288 0
288 225 231 0
234 233 226 0
234 226 291 0
226 287 291 0
226 228 287 0
228 227 286 0
228 286 287 0
230 231 229 0
289 288 231 0
230 289 231 0
232 289 230 0
236 290 235 0
290 232 235 0
290 289 232 0
236 294 290 0
292 295 234 0
295 233 234 0
295 237 233 0
292 234 291 0
239 240 236 0
239 236 235 0
294 236 297 0
297 236 240 0
242 241 238 0
299 242 238 0
237 299 238 0
295 299 237 0
243 244 240 0
243 240 239 0
297 240 301 0
301 240 244 0
246 245 242 0
242 245 241 0
242 299 303 0
242 303 246 0
247 248 244 0
247 244 243 0
301 244 302 0
244 249 302 0
244 248 249 0
249 305 302 0
251 250 246 0
246 250 245 0
246 303 306 0
246 306 251 0
252 253 248 0
252 248 247 0
248 254 249 0
248 253 254 0
305 249 308 0
308 249 254 0
257 255 251 0
251 255 250 0
251 306 310 0
251 310 257 0
258 259 253 0
258 253 252 0
309 254 313 0
254 259 313 0
254 253 259 0
254 309 308 0
257 256 255 0
311 261 260 0
311 260 256 0
310 311 256 0
257 310 256 0
314 261 311 0
262 264 259 0
262 259 258 0
313 259 316 0
316 259 264 0
267 265 261 0
261 265 260 0
261 314 318 0
261 318 267 0
268 270 263 0
270 323 263 0
263 323 262 0
323 317 262 0
317 264 262 0
264 317 316 0
267 266 265 0
319 272 271 0
319 271 266 0
318 319 266 0
267 318 266 0
325 272 319 0
328 322 269 0
328 269 273 0
268 269 270 0
269 324 270 0
269 322 324 0
270 324 323 0
277 275 272 0
272 275 271 0
272 325 326 0
280 272 326 0
277 272 280 0
274 278 280 0
326 274 280 0
329 274 326 0
273 274 328 0
328 274 329 0
277 276 275 0
276 277 279 0
279 277 280 0
279 280 278 0
331 333 281 0
281 333 283 0
332 281 282 0
332 331 281 0
282 285 332 0
332 285 336 0
334 338 284 0
284 338 286 0
284 283 333 0
284 333 334 0
288 336 285 0
288 340 336 0
293 291 287 0
344 293 287 0
286 344 287 0
338 344 286 0
341 340 288 0
341 288 289 0
343 289 290 0
343 341 289 0
290 294 343 0
343 294 346 0
296 295 292 0
348 296 292 0
348 292 291 0
345 348 291 0
293 345 291 0
345 293 344 0
297 298 347 0
346 297 347 0
294 297 346 0
298 350 347 0
300 299 296 0
296 299 295 0
296 348 352 0
296 352 300 0
354 351 298 0
297 354 298 0
301 354 297 0
298 351 350 0
304 303 300 0
300 303 299 0
300 352 356 0
300 356 304 0
355 354 301 0
355 301 302 0
302 305 355 0
355 305 358 0
307 306 304 0
304 306 303 0
304 356 359 0
304 359 307 0
308 358 305 0
308 361 358 0
312 310 307 0
307 310 306 0
307 359 363 0
307 363 312 0
366 362 309 0
366 309 313 0
308 309 361 0
361 309 362 0
312 311 310 0
364 315 314 0
364 314 311 0
363 364 311 0
312 363 311 0
367 315 364 0
316 366 313 0
316 370 366 0
320 318 315 0
315 318 314 0
315 367 368 0
321 315 368 0
320 315 321 0
372 321 368 0
376 371 317 0
376 317 323 0
316 317 370 0
370 317 371 0
320 319 318 0
319 320 325 0
320 327 325 0
320 321 327 0
321 372 373 0
330 321 373 0
327 321 330 0
322 328 330 0
373 322 330 0
375 322 373 0
322 377 324 0
375 377 322 0
323 324 376 0
376 324 377 0
327 326 325 0
326 327 329 0
329 327 330 0
329 330 328 0
335 333 331 0
332 337 331 0
331 337 335 0
336 337 332 0
339 338 334 0
381 339 334 0
381 334 333 0
378 381 333 0
335 378 333 0
378 335 337 0
378 337 379 0
336 340 337 0
340 380 337 0
380 379 337 0
380 340 342 0
342 384 380 0
382 386 339 0
386 338 339 0
386 344 338 0
382 339 381 0
341 342 340 0
385 384 342 0
341 385 342 0
343 385 341 0
343 346 385 0
385 346 388 0
349 348 345 0
390 349 345 0
344 390 345 0
386 390 344 0
389 388 346 0
389 346 347 0
347 350 389 0
389 350 391 0
353 352 349 0
349 352 348 0
349 390 393 0
349 393 353 0
395 392 351 0
395 351 354 0
350 351 391 0
391 351 392 0
357 356 353 0
353 356 352 0
353 393 397 0
353 397 357 0
396 395 354 0
396 354 355 0
355 358 396 0
396 358 399 0
360 359 357 0
357 359 356 0
357 397 400 0
357 400 360 0
361 399 358 0
361 403 399 0
365 363 360 0
360 363 359 0
360 400 405 0
360 405 365 0
411 404 362 0
411 362 366 0
361 362 403 0
403 362 404 0
365 364 363 0
406 369 367 0
406 367 364 0
405 406 364 0
365 405 364 0
413 369 406 0
370 411 366 0
370 418 411 0
369 368 367 0
414 374 372 0
414 372 368 0
413 414 368 0
369 413 368 0
421 374 414 0
424 419 371 0
424 371 376 0
370 371 418 0
418 371 419 0
374 373 372 0
421 422 374 0
422 373 374 0
422 375 373 0
375 425 377 0
422 425 375 0
376 377 424 0
424 377 425 0
383 381 378 0
383 378 429 0
378 427 429 0
378 379 427 0
428 379 380 0
428 427 379 0
380 384 428 0
428 384 432 0
387 386 382 0
435 387 382 0
435 382 381 0
430 435 381 0
383 430 381 0
430 383 429 0
434 432 384 0
434 384 385 0
385 388 434 0
434 388 440 0
436 442 387 0
442 386 387 0
442 390 386 0
436 387 435 0
441 440 388 0
441 388 389 0
389 391 441 0
441 391 447 0
394 393 443 0
393 442 443 0
393 390 442 0
449 394 443 0
452 448 392 0
452 392 395 0
391 392 447 0
447 392 448 0
398 397 394 0
394 397 393 0
394 449 454 0
394 454 398 0
453 452 395 0
453 395 396 0
396 399 453 0
453 399 459 0
401 400 398 0
398 400 397 0
398 454 455 0
402 398 455 0
401 398 402 0
460 402 455 0
403 459 399 0
403 466 459 0
407 405 401 0
401 405 400 0
408 401 402 0
407 401 408 0
402 460 461 0
409 402 461 0
408 402 409 0
463 410 409 0
463 409 461 0
468 410 463 0
411 412 404 0
412 471 404 0
471 403 404 0
471 466 403 0
407 406 405 0
406 407 413 0
407 415 413 0
407 408 415 0
416 408 409 0
415 408 416 0
417 409 410 0
416 409 417 0
410 468 469 0
420 410 469 0
417 410 420 0
469 472 412 0
418 469 412 0
411 418 412 0
420 469 418 0
412 472 471 0
415 414 413 0
414 415 421 0
415 423 421 0
415 416 423 0
426 416 417 0
423 416 426 0
424 426 419 0
426 420 419 0
426 417 420 0
419 420 418 0
423 422 421 0
422 423 425 0
425 423 426 0
425 426 424 0
431 429 427 0
428 433 427 0
427 433 431 0
432 433 428 0
437 435 430 0
429 431 430 0
431 437 430 0
431 438 437 0
439 431 433 0
438 431 439 0
439 433 432 0
474 439 432 0
434 474 432 0
475 439 474 0
434 440 474 0
474 440 477 0
444 442 436 0
435 437 436 0
437 444 436 0
437 445 444 0
446 437 438 0
445 437 446 0
439 476 480 0
446 439 480 0
438 439 446 0
476 439 475 0
479 477 440 0
479 440 441 0
441 447 479 0
479 447 483 0
444 443 442 0
443 444 449 0
444 450 449 0
444 445 450 0
451 445 446 0
450 445 451 0
446 480 486 0
446 486 451 0
489 484 448 0
489 448 452 0
447 448 483 0
483 448 484 0
456 454 450 0
450 454 449 0
457 450 451 0
456 450 457 0
451 486 487 0
458 451 487 0
457 451 458 0
492 458 487 0
491 489 452 0
491 452 453 0
453 459 491 0
491 459 495 0
456 455 454 0
455 456 460 0
456 462 460 0
456 457 462 0
464 457 458 0
462 457 464 0
458 492 493 0
465 458 493 0
464 458 465 0
496 467 465 0
496 465 493 0
496 495 467 0
495 466 467 0
495 459 466 0
462 461 460 0
461 462 463 0
463 462 464 0
463 464 468 0
464 470 468 0
464 465 470 0
473 465 467 0
470 465 473 0
471 473 466 0
466 473 467 0
470 469 468 0
469 470 472 0
472 470 473 0
472 473 471 0
478 475 474 0
477 478 474 0
481 480 476 0
475 478 476 0
478 481 476 0
478 482 481 0
479 485 477 0
485 478 477 0
485 482 478 0
483 485 479 0
488 486 481 0
481 486 480 0
490 481 482 0
488 481 490 0
489 490 484 0
490 485 484 0
490 482 485 0
484 485 483 0
488 487 486 0
487 488 492 0
488 494 492 0
488 490 494 0
491 497 489 0
497 490 489 0
497 494 490 0
495 497 491 0
494 493 492 0
493 494 496 0
496 494 497 0
496 497 495 0
