#!ascii version in FreeSurfer format (SUMA)
586 1170
6.872505  -49.057014  -16.631744  0
6.372505  -49.057014  -16.631744  0
5.872505  -49.057014  -16.631744  0
6.872505  -49.557014  -16.631744  0
6.372505  -49.557014  -16.631744  0
5.872505  -49.557014  -16.631744  0
6.872505  -48.807014  -16.381744  0
6.872505  -48.557014  -16.131744  0
6.372505  -48.807014  -16.381744  0
6.372505  -48.557014  -16.131744  0
5.872505  -48.807014  -16.381744  0
7.872505  -49.057014  -16.131744  0
7.122505  -49.057014  -16.381744  0
7.372505  -49.057014  -16.131744  0
5.622505  -49.057014  -16.381744  0
7.122505  -49.557014  -16.381744  0
7.372505  -49.557014  -16.131744  0
6.872505  -49.807014  -16.381744  0
6.372505  -49.807014  -16.381744  0
5.622505  -49.557014  -16.381744  0
5.872505  -49.807014  -16.381744  0
6.872505  -50.057014  -16.131744  0
6.372505  -50.057014  -16.131744  0
6.872505  -50.557014  -16.131744  0
6.372505  -50.557014  -16.131744  0
7.372505  -46.557014  -15.631744  0
7.372505  -47.057014  -15.631744  0
6.872505  -47.057014  -15.631744  0
6.372505  -47.057014  -15.631744  0
7.872505  -47.557014  -15.631744  0
7.372505  -47.557014  -15.631744  0
6.872505  -47.557014  -15.631744  0
6.372505  -47.557014  -15.631744  0
8.372505  -48.057014  -15.631744  0
7.872505  -48.057014  -15.631744  0
7.372505  -48.057014  -15.631744  0
6.872505  -48.307014  -15.881744  0
6.872505  -48.057014  -15.631744  0
6.372505  -48.307014  -15.881744  0
6.372505  -48.057014  -15.631744  0
8.372505  -48.557014  -15.631744  0
7.872505  -48.807014  -15.881744  0
7.872505  -48.557014  -15.631744  0
7.122505  -48.557014  -15.881744  0
7.372505  -48.807014  -15.881744  0
7.372505  -48.557014  -15.631744  0
6.122505  -48.557014  -15.881744  0
5.872505  -48.807014  -15.881744  0
8.122505  -49.057014  -15.881744  0
8.372505  -49.057014  -15.631744  0
7.872505  -49.307014  -15.881744  0
5.622505  -49.057014  -15.881744  0
5.872505  -49.057014  -15.631744  0
8.872505  -49.557014  -15.631744  0
8.372505  -49.557014  -15.631744  0
7.622505  -49.557014  -15.881744  0
7.872505  -49.557014  -15.631744  0
7.372505  -49.807014  -15.881744  0
5.622505  -49.557014  -15.881744  0
5.872505  -49.807014  -15.881744  0
8.372505  -50.057014  -15.631744  0
7.872505  -50.057014  -15.631744  0
7.122505  -50.057014  -15.881744  0
7.372505  -50.057014  -15.631744  0
6.122505  -50.057014  -15.881744  0
8.872505  -50.557014  -15.631744  0
8.372505  -50.557014  -15.631744  0
7.872505  -50.557014  -15.631744  0
7.122505  -50.557014  -15.881744  0
7.372505  -50.557014  -15.631744  0
6.872505  -50.807014  -15.881744  0
6.122505  -50.557014  -15.881744  0
6.372505  -50.807014  -15.881744  0
8.372505  -46.057014  -15.131744  0
7.372505  -46.307014  -15.381744  0
8.372505  -46.557014  -15.131744  0
7.622505  -46.557014  -15.381744  0
7.872505  -46.557014  -15.131744  0
7.122505  -46.557014  -15.381744  0
6.872505  -46.807014  -15.381744  0
6.372505  -46.807014  -15.381744  0
8.872505  -47.057014  -15.131744  0
8.372505  -47.057014  -15.131744  0
7.622505  -47.057014  -15.381744  0
7.872505  -47.307014  -15.381744  0
7.872505  -47.057014  -15.131744  0
6.122505  -47.057014  -15.381744  0
8.872505  -47.557014  -15.131744  0
8.122505  -47.557014  -15.381744  0
8.372505  -47.807014  -15.381744  0
8.372505  -47.557014  -15.131744  0
6.122505  -47.557014  -15.381744  0
8.622505  -48.057014  -15.381744  0
8.872505  -48.057014  -15.131744  0
6.122505  -48.057014  -15.381744  0
8.622505  -48.557014  -15.381744  0
8.872505  -48.557014  -15.131744  0
6.122505  -48.557014  -15.381744  0
8.622505  -49.057014  -15.381744  0
8.872505  -49.307014  -15.381744  0
8.872505  -49.057014  -15.131744  0
6.122505  -49.057014  -15.381744  0
5.872505  -49.307014  -15.381744  0
9.122505  -49.557014  -15.381744  0
9.372505  -49.557014  -15.131744  0
8.872505  -49.807014  -15.381744  0
5.622505  -49.557014  -15.381744  0
5.872505  -49.807014  -15.381744  0
5.872505  -49.557014  -15.131744  0
9.372505  -50.057014  -15.131744  0
8.622505  -50.057014  -15.381744  0
8.872505  -50.307014  -15.381744  0
8.872505  -50.057014  -15.131744  0
6.122505  -50.057014  -15.381744  0
6.372505  -50.057014  -15.131744  0
9.122505  -50.557014  -15.381744  0
9.372505  -50.557014  -15.131744  0
8.872505  -50.807014  -15.381744  0
8.372505  -50.807014  -15.381744  0
7.872505  -50.807014  -15.381744  0
7.372505  -50.807014  -15.381744  0
6.872505  -50.807014  -15.381744  0
6.122505  -50.557014  -15.381744  0
6.372505  -50.807014  -15.381744  0
6.372505  -50.557014  -15.131744  0
8.372505  -51.057014  -15.131744  0
7.872505  -51.057014  -15.131744  0
7.372505  -51.057014  -15.131744  0
6.872505  -51.057014  -15.131744  0
7.372505  -51.557014  -15.131744  0
7.372505  -52.057014  -15.131744  0
9.372505  -45.557014  -14.631744  0
8.872505  -45.557014  -14.631744  0
8.372505  -45.807014  -14.881744  0
9.372505  -46.057014  -14.631744  0
8.622505  -46.057014  -14.881744  0
8.872505  -46.057014  -14.631744  0
8.122505  -46.057014  -14.881744  0
7.872505  -46.307014  -14.881744  0
7.372505  -46.307014  -14.881744  0
9.372505  -46.557014  -14.631744  0
8.622505  -46.557014  -14.881744  0
8.872505  -46.807014  -14.881744  0
8.872505  -46.557014  -14.631744  0
7.122505  -46.557014  -14.881744  0
7.372505  -46.557014  -14.631744  0
6.872505  -46.807014  -14.881744  0
6.372505  -46.807014  -14.881744  0
9.122505  -47.057014  -14.881744  0
9.372505  -47.057014  -14.631744  0
6.872505  -47.057014  -14.631744  0
6.122505  -47.057014  -14.881744  0
6.372505  -47.057014  -14.631744  0
9.122505  -47.557014  -14.881744  0
9.372505  -47.557014  -14.631744  0
6.122505  -47.557014  -14.881744  0
6.372505  -47.557014  -14.631744  0
9.122505  -48.057014  -14.881744  0
9.372505  -48.057014  -14.631744  0
6.122505  -48.057014  -14.881744  0
9.122505  -48.557014  -14.881744  0
9.372505  -48.557014  -14.631744  0
6.122505  -48.557014  -14.881744  0
9.122505  -49.057014  -14.881744  0
9.372505  -49.307014  -14.881744  0
9.372505  -49.057014  -14.631744  0
6.122505  -49.057014  -14.881744  0
6.372505  -49.057014  -14.631744  0
9.622505  -49.557014  -14.881744  0
9.872505  -49.557014  -14.631744  0
6.122505  -49.557014  -14.881744  0
6.372505  -49.807014  -14.881744  0
6.372505  -49.557014  -14.631744  0
9.622505  -50.057014  -14.881744  0
9.872505  -50.057014  -14.631744  0
6.622505  -50.057014  -14.881744  0
9.622505  -50.557014  -14.881744  0
9.372505  -50.807014  -14.881744  0
8.872505  -50.807014  -14.881744  0
6.622505  -50.557014  -14.881744  0
8.622505  -51.057014  -14.881744  0
8.872505  -51.057014  -14.631744  0
8.372505  -51.307014  -14.881744  0
7.872505  -51.307014  -14.881744  0
6.622505  -51.057014  -14.881744  0
6.872505  -51.307014  -14.881744  0
8.372505  -51.557014  -14.631744  0
7.622505  -51.557014  -14.881744  0
7.872505  -51.557014  -14.631744  0
7.122505  -51.557014  -14.881744  0
8.372505  -52.057014  -14.631744  0
7.622505  -52.057014  -14.881744  0
7.872505  -52.057014  -14.631744  0
7.122505  -52.057014  -14.881744  0
7.372505  -52.307014  -14.881744  0
9.372505  -45.307014  -14.381744  0
8.872505  -45.307014  -14.381744  0
9.622505  -45.557014  -14.381744  0
8.622505  -45.557014  -14.381744  0
8.372505  -45.807014  -14.381744  0
9.622505  -46.057014  -14.381744  0
9.872505  -46.057014  -14.131744  0
8.122505  -46.057014  -14.381744  0
7.872505  -46.307014  -14.381744  0
10.372505  -46.557014  -14.131744  0
9.622505  -46.557014  -14.381744  0
9.872505  -46.557014  -14.131744  0
7.622505  -46.557014  -14.381744  0
7.872505  -46.557014  -14.131744  0
7.372505  -46.807014  -14.381744  0
10.372505  -47.057014  -14.131744  0
9.622505  -47.057014  -14.381744  0
9.872505  -47.057014  -14.131744  0
7.122505  -47.057014  -14.381744  0
7.372505  -47.057014  -14.131744  0
6.872505  -47.307014  -14.381744  0
10.372505  -47.557014  -14.131744  0
9.622505  -47.557014  -14.381744  0
9.872505  -47.557014  -14.131744  0
6.622505  -47.557014  -14.381744  0
6.872505  -47.557014  -14.131744  0
6.372505  -47.807014  -14.381744  0
10.372505  -48.057014  -14.131744  0
9.622505  -48.057014  -14.381744  0
9.872505  -48.057014  -14.131744  0
6.122505  -48.057014  -14.381744  0
6.372505  -48.057014  -14.131744  0
10.372505  -48.557014  -14.131744  0
9.622505  -48.557014  -14.381744  0
9.872505  -48.557014  -14.131744  0
6.872505  -48.557014  -14.131744  0
6.122505  -48.557014  -14.381744  0
6.372505  -48.807014  -14.381744  0
6.372505  -48.557014  -14.131744  0
10.372505  -49.057014  -14.131744  0
9.622505  -49.057014  -14.381744  0
9.872505  -49.307014  -14.381744  0
9.872505  -49.057014  -14.131744  0
6.622505  -49.057014  -14.381744  0
10.122505  -49.557014  -14.381744  0
10.372505  -49.557014  -14.131744  0
6.622505  -49.557014  -14.381744  0
6.872505  -49.557014  -14.131744  0
10.122505  -50.057014  -14.381744  0
10.372505  -50.057014  -14.131744  0
9.872505  -50.307014  -14.381744  0
6.622505  -50.057014  -14.381744  0
6.872505  -50.057014  -14.131744  0
10.372505  -50.557014  -14.131744  0
9.622505  -50.557014  -14.381744  0
9.872505  -50.557014  -14.131744  0
9.372505  -50.807014  -14.381744  0
6.622505  -50.557014  -14.381744  0
6.872505  -50.557014  -14.131744  0
9.122505  -51.057014  -14.381744  0
9.372505  -51.057014  -14.131744  0
8.872505  -51.307014  -14.381744  0
6.622505  -51.057014  -14.381744  0
6.872505  -51.307014  -14.381744  0
6.872505  -51.057014  -14.131744  0
8.622505  -51.557014  -14.381744  0
8.872505  -51.557014  -14.131744  0
7.122505  -51.557014  -14.381744  0
7.372505  -51.557014  -14.131744  0
8.622505  -52.057014  -14.381744  0
8.372505  -52.307014  -14.381744  0
7.872505  -52.307014  -14.381744  0
7.122505  -52.057014  -14.381744  0
7.372505  -52.307014  -14.381744  0
7.372505  -52.057014  -14.131744  0
9.372505  -45.307014  -13.881744  0
8.872505  -45.307014  -13.881744  0
9.622505  -45.557014  -13.881744  0
9.872505  -45.807014  -13.881744  0
9.372505  -45.557014  -13.631744  0
8.622505  -45.557014  -13.881744  0
8.872505  -45.557014  -13.631744  0
8.372505  -45.807014  -13.881744  0
10.122505  -46.057014  -13.881744  0
10.372505  -46.307014  -13.881744  0
8.872505  -46.057014  -13.631744  0
8.122505  -46.057014  -13.881744  0
8.372505  -46.057014  -13.631744  0
10.622505  -46.557014  -13.881744  0
8.122505  -46.557014  -13.881744  0
7.872505  -46.807014  -13.881744  0
10.622505  -47.057014  -13.881744  0
7.622505  -47.057014  -13.881744  0
7.372505  -47.307014  -13.881744  0
10.622505  -47.557014  -13.881744  0
7.122505  -47.557014  -13.881744  0
7.372505  -47.557014  -13.631744  0
6.872505  -47.807014  -13.881744  0
10.622505  -48.057014  -13.881744  0
7.372505  -48.057014  -13.631744  0
6.622505  -48.057014  -13.881744  0
6.872505  -48.307014  -13.881744  0
6.872505  -48.057014  -13.631744  0
10.622505  -48.557014  -13.881744  0
7.122505  -48.557014  -13.881744  0
7.372505  -48.557014  -13.631744  0
6.872505  -48.807014  -13.881744  0
10.622505  -49.057014  -13.881744  0
7.372505  -49.057014  -13.631744  0
6.622505  -49.057014  -13.881744  0
6.872505  -49.307014  -13.881744  0
6.872505  -49.057014  -13.631744  0
10.622505  -49.557014  -13.881744  0
10.872505  -49.557014  -13.631744  0
7.122505  -49.557014  -13.881744  0
7.372505  -49.557014  -13.631744  0
10.622505  -50.057014  -13.881744  0
10.872505  -50.057014  -13.631744  0
7.122505  -50.057014  -13.881744  0
7.372505  -50.057014  -13.631744  0
10.622505  -50.557014  -13.881744  0
10.372505  -50.807014  -13.881744  0
9.872505  -50.807014  -13.881744  0
7.122505  -50.557014  -13.881744  0
7.372505  -50.557014  -13.631744  0
9.622505  -51.057014  -13.881744  0
9.872505  -51.057014  -13.631744  0
9.372505  -51.307014  -13.881744  0
7.122505  -51.057014  -13.881744  0
7.372505  -51.307014  -13.881744  0
7.372505  -51.057014  -13.631744  0
9.872505  -51.557014  -13.631744  0
9.122505  -51.557014  -13.881744  0
9.372505  -51.557014  -13.631744  0
8.872505  -51.807014  -13.881744  0
7.622505  -51.557014  -13.881744  0
7.872505  -51.557014  -13.631744  0
9.372505  -52.057014  -13.631744  0
8.622505  -52.057014  -13.881744  0
8.872505  -52.057014  -13.631744  0
8.372505  -52.307014  -13.881744  0
8.372505  -52.057014  -13.631744  0
7.622505  -52.057014  -13.881744  0
7.872505  -52.307014  -13.881744  0
7.872505  -52.057014  -13.631744  0
9.872505  -45.807014  -13.381744  0
9.372505  -45.807014  -13.381744  0
10.122505  -46.057014  -13.381744  0
10.372505  -46.307014  -13.381744  0
9.122505  -46.057014  -13.381744  0
8.872505  -46.307014  -13.381744  0
8.372505  -46.307014  -13.381744  0
10.622505  -46.557014  -13.381744  0
10.872505  -46.557014  -13.131744  0
8.122505  -46.557014  -13.381744  0
8.372505  -46.557014  -13.131744  0
7.872505  -46.807014  -13.381744  0
10.622505  -47.057014  -13.381744  0
8.372505  -47.057014  -13.131744  0
7.622505  -47.057014  -13.381744  0
7.872505  -47.057014  -13.131744  0
10.622505  -47.557014  -13.381744  0
7.622505  -47.557014  -13.381744  0
7.872505  -47.557014  -13.131744  0
10.622505  -48.057014  -13.381744  0
7.622505  -48.057014  -13.381744  0
7.872505  -48.057014  -13.131744  0
10.622505  -48.557014  -13.381744  0
10.872505  -48.557014  -13.131744  0
7.622505  -48.557014  -13.381744  0
7.872505  -48.557014  -13.131744  0
10.622505  -49.057014  -13.381744  0
10.872505  -49.307014  -13.381744  0
10.872505  -49.057014  -13.131744  0
7.622505  -49.057014  -13.381744  0
7.872505  -49.057014  -13.131744  0
11.122505  -49.557014  -13.381744  0
7.622505  -49.557014  -13.381744  0
7.872505  -49.557014  -13.131744  0
11.122505  -50.057014  -13.381744  0
10.872505  -50.307014  -13.381744  0
7.622505  -50.057014  -13.381744  0
7.872505  -50.057014  -13.131744  0
10.622505  -50.557014  -13.381744  0
10.372505  -50.807014  -13.381744  0
7.622505  -50.557014  -13.381744  0
7.872505  -50.557014  -13.131744  0
10.122505  -51.057014  -13.381744  0
8.372505  -51.057014  -13.131744  0
7.622505  -51.057014  -13.381744  0
7.872505  -51.307014  -13.381744  0
7.872505  -51.057014  -13.131744  0
10.122505  -51.557014  -13.381744  0
9.872505  -51.807014  -13.381744  0
8.122505  -51.557014  -13.381744  0
8.372505  -51.807014  -13.381744  0
8.372505  -51.557014  -13.131744  0
9.622505  -52.057014  -13.381744  0
9.372505  -52.307014  -13.381744  0
9.372505  -52.057014  -13.131744  0
8.622505  -52.057014  -13.381744  0
8.872505  -52.307014  -13.381744  0
8.872505  -52.057014  -13.131744  0
9.872505  -45.807014  -12.881744  0
9.372505  -45.807014  -12.881744  0
10.872505  -46.307014  -12.881744  0
10.122505  -46.057014  -12.881744  0
10.372505  -46.307014  -12.881744  0
9.872505  -46.057014  -12.631744  0
9.122505  -46.057014  -12.881744  0
9.372505  -46.057014  -12.631744  0
8.872505  -46.307014  -12.881744  0
11.122505  -46.557014  -12.881744  0
10.872505  -46.807014  -12.881744  0
9.372505  -46.557014  -12.631744  0
8.622505  -46.557014  -12.881744  0
8.872505  -46.557014  -12.631744  0
10.622505  -47.057014  -12.881744  0
10.872505  -47.057014  -12.631744  0
8.622505  -47.057014  -12.881744  0
8.372505  -47.307014  -12.881744  0
10.622505  -47.557014  -12.881744  0
10.872505  -47.557014  -12.631744  0
8.122505  -47.557014  -12.881744  0
8.372505  -47.557014  -12.631744  0
10.622505  -48.057014  -12.881744  0
10.872505  -48.307014  -12.881744  0
10.872505  -48.057014  -12.631744  0
8.122505  -48.057014  -12.881744  0
8.372505  -48.057014  -12.631744  0
11.122505  -48.557014  -12.881744  0
8.122505  -48.557014  -12.881744  0
8.372505  -48.557014  -12.631744  0
11.122505  -49.057014  -12.881744  0
8.122505  -49.057014  -12.881744  0
8.372505  -49.057014  -12.631744  0
11.122505  -49.557014  -12.881744  0
8.122505  -49.557014  -12.881744  0
8.372505  -49.557014  -12.631744  0
11.122505  -50.057014  -12.881744  0
10.872505  -50.307014  -12.881744  0
8.122505  -50.057014  -12.881744  0
8.372505  -50.057014  -12.631744  0
10.622505  -50.557014  -12.881744  0
10.372505  -50.807014  -12.881744  0
8.872505  -50.557014  -12.631744  0
8.122505  -50.557014  -12.881744  0
8.372505  -50.807014  -12.881744  0
8.372505  -50.557014  -12.631744  0
10.122505  -51.057014  -12.881744  0
10.372505  -51.057014  -12.631744  0
8.622505  -51.057014  -12.881744  0
8.872505  -51.057014  -12.631744  0
10.122505  -51.557014  -12.881744  0
9.872505  -51.807014  -12.881744  0
9.372505  -51.807014  -12.881744  0
8.622505  -51.557014  -12.881744  0
8.872505  -51.807014  -12.881744  0
8.872505  -51.557014  -12.631744  0
10.872505  -46.307014  -12.381744  0
10.372505  -46.307014  -12.381744  0
9.872505  -46.307014  -12.381744  0
11.122505  -46.557014  -12.381744  0
10.372505  -46.557014  -12.131744  0
9.622505  -46.557014  -12.381744  0
9.872505  -46.557014  -12.131744  0
9.372505  -46.807014  -12.381744  0
8.872505  -46.807014  -12.381744  0
11.122505  -47.057014  -12.381744  0
9.872505  -47.057014  -12.131744  0
9.372505  -47.057014  -12.131744  0
8.622505  -47.057014  -12.381744  0
8.872505  -47.057014  -12.131744  0
11.122505  -47.557014  -12.381744  0
9.872505  -47.557014  -12.131744  0
9.372505  -47.557014  -12.131744  0
8.622505  -47.557014  -12.381744  0
8.872505  -47.557014  -12.131744  0
11.122505  -48.057014  -12.381744  0
8.622505  -48.057014  -12.381744  0
8.872505  -48.057014  -12.131744  0
11.122505  -48.557014  -12.381744  0
8.622505  -48.557014  -12.381744  0
8.872505  -48.557014  -12.131744  0
11.122505  -49.057014  -12.381744  0
8.622505  -49.057014  -12.381744  0
8.872505  -49.057014  -12.131744  0
11.122505  -49.557014  -12.381744  0
8.622505  -49.557014  -12.381744  0
8.872505  -49.557014  -12.131744  0
11.122505  -50.057014  -12.381744  0
10.872505  -50.307014  -12.381744  0
9.372505  -50.057014  -12.131744  0
8.622505  -50.057014  -12.381744  0
8.872505  -50.307014  -12.381744  0
8.872505  -50.057014  -12.131744  0
10.622505  -50.557014  -12.381744  0
10.872505  -50.557014  -12.131744  0
9.872505  -50.557014  -12.131744  0
9.122505  -50.557014  -12.381744  0
9.372505  -50.557014  -12.131744  0
10.622505  -51.057014  -12.381744  0
10.372505  -51.307014  -12.381744  0
10.372505  -51.057014  -12.131744  0
9.872505  -51.057014  -12.131744  0
9.122505  -51.057014  -12.381744  0
9.372505  -51.057014  -12.131744  0
10.122505  -51.557014  -12.381744  0
9.872505  -51.807014  -12.381744  0
9.872505  -51.557014  -12.131744  0
9.122505  -51.557014  -12.381744  0
9.372505  -51.807014  -12.381744  0
9.372505  -51.557014  -12.131744  0
10.872505  -46.307014  -11.881744  0
11.122505  -46.557014  -11.881744  0
10.622505  -46.557014  -11.881744  0
10.872505  -46.557014  -11.631744  0
10.372505  -46.807014  -11.881744  0
11.122505  -47.057014  -11.881744  0
10.872505  -47.057014  -11.631744  0
10.122505  -47.057014  -11.881744  0
10.372505  -47.057014  -11.631744  0
11.122505  -47.557014  -11.881744  0
10.122505  -47.557014  -11.881744  0
10.372505  -47.557014  -11.631744  0
9.872505  -47.807014  -11.881744  0
9.372505  -47.807014  -11.881744  0
11.122505  -48.057014  -11.881744  0
11.372505  -48.057014  -11.631744  0
9.872505  -48.057014  -11.631744  0
9.122505  -48.057014  -11.881744  0
9.372505  -48.057014  -11.631744  0
11.122505  -48.557014  -11.881744  0
11.372505  -48.557014  -11.631744  0
9.872505  -48.557014  -11.631744  0
9.122505  -48.557014  -11.881744  0
9.372505  -48.557014  -11.631744  0
11.122505  -49.057014  -11.881744  0
10.872505  -49.057014  -11.631744  0
9.872505  -49.057014  -11.631744  0
9.122505  -49.057014  -11.881744  0
9.372505  -49.057014  -11.631744  0
11.122505  -49.557014  -11.881744  0
11.372505  -49.557014  -11.631744  0
9.872505  -49.557014  -11.631744  0
9.122505  -49.557014  -11.881744  0
9.372505  -49.807014  -11.881744  0
9.372505  -49.557014  -11.631744  0
11.122505  -50.057014  -11.881744  0
10.872505  -50.057014  -11.631744  0
10.372505  -50.057014  -11.631744  0
9.622505  -50.057014  -11.881744  0
9.872505  -50.307014  -11.881744  0
9.872505  -50.057014  -11.631744  0
11.122505  -50.557014  -11.881744  0
10.872505  -50.807014  -11.881744  0
10.872505  -50.557014  -11.631744  0
10.122505  -50.557014  -11.881744  0
10.372505  -50.807014  -11.881744  0
10.372505  -50.557014  -11.631744  0
10.872505  -47.307014  -11.381744  0
11.122505  -47.557014  -11.381744  0
11.372505  -47.807014  -11.381744  0
10.622505  -47.557014  -11.381744  0
10.872505  -47.557014  -11.131744  0
10.372505  -47.807014  -11.381744  0
11.622505  -48.057014  -11.381744  0
11.372505  -48.057014  -11.131744  0
10.872505  -48.057014  -11.131744  0
10.122505  -48.057014  -11.381744  0
10.372505  -48.057014  -11.131744  0
11.622505  -48.557014  -11.381744  0
11.372505  -48.807014  -11.381744  0
11.372505  -48.557014  -11.131744  0
10.872505  -48.807014  -11.381744  0
10.872505  -48.557014  -11.131744  0
10.122505  -48.557014  -11.381744  0
10.372505  -48.557014  -11.131744  0
11.372505  -49.307014  -11.381744  0
10.622505  -49.057014  -11.381744  0
10.872505  -49.307014  -11.381744  0
10.122505  -49.057014  -11.381744  0
10.372505  -49.057014  -11.131744  0
11.622505  -49.557014  -11.381744  0
11.372505  -49.807014  -11.381744  0
11.372505  -49.557014  -11.131744  0
10.872505  -49.807014  -11.381744  0
10.872505  -49.557014  -11.131744  0
10.122505  -49.557014  -11.381744  0
10.372505  -49.807014  -11.381744  0
10.372505  -49.557014  -11.131744  0
6 12 0 0
1 8 0 0
0 8 6 0
2 10 1 0
1 10 8 0
2 14 10 0
0 12 3 0
3 12 15 0
0 4 1 0
0 3 4 0
1 5 2 0
1 4 5 0
14 2 19 0
19 2 5 0
15 17 3 0
3 17 4 0
4 17 18 0
4 18 5 0
5 18 20 0
5 20 19 0
36 43 7 0
9 38 7 0
7 38 36 0
9 46 38 0
41 48 11 0
13 44 11 0
11 44 41 0
44 13 43 0
43 13 7 0
13 12 7 0
12 6 7 0
7 6 8 0
7 8 9 0
47 46 9 0
8 47 9 0
10 47 8 0
10 14 47 0
47 14 51 0
48 50 11 0
55 16 50 0
16 11 50 0
16 13 11 0
16 15 12 0
16 12 13 0
19 51 14 0
19 58 51 0
55 57 16 0
57 62 21 0
57 21 17 0
16 57 17 0
15 16 17 0
22 18 17 0
22 17 21 0
18 22 64 0
59 18 64 0
20 18 59 0
19 20 58 0
58 20 59 0
21 62 23 0
23 62 68 0
21 24 22 0
21 23 24 0
64 22 71 0
71 22 24 0
68 70 23 0
23 70 24 0
24 70 72 0
24 72 71 0
74 76 25 0
25 78 74 0
25 76 26 0
26 76 83 0
78 25 79 0
25 27 79 0
25 26 27 0
28 80 27 0
27 80 79 0
28 86 80 0
84 88 29 0
84 29 83 0
29 26 83 0
29 30 26 0
26 31 27 0
26 30 31 0
27 32 28 0
27 31 32 0
86 28 91 0
91 28 32 0
89 92 33 0
89 33 88 0
33 29 88 0
33 34 29 0
29 35 30 0
29 34 35 0
30 37 31 0
30 35 37 0
31 39 32 0
31 37 39 0
91 32 94 0
94 32 39 0
33 92 40 0
40 92 95 0
33 42 34 0
33 40 42 0
34 45 35 0
34 42 45 0
45 43 36 0
37 45 36 0
35 45 37 0
37 36 38 0
37 38 39 0
38 46 39 0
46 94 39 0
46 97 94 0
40 95 49 0
49 95 98 0
49 48 41 0
42 49 41 0
40 49 42 0
42 41 44 0
42 44 45 0
45 44 43 0
46 47 52 0
101 46 52 0
97 46 101 0
51 52 47 0
99 103 53 0
99 53 98 0
53 49 98 0
53 54 49 0
56 50 48 0
49 56 48 0
54 56 49 0
56 55 50 0
102 101 52 0
52 51 102 0
51 106 102 0
51 58 106 0
103 105 53 0
110 60 105 0
60 53 105 0
60 54 53 0
54 61 56 0
54 60 61 0
63 57 55 0
56 63 55 0
61 63 56 0
63 62 57 0
113 107 59 0
113 59 64 0
58 59 106 0
106 59 107 0
111 115 65 0
111 65 110 0
65 60 110 0
65 66 60 0
60 67 61 0
60 66 67 0
61 69 63 0
61 67 69 0
69 68 62 0
69 62 63 0
71 113 64 0
71 122 113 0
115 117 65 0
65 117 66 0
66 117 118 0
66 118 67 0
67 118 119 0
67 119 69 0
69 119 120 0
69 120 68 0
120 70 68 0
120 121 70 0
70 123 72 0
121 123 70 0
71 72 122 0
122 72 123 0
133 135 73 0
73 137 133 0
73 135 75 0
75 135 141 0
137 73 138 0
73 77 138 0
73 75 77 0
76 74 77 0
74 138 77 0
74 139 138 0
74 78 139 0
139 78 144 0
142 148 81 0
142 81 141 0
81 75 141 0
81 82 75 0
75 85 77 0
75 82 85 0
85 83 76 0
85 76 77 0
146 144 78 0
146 78 79 0
147 79 80 0
147 146 79 0
80 86 147 0
147 86 151 0
81 148 87 0
87 148 153 0
81 90 82 0
81 87 90 0
90 88 84 0
85 90 84 0
82 90 85 0
85 84 83 0
91 151 86 0
91 155 151 0
87 153 93 0
93 153 157 0
93 92 89 0
90 93 89 0
87 93 90 0
90 89 88 0
94 155 91 0
94 159 155 0
93 157 96 0
96 157 160 0
96 95 92 0
96 92 93 0
97 159 94 0
97 162 159 0
96 160 100 0
100 160 163 0
100 98 95 0
100 95 96 0
101 162 97 0
101 166 162 0
164 168 104 0
164 104 163 0
163 104 100 0
104 103 100 0
103 99 100 0
100 99 98 0
101 102 108 0
170 101 108 0
166 101 170 0
106 108 102 0
104 168 109 0
109 168 173 0
112 105 103 0
104 112 103 0
109 112 104 0
112 110 105 0
175 171 114 0
114 171 170 0
114 170 108 0
113 114 108 0
107 113 108 0
107 108 106 0
109 173 116 0
116 173 176 0
116 115 111 0
112 116 111 0
109 116 112 0
112 111 110 0
175 114 124 0
175 124 179 0
122 124 113 0
113 124 114 0
176 177 116 0
116 177 115 0
177 117 115 0
177 178 117 0
178 180 125 0
118 178 125 0
117 178 118 0
126 119 118 0
126 118 125 0
127 120 119 0
127 119 126 0
128 121 120 0
128 120 127 0
184 179 124 0
121 184 124 0
123 121 124 0
184 121 128 0
123 124 122 0
180 182 125 0
125 182 126 0
126 182 183 0
187 129 183 0
129 126 183 0
129 127 126 0
185 128 189 0
128 129 189 0
128 127 129 0
128 185 184 0
129 187 130 0
130 187 191 0
189 129 193 0
193 129 130 0
191 194 130 0
130 194 193 0
195 197 131 0
132 196 131 0
131 196 195 0
132 198 196 0
131 197 134 0
134 197 200 0
131 136 132 0
131 134 136 0
133 199 135 0
199 132 135 0
132 136 135 0
132 199 198 0
133 137 199 0
199 137 202 0
134 200 140 0
140 200 205 0
134 143 136 0
134 140 143 0
143 141 135 0
143 135 136 0
203 202 137 0
203 137 138 0
207 203 145 0
203 139 145 0
203 138 139 0
144 145 139 0
140 205 149 0
149 205 211 0
149 148 142 0
143 149 142 0
140 149 143 0
143 142 141 0
209 207 145 0
213 209 150 0
150 209 146 0
209 145 146 0
145 144 146 0
147 152 146 0
146 152 150 0
151 152 147 0
149 211 154 0
154 211 217 0
154 153 148 0
154 148 149 0
215 213 150 0
156 219 215 0
150 156 215 0
152 156 150 0
155 156 151 0
151 156 152 0
154 217 158 0
158 217 223 0
158 157 153 0
158 153 154 0
221 219 156 0
156 155 221 0
155 225 221 0
155 159 225 0
158 223 161 0
161 223 228 0
161 160 157 0
161 157 158 0
162 225 159 0
162 231 225 0
161 228 165 0
165 228 235 0
165 163 160 0
165 160 161 0
238 232 167 0
232 231 167 0
231 166 167 0
231 162 166 0
236 239 169 0
236 169 235 0
235 169 165 0
169 168 165 0
168 164 165 0
165 164 163 0
238 167 172 0
238 172 241 0
170 172 166 0
166 172 167 0
169 239 174 0
174 239 243 0
174 173 168 0
174 168 169 0
241 172 171 0
175 241 171 0
246 241 175 0
171 172 170 0
243 245 174 0
173 174 245 0
249 173 245 0
176 173 249 0
179 246 175 0
179 252 246 0
249 251 176 0
176 251 177 0
251 254 181 0
178 251 181 0
177 251 178 0
181 180 178 0
184 252 179 0
184 257 252 0
254 256 181 0
256 260 186 0
256 186 182 0
181 256 182 0
180 181 182 0
188 183 182 0
188 182 186 0
188 187 183 0
262 258 185 0
262 185 189 0
184 185 257 0
257 185 258 0
186 260 190 0
190 260 264 0
186 192 188 0
186 190 192 0
192 191 187 0
192 187 188 0
193 262 189 0
193 267 262 0
264 265 190 0
190 265 192 0
192 265 266 0
192 266 191 0
266 194 191 0
266 268 194 0
193 194 267 0
267 194 268 0
270 272 195 0
195 272 197 0
271 195 196 0
271 270 195 0
196 198 271 0
271 198 275 0
273 278 201 0
272 273 201 0
200 272 201 0
197 272 200 0
277 275 198 0
277 198 199 0
199 202 277 0
277 202 281 0
279 283 204 0
279 204 278 0
204 201 278 0
204 206 201 0
206 205 200 0
206 200 201 0
202 203 208 0
284 202 208 0
281 202 284 0
207 208 203 0
204 283 210 0
210 283 286 0
204 212 206 0
204 210 212 0
212 211 205 0
212 205 206 0
285 284 208 0
287 285 214 0
214 285 209 0
285 208 209 0
208 207 209 0
213 214 209 0
210 286 216 0
216 286 289 0
210 218 212 0
210 216 218 0
218 217 211 0
218 211 212 0
288 287 214 0
290 288 220 0
220 288 215 0
288 214 215 0
214 213 215 0
219 220 215 0
216 289 222 0
222 289 293 0
216 224 218 0
216 222 224 0
224 223 217 0
224 217 218 0
292 290 220 0
295 292 226 0
226 292 221 0
292 220 221 0
220 219 221 0
225 226 221 0
222 293 227 0
227 293 298 0
222 229 224 0
222 227 229 0
229 228 223 0
229 223 224 0
299 296 230 0
230 296 295 0
226 230 295 0
233 230 226 0
231 233 225 0
225 233 226 0
227 298 234 0
234 298 302 0
227 237 229 0
227 234 237 0
237 235 228 0
237 228 229 0
301 299 230 0
238 304 232 0
304 230 232 0
230 233 232 0
304 301 230 0
232 233 231 0
234 302 240 0
240 302 307 0
240 239 236 0
237 240 236 0
234 240 237 0
237 236 235 0
309 305 242 0
305 304 242 0
304 241 242 0
304 238 241 0
240 307 244 0
244 307 311 0
244 243 239 0
244 239 240 0
309 242 247 0
309 247 313 0
246 247 241 0
241 247 242 0
244 311 248 0
248 311 315 0
250 245 243 0
244 250 243 0
248 250 244 0
250 249 245 0
313 247 253 0
313 253 318 0
252 253 246 0
246 253 247 0
315 316 248 0
248 316 250 0
250 316 317 0
317 320 255 0
317 255 251 0
250 317 251 0
249 250 251 0
255 254 251 0
318 253 259 0
318 259 323 0
257 259 252 0
252 259 253 0
320 322 255 0
322 327 261 0
322 261 256 0
255 322 256 0
254 255 256 0
261 260 256 0
330 324 263 0
263 324 323 0
263 323 259 0
262 263 259 0
258 262 259 0
258 259 257 0
327 329 261 0
260 261 329 0
333 260 329 0
264 260 333 0
330 263 269 0
330 269 337 0
267 269 262 0
262 269 263 0
333 335 264 0
264 335 265 0
265 338 266 0
335 338 265 0
269 268 337 0
268 338 337 0
268 266 338 0
268 269 267 0
274 272 270 0
271 276 270 0
270 276 274 0
275 276 271 0
340 342 273 0
273 342 278 0
273 272 274 0
341 273 274 0
340 273 341 0
280 344 341 0
274 280 341 0
276 280 274 0
277 282 275 0
282 276 275 0
282 280 276 0
281 282 277 0
343 347 279 0
279 347 283 0
279 278 342 0
279 342 343 0
345 344 280 0
345 280 282 0
345 282 346 0
282 281 346 0
281 349 346 0
281 284 349 0
347 286 283 0
352 286 347 0
351 349 284 0
351 284 285 0
285 287 351 0
351 287 354 0
352 289 286 0
356 289 352 0
287 288 291 0
357 287 291 0
354 287 357 0
290 291 288 0
356 293 289 0
359 293 356 0
357 291 294 0
357 294 360 0
292 297 290 0
297 291 290 0
297 294 291 0
295 297 292 0
359 298 293 0
362 298 359 0
360 294 300 0
360 300 364 0
299 300 296 0
300 297 296 0
300 294 297 0
296 297 295 0
362 302 298 0
366 302 362 0
364 300 303 0
364 303 369 0
301 306 299 0
306 300 299 0
306 303 300 0
304 306 301 0
367 371 308 0
366 367 308 0
307 366 308 0
302 366 307 0
369 303 310 0
369 310 372 0
309 310 305 0
310 306 305 0
310 303 306 0
305 306 304 0
308 371 312 0
312 371 374 0
312 311 307 0
312 307 308 0
372 310 314 0
372 314 376 0
313 314 309 0
309 314 310 0
374 375 312 0
311 312 375 0
378 311 375 0
315 311 378 0
376 314 319 0
376 319 380 0
318 319 313 0
313 319 314 0
378 379 315 0
315 379 316 0
379 382 321 0
317 379 321 0
316 379 317 0
321 320 317 0
380 319 325 0
380 325 384 0
323 325 318 0
318 325 319 0
321 382 326 0
326 382 387 0
328 322 320 0
321 328 320 0
326 328 321 0
328 327 322 0
389 385 331 0
331 385 384 0
331 384 325 0
330 331 325 0
324 330 325 0
324 325 323 0
387 388 326 0
392 332 388 0
332 326 388 0
332 328 326 0
334 329 327 0
328 334 327 0
332 334 328 0
390 334 395 0
390 329 334 0
390 336 333 0
329 390 333 0
336 390 389 0
331 336 389 0
339 336 331 0
337 339 330 0
330 339 331 0
392 393 332 0
332 393 334 0
334 393 396 0
396 336 395 0
396 335 336 0
396 334 333 0
335 396 333 0
335 336 338 0
338 336 339 0
338 339 337 0
398 401 340 0
340 401 342 0
399 340 341 0
399 398 340 0
341 344 399 0
399 344 404 0
400 407 348 0
347 343 348 0
343 400 348 0
343 402 400 0
343 342 401 0
343 401 402 0
406 404 344 0
406 344 345 0
410 406 350 0
406 346 350 0
406 345 346 0
349 350 346 0
407 408 348 0
347 348 408 0
412 347 408 0
352 347 412 0
410 350 353 0
410 353 414 0
351 355 349 0
355 350 349 0
355 353 350 0
354 355 351 0
412 356 352 0
416 356 412 0
415 414 353 0
358 418 415 0
353 358 415 0
355 358 353 0
357 358 354 0
354 358 355 0
416 359 356 0
420 359 416 0
418 358 361 0
418 361 423 0
360 361 357 0
357 361 358 0
421 425 363 0
420 421 363 0
362 420 363 0
359 420 362 0
423 361 365 0
423 365 426 0
364 365 360 0
360 365 361 0
363 425 368 0
368 425 428 0
368 366 362 0
368 362 363 0
426 365 370 0
426 370 429 0
369 370 364 0
364 370 365 0
368 428 367 0
428 371 367 0
428 431 371 0
368 367 366 0
429 370 373 0
429 373 432 0
372 373 369 0
369 373 370 0
431 374 371 0
434 374 431 0
432 373 377 0
432 377 436 0
376 377 372 0
372 377 373 0
434 435 374 0
374 435 375 0
378 375 435 0
378 435 438 0
436 377 381 0
436 381 441 0
380 381 376 0
376 381 377 0
438 439 378 0
378 439 379 0
382 379 439 0
382 439 444 0
446 442 383 0
383 442 441 0
381 383 441 0
386 383 381 0
384 386 380 0
380 386 381 0
444 387 382 0
448 387 444 0
446 383 391 0
446 391 451 0
389 391 385 0
391 386 385 0
391 383 386 0
385 386 384 0
448 449 387 0
387 449 388 0
450 394 392 0
388 450 392 0
449 450 388 0
452 397 394 0
452 394 450 0
397 452 451 0
397 451 391 0
395 397 391 0
390 395 391 0
390 391 389 0
394 393 392 0
393 394 396 0
396 394 397 0
396 397 395 0
403 401 398 0
399 405 398 0
398 405 403 0
404 405 399 0
454 457 400 0
400 457 407 0
455 400 402 0
455 454 400 0
402 401 403 0
456 402 403 0
455 402 456 0
409 459 456 0
403 409 456 0
405 409 403 0
406 411 404 0
411 405 404 0
411 409 405 0
410 411 406 0
408 407 413 0
407 463 413 0
407 457 463 0
413 412 408 0
461 459 409 0
461 409 411 0
461 411 462 0
411 410 462 0
410 466 462 0
410 414 466 0
413 463 417 0
417 463 468 0
417 416 412 0
417 412 413 0
414 415 419 0
471 414 419 0
466 414 471 0
418 419 415 0
417 468 422 0
422 468 473 0
422 420 416 0
422 416 417 0
471 419 424 0
471 424 474 0
423 424 418 0
418 424 419 0
422 473 421 0
473 425 421 0
473 476 425 0
422 421 420 0
474 424 427 0
474 427 477 0
426 427 423 0
423 427 424 0
476 428 425 0
479 428 476 0
477 427 430 0
477 430 480 0
429 430 426 0
426 430 427 0
479 431 428 0
482 431 479 0
480 430 433 0
480 433 483 0
432 433 429 0
429 433 430 0
482 434 431 0
485 434 482 0
483 433 437 0
483 437 488 0
436 437 432 0
432 437 433 0
485 486 434 0
434 486 435 0
438 435 486 0
438 486 491 0
494 489 440 0
440 489 488 0
437 440 488 0
443 440 437 0
441 443 436 0
436 443 437 0
439 438 445 0
438 496 445 0
438 491 496 0
445 444 439 0
494 440 447 0
494 447 500 0
446 447 442 0
447 443 442 0
447 440 443 0
442 443 441 0
496 497 445 0
444 445 497 0
502 444 497 0
448 444 502 0
500 447 453 0
500 453 505 0
451 453 446 0
446 453 447 0
502 503 448 0
448 503 449 0
449 506 450 0
503 506 449 0
453 452 505 0
452 506 505 0
452 450 506 0
452 453 451 0
508 509 454 0
454 509 457 0
510 508 458 0
508 455 458 0
508 454 455 0
456 460 455 0
455 460 458 0
459 460 456 0
509 463 457 0
513 463 509 0
512 510 458 0
464 515 512 0
458 464 512 0
460 464 458 0
461 465 459 0
465 460 459 0
465 464 460 0
462 467 461 0
461 467 465 0
466 467 462 0
513 468 463 0
517 468 513 0
515 464 469 0
515 469 518 0
470 464 465 0
469 464 470 0
472 465 467 0
470 465 472 0
471 472 466 0
466 472 467 0
517 473 468 0
522 473 517 0
520 518 469 0
520 469 470 0
520 470 521 0
475 525 521 0
470 475 521 0
472 475 470 0
474 475 471 0
471 475 472 0
522 476 473 0
527 476 522 0
525 475 478 0
525 478 530 0
477 478 474 0
474 478 475 0
527 479 476 0
532 479 527 0
530 478 481 0
530 481 535 0
480 481 477 0
477 481 478 0
532 482 479 0
537 482 532 0
535 481 484 0
535 484 540 0
483 484 480 0
480 484 481 0
537 485 482 0
543 485 537 0
546 541 487 0
487 541 540 0
484 487 540 0
490 487 484 0
488 490 483 0
483 490 484 0
486 485 492 0
485 549 492 0
485 543 549 0
492 491 486 0
552 547 493 0
493 547 546 0
487 493 546 0
495 493 487 0
494 495 489 0
495 490 489 0
495 487 490 0
489 490 488 0
549 550 492 0
496 491 492 0
553 496 492 0
550 553 492 0
496 553 498 0
498 553 552 0
493 498 552 0
499 498 493 0
501 493 495 0
499 493 501 0
500 501 494 0
494 501 495 0
498 497 496 0
497 498 502 0
498 504 502 0
498 499 504 0
507 499 501 0
504 499 507 0
505 507 500 0
500 507 501 0
504 503 502 0
503 504 506 0
506 504 507 0
506 507 505 0
511 509 508 0
510 511 508 0
514 513 511 0
511 513 509 0
512 516 510 0
516 511 510 0
516 514 511 0
515 516 512 0
555 556 514 0
556 513 514 0
556 517 513 0
519 558 555 0
514 519 555 0
516 519 514 0
518 519 515 0
515 519 516 0
557 561 523 0
556 557 523 0
522 556 523 0
517 556 522 0
560 558 519 0
564 560 524 0
524 560 520 0
560 519 520 0
519 518 520 0
521 526 520 0
520 526 524 0
525 526 521 0
523 561 528 0
528 561 566 0
528 527 522 0
528 522 523 0
564 524 529 0
564 529 571 0
531 524 526 0
529 524 531 0
530 531 525 0
525 531 526 0
566 567 528 0
532 527 528 0
569 532 528 0
567 569 528 0
532 569 533 0
574 533 569 0
571 529 534 0
571 534 576 0
536 529 531 0
534 529 536 0
535 536 530 0
530 536 531 0
573 578 538 0
575 573 533 0
573 537 533 0
537 532 533 0
573 538 537 0
575 533 574 0
576 534 539 0
576 539 583 0
542 534 536 0
539 534 542 0
540 542 535 0
535 542 536 0
578 579 538 0
543 537 538 0
581 543 538 0
579 581 538 0
543 581 544 0
584 545 544 0
584 544 581 0
545 584 583 0
539 545 583 0
548 545 539 0
546 548 541 0
548 542 541 0
548 539 542 0
541 542 540 0
551 549 544 0
544 549 543 0
554 544 545 0
551 544 554 0
552 554 547 0
554 548 547 0
554 545 548 0
547 548 546 0
551 550 549 0
550 551 553 0
553 551 554 0
553 554 552 0
559 556 555 0
558 559 555 0
562 561 557 0
556 559 557 0
559 562 557 0
559 563 562 0
560 565 558 0
565 559 558 0
565 563 559 0
564 565 560 0
568 566 562 0
562 566 561 0
570 562 563 0
568 562 570 0
572 563 565 0
570 563 572 0
571 572 564 0
564 572 565 0
568 567 566 0
567 568 569 0
569 568 570 0
569 570 574 0
570 577 574 0
570 572 577 0
576 577 571 0
571 577 572 0
580 578 573 0
575 582 573 0
573 582 580 0
574 577 575 0
577 582 575 0
577 585 582 0
583 585 576 0
576 585 577 0
580 579 578 0
579 580 581 0
581 580 582 0
581 582 584 0
584 582 585 0
584 585 583 0
