#!ascii version in FreeSurfer format (SUMA)
988 1972
7.889875  -55.427010  -24.707657  0
8.126086  -55.354900  -24.461472  0
11.999219  -56.161072  -24.710550  0
12.094847  -55.894768  -24.528425  0
11.505429  -55.818760  -24.848938  0
11.802377  -56.031715  -24.766245  0
11.691642  -55.616322  -24.640884  0
7.662929  -55.655891  -24.806606  0
7.927646  -55.682804  -24.458099  0
7.477858  -56.017769  -24.724024  0
12.116713  -56.269642  -24.647352  0
12.366252  -56.250546  -24.429649  0
12.099829  -56.600540  -24.658556  0
7.278028  -56.291294  -24.678776  0
7.471241  -56.334179  -24.469868  0
7.139498  -56.531738  -24.660334  0
11.923344  -57.033150  -24.755239  0
12.194556  -56.908649  -24.529848  0
6.901614  -56.869572  -24.751062  0
7.126482  -56.845226  -24.494892  0
11.826640  -57.498329  -24.768761  0
12.119976  -57.267097  -24.525347  0
6.754898  -57.349537  -24.775681  0
7.046564  -57.199429  -24.485617  0
11.768276  -57.956139  -24.741684  0
12.045766  -57.727921  -24.493130  0
6.779093  -57.931992  -24.704847  0
7.023400  -57.688187  -24.471973  0
11.732783  -58.249596  -24.715807  0
11.937072  -58.227489  -24.469538  0
11.644508  -58.564388  -24.681555  0
6.788805  -58.459961  -24.692999  0
7.039159  -58.208618  -24.462627  0
11.398685  -58.985760  -24.746910  0
11.685111  -58.896061  -24.490961  0
6.773830  -58.974236  -24.685741  0
7.042039  -58.711861  -24.457153  0
11.251246  -59.262413  -24.752293  0
11.500254  -59.266083  -24.477501  0
11.054768  -59.563335  -24.747047  0
6.757512  -59.501591  -24.672232  0
7.024585  -59.217770  -24.440865  0
10.887703  -59.822506  -24.714981  0
11.083069  -59.829212  -24.499279  0
10.726831  -60.043629  -24.700125  0
6.781277  -60.046654  -24.681873  0
7.022056  -59.765778  -24.432817  0
10.387546  -60.297489  -24.871836  0
10.636117  -60.338169  -24.516319  0
10.164006  -60.618698  -24.830381  0
6.839064  -60.448952  -24.714785  0
6.968159  -60.629425  -24.677204  0
7.094096  -60.402264  -24.497246  0
9.892920  -60.891716  -24.847677  0
10.110542  -60.903004  -24.538141  0
9.578276  -61.155987  -24.846018  0
7.170632  -60.828915  -24.754940  0
7.529419  -61.117184  -24.957291  0
7.508780  -60.896931  -24.494852  0
9.328048  -61.457645  -24.654108  0
9.629455  -61.392464  -24.432653  0
8.963630  -61.580032  -24.620693  0
8.555296  -61.567757  -24.722536  0
7.885231  -61.292549  -24.785351  0
8.232977  -61.471020  -24.583792  0
7.905626  -61.226357  -24.418270  0
10.999797  -54.615753  -24.074928  0
10.442390  -54.512642  -24.080147  0
10.033167  -54.514648  -24.220928  0
9.505836  -54.558285  -24.374386  0
12.002743  -55.167793  -24.228535  0
12.033574  -54.919312  -23.984827  0
11.389497  -54.856712  -24.300470  0
11.743336  -55.012989  -24.258686  0
11.541385  -54.757290  -24.074995  0
9.211966  -54.733528  -24.013510  0
8.845753  -54.857243  -24.163719  0
8.501178  -55.126778  -24.246346  0
12.914404  -55.307697  -23.855503  0
12.273146  -55.451530  -24.220280  0
12.555713  -55.191093  -23.963158  0
8.296196  -55.495369  -24.195473  0
8.624150  -55.362091  -23.946211  0
12.437840  -55.896160  -24.302067  0
12.575291  -56.068291  -24.246613  0
12.743763  -55.786533  -24.051453  0
8.171217  -55.740849  -24.191616  0
8.461757  -55.706760  -23.939234  0
7.972928  -56.060684  -24.204239  0
12.642874  -56.309654  -24.196363  0
12.961990  -56.335400  -23.950531  0
12.410919  -56.641651  -24.377335  0
7.697177  -56.447166  -24.214794  0
8.032362  -56.444309  -23.960920  0
7.380466  -56.649498  -24.360926  0
12.985686  -56.849228  -23.924480  0
12.404159  -57.029354  -24.315912  0
12.686328  -56.729492  -24.137518  0
7.993399  -56.788754  -23.839834  0
7.333882  -57.010548  -24.264477  0
7.667529  -56.750359  -24.098814  0
12.994516  -57.259777  -23.862684  0
12.356194  -57.470310  -24.254068  0
12.679434  -57.168907  -24.079329  0
7.292795  -57.460709  -24.225988  0
7.662336  -57.180325  -23.965092  0
12.285051  -58.009647  -24.122467  0
12.671826  -57.642025  -23.945326  0
7.278507  -57.963768  -24.223108  0
7.546931  -57.714188  -23.975700  0
12.121780  -58.495739  -24.075857  0
11.899376  -58.659500  -24.331360  0
7.287644  -58.462521  -24.222494  0
7.527111  -58.212330  -23.979994  0
11.857618  -59.077274  -24.140808  0
12.033102  -58.814507  -24.029900  0
7.283310  -58.952835  -24.211029  0
7.529466  -58.701027  -23.972862  0
11.690201  -59.520561  -24.063833  0
11.380682  -59.632549  -24.350088  0
7.272444  -59.464901  -24.194565  0
7.521988  -59.194607  -23.956350  0
11.288536  -59.838772  -24.278921  0
11.474497  -59.848236  -24.069477  0
11.091168  -60.090004  -24.257750  0
7.302461  -60.024899  -24.207531  0
7.534365  -59.733643  -23.954203  0
10.869326  -60.351013  -24.239794  0
11.103702  -60.364498  -24.004814  0
10.643336  -60.619656  -24.236347  0
7.390379  -60.477814  -24.262999  0
7.545341  -60.674381  -24.223181  0
7.634189  -60.389874  -24.019197  0
10.408342  -60.922947  -24.145103  0
10.738798  -60.827499  -23.901318  0
10.037071  -61.185322  -24.231356  0
7.743748  -60.899235  -24.206673  0
7.954892  -61.137302  -24.202772  0
8.011022  -60.903618  -23.965857  0
9.821177  -61.455956  -24.023695  0
9.379708  -61.575165  -24.243015  0
9.046556  -61.636982  -24.253801  0
8.189499  -61.320709  -24.235012  0
8.657228  -61.541409  -24.257887  0
8.389890  -61.249050  -23.940905  0
12.096627  -54.629429  -23.521866  0
11.479036  -54.592411  -23.686558  0
10.947342  -54.518986  -23.586981  0
10.521766  -54.518459  -23.691088  0
10.129030  -54.517136  -23.838346  0
9.665254  -54.615501  -23.846979  0
13.004300  -55.092678  -23.723085  0
13.007514  -54.901936  -23.481007  0
12.438396  -54.848873  -23.787371  0
12.785966  -54.978634  -23.760023  0
12.595453  -54.743397  -23.576965  0
9.341885  -54.776875  -23.738268  0
9.545092  -54.798401  -23.491251  0
9.047750  -55.045715  -23.740465  0
13.157908  -55.294979  -23.683327  0
13.418990  -55.260426  -23.414976  0
13.065960  -55.602154  -23.830742  0
8.834037  -55.476040  -23.685127  0
9.144384  -55.353161  -23.431822  0
13.598708  -55.680923  -23.425861  0
13.081536  -55.921932  -23.851376  0
13.249543  -56.145119  -23.751755  0
13.326654  -55.720520  -23.656176  0
8.715816  -55.740860  -23.690191  0
8.964146  -55.728741  -23.457329  0
8.519734  -56.089447  -23.719542  0
13.275223  -56.548347  -23.742277  0
13.548104  -56.168690  -23.522289  0
8.320476  -56.536755  -23.692196  0
8.630814  -56.394989  -23.495729  0
13.267627  -56.997780  -23.726809  0
13.560720  -56.747658  -23.502522  0
8.221402  -56.776787  -23.662075  0
8.483408  -56.726242  -23.458014  0
8.109589  -57.055313  -23.624519  0
13.222513  -57.279686  -23.713425  0
13.460240  -57.267925  -23.491779  0
13.094887  -57.579956  -23.674528  0
7.856831  -57.497715  -23.711639  0
8.146873  -57.367641  -23.457235  0
12.817191  -57.912216  -23.703720  0
13.073371  -57.967342  -23.487673  0
12.562200  -58.066456  -23.813959  0
7.778581  -57.964779  -23.730501  0
8.042255  -57.740093  -23.474741  0
13.082046  -58.234196  -23.326773  0
12.398991  -58.467625  -23.721678  0
12.775908  -58.270657  -23.519913  0
7.770938  -58.449821  -23.728527  0
8.015339  -58.201683  -23.477982  0
12.190459  -58.872379  -23.718712  0
12.043363  -59.074909  -23.834787  0
7.769384  -58.940022  -23.714542  0
8.019080  -58.694141  -23.471552  0
11.967360  -59.464539  -23.675409  0
12.131020  -59.220409  -23.575043  0
7.768068  -59.447937  -23.701551  0
8.016804  -59.193535  -23.458448  0
11.721980  -59.938007  -23.653692  0
11.415517  -60.152721  -23.876593  0
7.814115  -60.002178  -23.720181  0
8.036488  -59.728527  -23.457790  0
11.332940  -60.369434  -23.780159  0
11.502822  -60.344761  -23.560322  0
11.133161  -60.617821  -23.710993  0
7.912596  -60.458645  -23.771227  0
8.068051  -60.662540  -23.724617  0
8.146598  -60.380169  -23.520439  0
10.920509  -60.882114  -23.613239  0
11.150548  -60.824772  -23.382315  0
10.532094  -61.065987  -23.748371  0
10.180025  -61.329273  -23.730944  0
8.264918  -60.897808  -23.707836  0
8.476376  -61.143871  -23.710144  0
8.520020  -60.904709  -23.454029  0
9.976442  -61.495129  -23.652735  0
10.167974  -61.424263  -23.418392  0
9.661216  -61.571465  -23.733192  0
8.694699  -61.336868  -23.760611  0
9.154414  -61.544292  -23.782452  0
8.891657  -61.252766  -23.416050  0
12.974197  -54.689819  -23.069946  0
12.498692  -54.615864  -23.201860  0
11.967791  -54.537903  -23.102667  0
11.546752  -54.529560  -23.211418  0
11.121551  -54.519260  -23.305113  0
10.611351  -54.578346  -23.217731  0
10.033018  -54.628063  -23.436575  0
13.292457  -54.896492  -23.204557  0
13.544503  -55.091076  -23.052158  0
10.595851  -54.715691  -22.830379  0
9.786401  -54.800549  -23.234686  0
10.130438  -54.819515  -23.003887  0
9.561490  -55.092911  -23.199747  0
13.688602  -55.438057  -23.216013  0
9.336103  -55.535900  -23.194689  0
9.689464  -55.455956  -22.953794  0
13.834075  -55.869545  -23.188164  0
14.031091  -55.798290  -22.890057  0
9.865423  -55.765903  -22.791723  0
9.188693  -55.876747  -23.216547  0
9.482118  -55.834576  -23.015190  0
8.908924  -56.127739  -23.366625  0
13.850055  -56.450024  -23.241901  0
14.076858  -56.191662  -22.972359  0
9.601420  -56.209511  -22.838577  0
8.847548  -56.484798  -23.266951  0
9.195086  -56.204144  -23.109301  0
13.855274  -57.024479  -23.152386  0
14.113540  -56.651455  -22.949879  0
8.732575  -56.744946  -23.229830  0
9.080203  -56.674026  -22.984125  0
8.527170  -57.070477  -23.228180  0
13.696876  -57.536449  -23.152115  0
13.384214  -57.713512  -23.376841  0
8.324077  -57.526363  -23.223608  0
8.590959  -57.378529  -23.000742  0
13.315071  -58.057617  -23.258734  0
13.561890  -57.886997  -23.134722  0
8.266940  -57.962944  -23.222870  0
8.530178  -57.740238  -22.975447  0
13.236767  -58.277176  -23.190870  0
13.485236  -58.224651  -23.018885  0
13.054969  -58.522892  -23.158751  0
12.637550  -58.625179  -23.389875  0
8.277342  -58.458401  -23.222849  0
8.535503  -58.216534  -22.973854  0
13.054881  -58.910500  -22.906349  0
12.433119  -58.888325  -23.397749  0
12.720796  -58.863144  -23.172688  0
8.279788  -58.960514  -23.225414  0
8.594078  -58.776833  -22.969900  0
12.285519  -59.160362  -23.389925  0
12.599671  -59.221783  -23.017492  0
12.213723  -59.515572  -23.228834  0
8.820037  -59.248852  -22.824938  0
8.282588  -59.457222  -23.214674  0
8.514163  -59.224651  -23.033464  0
11.973598  -59.938412  -23.155367  0
12.182771  -59.834663  -22.903849  0
8.330133  -60.005371  -23.217180  0
8.614649  -59.705627  -22.956642  0
11.702397  -60.310581  -23.155685  0
11.390849  -60.640427  -23.189535  0
8.415297  -60.462700  -23.258656  0
8.565136  -60.670479  -23.201233  0
8.667986  -60.397171  -23.004173  0
11.174449  -60.868660  -23.090178  0
10.883513  -61.004532  -23.268959  0
10.995904  -60.946293  -22.900984  0
10.433008  -61.229546  -23.272995  0
8.764030  -60.909500  -23.172152  0
8.974615  -61.155235  -23.164188  0
9.058239  -60.933929  -22.922228  0
10.158271  -61.385921  -23.146057  0
9.933361  -61.512711  -23.359499  0
9.874764  -61.380825  -23.011642  0
9.196822  -61.339081  -23.236565  0
9.573003  -61.504349  -23.322334  0
9.477357  -61.265472  -22.946215  0
12.965550  -54.667542  -22.772303  0
12.600241  -54.624142  -22.795181  0
12.097618  -54.601833  -22.791851  0
11.570267  -54.600750  -22.807014  0
11.036872  -54.605988  -22.901257  0
13.269958  -54.796581  -22.893356  0
13.500545  -55.006870  -22.603638  0
13.127988  -54.774460  -22.609175  0
12.754063  -54.747501  -22.504189  0
12.249040  -54.763634  -22.463779  0
11.703644  -54.783924  -22.468569  0
10.796205  -54.752426  -22.665392  0
11.115682  -54.823086  -22.525082  0
10.526386  -54.990509  -22.602491  0
9.998338  -55.169048  -22.825851  0
13.828628  -55.412308  -22.868340  0
14.088710  -55.617561  -22.614536  0
10.576728  -55.325695  -22.406366  0
9.972142  -55.456200  -22.762253  0
10.120894  -55.603775  -22.654972  0
10.254072  -55.356724  -22.600086  0
14.190712  -55.968060  -22.725485  0
10.121539  -55.775311  -22.637901  0
10.406918  -55.676441  -22.441200  0
10.072375  -56.032032  -22.594469  0
14.307905  -56.369820  -22.692810  0
14.514433  -56.320000  -22.427418  0
9.848200  -56.308582  -22.653326  0
10.057068  -56.358730  -22.460789  0
9.617525  -56.590359  -22.646893  0
14.296501  -56.721439  -22.745277  0
14.503612  -56.707474  -22.502674  0
14.232769  -57.028488  -22.736568  0
9.247294  -56.915207  -22.708658  0
9.534036  -56.946674  -22.474100  0
8.886274  -57.124374  -22.868708  0
13.995133  -57.444351  -22.841843  0
14.262367  -57.397865  -22.530878  0
9.477747  -57.271648  -22.329111  0
8.827712  -57.506516  -22.757242  0
9.167564  -57.234283  -22.590071  0
13.810902  -57.903576  -22.860758  0
14.110209  -57.760231  -22.539524  0
8.810867  -57.968246  -22.724573  0
9.167584  -57.679214  -22.451376  0
13.731003  -58.243820  -22.788952  0
13.954530  -58.208546  -22.519396  0
13.552948  -58.581573  -22.736385  0
8.839037  -58.477478  -22.749361  0
9.130935  -58.274979  -22.477182  0
13.379426  -58.936165  -22.640051  0
13.656426  -58.834873  -22.448704  0
13.077508  -59.168400  -22.645741  0
9.349452  -58.689045  -22.358641  0
8.898224  -58.882378  -22.761972  0
9.071803  -59.119495  -22.660063  0
9.114003  -58.783253  -22.582680  0
12.797277  -59.432987  -22.538792  0
12.426067  -59.621281  -22.760773  0
9.078485  -59.404648  -22.652248  0
9.351462  -59.265003  -22.447018  0
8.912310  -59.627926  -22.744257  0
12.249113  -59.887287  -22.515911  0
12.052768  -60.045883  -22.708836  0
9.539546  -59.940380  -22.379181  0
8.900152  -60.036659  -22.745564  0
9.165139  -59.757545  -22.579191  0
11.812088  -60.295547  -22.639006  0
11.522450  -60.560452  -22.709171  0
11.177445  -60.769474  -22.708885  0
9.891459  -60.412327  -22.335014  0
9.534526  -60.341393  -22.424397  0
8.971984  -60.474827  -22.747093  0
9.203253  -60.693325  -22.655245  0
9.236659  -60.282078  -22.554811  0
10.836458  -60.872910  -22.622408  0
10.663465  -61.036980  -22.873222  0
10.391873  -60.797737  -22.485027  0
10.203055  -61.158867  -22.823898  0
9.960461  -60.869541  -22.535627  0
9.386812  -60.978485  -22.709156  0
9.745970  -61.106369  -22.712233  0
9.545865  -60.694439  -22.523808  0
13.626376  -55.109310  -22.075785  0
13.083770  -54.920929  -22.299946  0
12.504571  -55.010910  -22.154356  0
11.892581  -55.044350  -22.186344  0
11.373524  -55.074062  -22.234095  0
10.916490  -55.163048  -22.310013  0
13.899590  -55.298889  -22.430082  0
14.132415  -55.515320  -22.372980  0
14.174889  -55.419540  -22.093712  0
12.563668  -55.262474  -21.878151  0
12.084215  -55.363110  -21.917597  0
11.537436  -55.370060  -22.026838  0
10.816518  -55.496597  -22.222921  0
11.147852  -55.360603  -22.124638  0
14.340666  -55.884335  -22.401375  0
14.574533  -56.119194  -22.271332  0
14.616071  -55.824718  -22.023434  0
11.676278  -55.661446  -21.832764  0
10.726633  -55.745300  -22.209848  0
11.119123  -55.734699  -22.003139  0
10.534721  -56.075367  -22.221703  0
14.729756  -56.396927  -22.216791  0
14.971103  -56.162212  -21.899014  0
10.268305  -56.452511  -22.224438  0
10.559915  -56.451340  -21.988922  0
9.921638  -56.678352  -22.356194  0
14.732120  -56.759865  -22.273191  0
14.992915  -56.669979  -21.994526  0
14.622437  -57.101547  -22.270449  0
10.463721  -56.799389  -21.847591  0
9.809462  -57.004044  -22.222332  0
10.187953  -56.747372  -22.093513  0
14.435753  -57.613468  -22.163343  0
14.751748  -57.363476  -21.967676  0
9.713302  -57.245701  -22.149992  0
10.029452  -57.173035  -21.955168  0
9.587956  -57.553677  -22.121145  0
14.224145  -57.990181  -22.225426  0
9.388919  -58.015175  -22.211460  0
9.637992  -57.909534  -21.980724  0
14.162071  -58.322254  -22.065805  0
13.903464  -58.596066  -22.306507  0
9.378054  -58.371822  -22.255285  0
9.488883  -58.571964  -22.199301  0
9.626553  -58.359566  -22.018427  0
13.778264  -58.891022  -22.084841  0
13.457804  -59.070698  -22.352232  0
13.178577  -59.307026  -22.279522  0
9.636906  -58.911488  -22.145231  0
9.894386  -58.755447  -21.860687  0
12.958657  -59.484272  -22.178730  0
13.202021  -59.394802  -21.952250  0
12.588243  -59.658562  -22.192787  0
9.759616  -59.537853  -22.180422  0
9.986797  -59.267895  -21.925272  0
12.255398  -59.876492  -22.153955  0
11.979454  -60.087162  -22.229574  0
12.125051  -59.913956  -21.988817  0
9.872878  -59.989506  -22.199081  0
10.043462  -60.172482  -22.156712  0
10.149820  -59.883862  -21.987003  0
11.690464  -60.338573  -22.191147  0
11.557830  -60.492603  -22.340237  0
11.392574  -60.408840  -22.011621  0
11.253425  -60.592216  -22.293695  0
10.987310  -60.395123  -21.934132  0
10.295287  -60.375908  -22.167175  0
10.790324  -60.618355  -22.270750  0
10.558199  -60.240108  -21.927521  0
14.153763  -55.201069  -21.635445  0
13.597376  -55.147125  -21.622160  0
13.026514  -55.129635  -21.903656  0
14.457247  -55.426933  -21.799406  0
14.665063  -55.554253  -21.764971  0
14.666265  -55.387909  -21.518089  0
13.645205  -55.228027  -21.338772  0
12.793570  -55.306671  -21.751898  0
13.149714  -55.331009  -21.540274  0
12.520749  -55.529125  -21.645319  0
12.029569  -55.654175  -21.728699  0
14.874581  -55.730309  -21.719400  0
15.125119  -55.949520  -21.629080  0
15.022978  -55.623867  -21.404934  0
12.587386  -55.783791  -21.391680  0
11.829078  -55.803795  -21.689650  0
12.130453  -55.856346  -21.520113  0
11.543362  -56.004333  -21.652020  0
10.971989  -56.180805  -21.859709  0
15.241354  -56.306503  -21.656305  0
11.531712  -56.340721  -21.389334  0
10.838424  -56.548374  -21.724545  0
11.196594  -56.347454  -21.608431  0
15.309778  -56.665924  -21.641233  0
15.500407  -56.829788  -21.364044  0
15.102249  -57.081581  -21.771582  0
10.683330  -56.874889  -21.648224  0
11.085062  -56.755829  -21.433655  0
10.398652  -57.088020  -21.731432  0
14.927211  -57.366367  -21.776728  0
15.135989  -57.382565  -21.547955  0
14.787391  -57.614769  -21.712580  0
10.917183  -57.276386  -21.313381  0
10.209408  -57.369709  -21.722982  0
10.577176  -57.257332  -21.543531  0
9.895440  -57.622879  -21.845221  0
14.447945  -58.035652  -21.712868  0
14.791866  -57.867569  -21.408819  0
10.586450  -57.777817  -21.399927  0
9.876625  -58.033363  -21.780993  0
10.199078  -57.714367  -21.624657  0
14.227570  -58.408550  -21.626455  0
14.035236  -58.645554  -21.841255  0
10.611873  -58.354519  -21.362387  0
9.910809  -58.393585  -21.763777  0
10.097914  -58.624973  -21.663532  0
10.208375  -58.232323  -21.568695  0
13.820142  -58.916615  -21.568811  0
13.497800  -59.174614  -21.865229  0
10.875229  -58.902142  -21.328238  0
10.191872  -59.023445  -21.686810  0
10.398936  -58.734131  -21.505945  0
13.275378  -59.357758  -21.556015  0
12.980081  -59.510082  -21.820650  0
12.695700  -59.538345  -21.631132  0
12.415624  -59.432579  -21.391876  0
12.293813  -59.707699  -21.795818  0
11.929706  -59.514282  -21.447233  0
11.326413  -59.373009  -21.355597  0
10.876907  -59.420162  -21.424757  0
10.315080  -59.512165  -21.718647  0
10.536874  -59.229324  -21.517323  0
11.923399  -59.894344  -21.797190  0
11.625278  -60.161777  -21.880005  0
11.514347  -59.842533  -21.576361  0
11.216095  -60.155121  -21.712624  0
11.050342  -59.790222  -21.508865  0
10.467412  -59.903931  -21.744015  0
10.795323  -60.067638  -21.684364  0
10.652456  -59.683018  -21.564810  0
14.508706  -55.210682  -21.174997  0
14.046566  -55.153519  -21.240879  0
14.852079  -55.373585  -21.158796  0
15.097614  -55.596882  -21.019226  0
13.851620  -55.233208  -21.157969  0
14.081312  -55.254967  -20.950861  0
13.592253  -55.445133  -21.105017  0
12.967348  -55.628925  -21.336922  0
15.261867  -55.942696  -21.324217  0
13.685735  -55.691544  -20.795065  0
12.815578  -55.826591  -21.236126  0
13.168514  -55.828007  -21.009674  0
12.537120  -56.028557  -21.148788  0
11.941627  -56.141491  -21.322256  0
15.444627  -56.375206  -21.227154  0
15.650116  -56.681595  -20.950779  0
12.547132  -56.284515  -20.862736  0
11.803699  -56.331112  -21.208536  0
12.111671  -56.346859  -21.021305  0
11.625288  -56.586422  -21.128475  0
15.676611  -57.009888  -21.054028  0
15.432596  -57.173668  -21.369253  0
11.294289  -56.997757  -21.142893  0
11.616394  -56.881878  -20.939306  0
15.350999  -57.386158  -21.312243  0
15.521232  -57.322033  -21.065832  0
15.158376  -57.619488  -21.227053  0
11.124414  -57.361759  -21.138308  0
11.451348  -57.312664  -20.934191  0
10.904031  -57.618713  -21.228998  0
14.943208  -57.900021  -21.111849  0
15.148382  -57.799644  -20.887232  0
14.659771  -58.062046  -21.146402  0
11.520442  -57.900101  -20.885134  0
10.862948  -58.020306  -21.221615  0
11.148123  -57.725395  -21.075939  0
14.318540  -58.322529  -21.130304  0
14.032581  -58.650112  -21.277302  0
11.899135  -58.404682  -20.840744  0
11.508976  -58.289394  -20.952307  0
10.911768  -58.433834  -21.221579  0
11.146522  -58.633888  -21.166342  0
11.202248  -58.231468  -21.074512  0
13.788694  -58.890179  -21.136318  0
13.519688  -59.102238  -21.205978  0
13.649295  -58.925503  -20.939190  0
12.480971  -59.238247  -21.159811  0
12.469273  -58.952538  -20.923521  0
12.189408  -59.185562  -21.171211  0
11.967496  -58.855934  -21.019909  0
11.313520  -58.934704  -21.204346  0
11.718490  -59.087410  -21.191921  0
11.524565  -58.635406  -21.052988  0
13.228448  -59.287861  -21.173712  0
12.708364  -59.329258  -21.230495  0
13.011506  -59.419544  -21.385399  0
12.949665  -59.217796  -21.021206  0
14.404275  -55.203457  -20.882494  0
14.768248  -55.392338  -20.745485  0
15.084101  -55.653324  -20.658215  0
14.311631  -55.268665  -20.750736  0
14.466880  -55.334503  -20.642231  0
14.110686  -55.484650  -20.679546  0
15.294437  -55.933521  -20.876059  0
15.164543  -55.933395  -20.454887  0
13.887462  -55.727764  -20.604706  0
14.071543  -55.780869  -20.414818  0
13.551333  -55.999798  -20.584452  0
12.949758  -56.157051  -20.799536  0
15.410933  -56.347130  -20.599560  0
15.652003  -56.721657  -20.619667  0
15.180977  -56.161263  -20.302929  0
13.478365  -56.376751  -20.325607  0
12.712147  -56.416458  -20.677479  0
13.066507  -56.411434  -20.535366  0
12.346430  -56.527008  -20.737732  0
11.942556  -56.665257  -20.841990  0
15.758344  -56.905697  -20.772787  0
15.666933  -57.000374  -20.518671  0
13.050350  -56.827488  -20.337797  0
12.573187  -56.759136  -20.539865  0
11.831201  -57.024548  -20.744287  0
12.157734  -56.804768  -20.651794  0
15.698861  -57.168900  -20.752626  0
15.415112  -57.500519  -20.688728  0
15.621444  -57.236004  -20.527035  0
12.942064  -57.391605  -20.278534  0
12.561592  -57.258194  -20.428661  0
11.802249  -57.489731  -20.707062  0
12.158924  -57.160339  -20.572989  0
15.147416  -57.799198  -20.611258  0
14.909604  -57.968620  -20.801304  0
14.898731  -57.892212  -20.443506  0
14.538084  -58.095623  -20.607054  0
14.685804  -57.925213  -20.312454  0
12.992209  -57.961414  -20.308737  0
12.620611  -57.721588  -20.396526  0
11.875196  -57.928005  -20.703411  0
12.148182  -58.162857  -20.634861  0
12.209662  -57.708984  -20.542625  0
14.186656  -58.321663  -20.658867  0
14.048468  -58.507595  -20.854336  0
13.870361  -58.389801  -20.504833  0
13.759086  -58.695721  -20.807854  0
13.380786  -58.405685  -20.428474  0
12.973488  -58.354881  -20.420486  0
12.338008  -58.505264  -20.686831  0
12.656393  -58.698681  -20.657145  0
12.591732  -58.243889  -20.502119  0
13.433726  -58.858253  -20.760794  0
12.875176  -58.966862  -20.767820  0
13.195662  -59.071472  -20.872606  0
13.014101  -58.694218  -20.585354  0
14.490911  -55.608284  -20.391947  0
14.874033  -55.715866  -20.362408  0
14.269975  -55.916733  -20.182219  0
14.581645  -55.973732  -20.112133  0
13.903137  -56.102314  -20.246609  0
14.941398  -56.075554  -20.165203  0
15.108167  -56.437351  -20.175648  0
14.616946  -56.479153  -19.967489  0
13.754267  -56.397892  -20.134169  0
14.147209  -56.307587  -20.026058  0
13.466101  -56.645489  -20.179209  0
15.410496  -56.766529  -20.330429  0
14.946399  -56.954212  -20.030542  0
14.442777  -56.986622  -19.877146  0
14.096479  -56.806862  -19.900747  0
13.334272  -57.034222  -20.138775  0
13.733280  -56.703629  -20.025831  0
15.373054  -57.221260  -20.305758  0
15.149870  -57.618015  -20.337322  0
14.991204  -57.402191  -20.093306  0
14.804378  -57.715382  -20.168156  0
14.536211  -57.436638  -19.970886  0
14.054463  -57.302753  -19.901033  0
13.292151  -57.532459  -20.126741  0
13.665521  -57.166046  -19.979197  0
14.458557  -57.868858  -20.186058  0
14.132922  -58.118923  -20.322620  0
14.073020  -57.762123  -20.041437  0
13.377737  -57.947258  -20.180359  0
13.726364  -58.074863  -20.201096  0
13.663054  -57.645771  -20.024342  0
14 20 0 0
1 16 0 0
0 16 14 0
1 23 16 0
20 22 0 0
0 22 1 0
1 22 24 0
1 24 23 0
42 51 2 0
3 44 2 0
2 44 42 0
4 46 3 0
3 46 44 0
5 48 4 0
4 48 46 0
5 53 48 0
2 51 6 0
6 51 57 0
2 7 3 0
2 6 7 0
3 8 4 0
3 7 8 0
4 9 5 0
4 8 9 0
53 5 54 0
5 10 54 0
5 9 10 0
10 59 54 0
6 57 11 0
11 57 62 0
6 12 7 0
6 11 12 0
7 13 8 0
7 12 13 0
8 15 9 0
8 13 15 0
9 17 10 0
9 15 17 0
59 10 64 0
64 10 17 0
11 62 18 0
18 62 68 0
11 19 12 0
11 18 19 0
12 21 13 0
12 19 21 0
21 20 14 0
15 21 14 0
13 21 15 0
15 14 16 0
15 16 17 0
25 65 23 0
23 65 16 0
65 64 16 0
64 17 16 0
25 71 65 0
68 70 18 0
75 26 70 0
26 18 70 0
26 19 18 0
19 27 21 0
19 26 27 0
28 22 20 0
21 28 20 0
27 28 21 0
29 24 22 0
29 22 28 0
29 78 24 0
24 78 23 0
78 72 23 0
72 25 23 0
25 72 71 0
76 80 30 0
76 30 75 0
30 26 75 0
30 31 26 0
26 32 27 0
26 31 32 0
27 33 28 0
27 32 33 0
28 34 29 0
28 33 34 0
78 29 83 0
83 29 34 0
80 82 30 0
87 35 82 0
35 30 82 0
35 31 30 0
31 36 32 0
31 35 36 0
32 37 33 0
32 36 37 0
84 34 91 0
34 37 91 0
34 33 37 0
34 84 83 0
87 89 35 0
35 89 36 0
36 89 90 0
36 90 37 0
37 90 92 0
37 92 91 0
100 106 38 0
39 102 38 0
38 102 100 0
40 104 39 0
39 104 102 0
40 108 104 0
38 106 41 0
41 106 113 0
38 43 39 0
38 41 43 0
39 45 40 0
39 43 45 0
108 40 109 0
40 47 109 0
40 45 47 0
49 111 47 0
47 111 109 0
49 116 111 0
114 118 50 0
114 50 113 0
50 41 113 0
50 52 41 0
52 51 42 0
43 52 42 0
41 52 43 0
43 42 44 0
43 44 45 0
45 44 46 0
45 46 47 0
47 46 48 0
47 48 49 0
55 117 53 0
53 117 48 0
117 116 48 0
116 49 48 0
55 120 117 0
50 118 56 0
56 118 122 0
50 58 52 0
50 56 58 0
58 57 51 0
58 51 52 0
54 55 53 0
60 121 59 0
59 121 54 0
121 120 54 0
120 55 54 0
60 124 121 0
56 122 61 0
61 122 125 0
56 63 58 0
56 61 63 0
63 62 57 0
63 57 58 0
64 66 60 0
64 60 59 0
124 60 127 0
127 60 66 0
61 125 67 0
67 125 128 0
61 69 63 0
61 67 69 0
69 68 62 0
69 62 63 0
65 66 64 0
65 71 66 0
71 127 66 0
71 130 127 0
67 128 73 0
73 128 131 0
67 74 69 0
67 73 74 0
77 70 68 0
69 77 68 0
74 77 69 0
77 75 70 0
78 79 72 0
79 134 72 0
134 71 72 0
134 130 71 0
131 133 73 0
136 81 133 0
81 73 133 0
81 74 73 0
81 80 76 0
77 81 76 0
74 81 77 0
77 76 75 0
83 85 79 0
83 79 78 0
134 79 138 0
138 79 85 0
81 136 86 0
86 136 140 0
88 82 80 0
81 88 80 0
86 88 81 0
88 87 82 0
91 93 84 0
93 143 84 0
84 143 83 0
143 139 83 0
139 85 83 0
85 139 138 0
140 142 86 0
146 94 142 0
94 86 142 0
94 88 86 0
95 89 87 0
88 95 87 0
94 95 88 0
96 90 89 0
96 89 95 0
97 92 90 0
97 90 96 0
97 151 92 0
92 151 91 0
151 144 91 0
144 93 91 0
93 144 143 0
146 148 94 0
94 148 95 0
95 148 149 0
95 149 96 0
96 149 150 0
96 150 97 0
97 150 152 0
97 152 151 0
156 165 98 0
99 158 98 0
98 158 156 0
101 160 99 0
99 160 158 0
103 162 101 0
101 162 160 0
105 164 103 0
103 164 162 0
105 168 164 0
165 167 98 0
171 107 167 0
107 98 167 0
107 99 98 0
107 106 100 0
101 107 100 0
99 107 101 0
101 100 102 0
101 102 103 0
103 102 104 0
103 104 105 0
110 169 108 0
108 169 104 0
169 168 104 0
168 105 104 0
110 174 169 0
172 177 112 0
172 112 171 0
112 107 171 0
112 115 107 0
115 113 106 0
115 106 107 0
109 110 108 0
175 174 110 0
109 175 110 0
111 175 109 0
111 116 175 0
175 116 179 0
112 177 119 0
119 177 182 0
119 118 114 0
115 119 114 0
112 119 115 0
115 114 113 0
180 179 116 0
180 116 117 0
117 120 180 0
180 120 184 0
119 182 123 0
123 182 188 0
123 122 118 0
123 118 119 0
186 184 120 0
186 120 121 0
121 124 186 0
186 124 190 0
123 188 126 0
126 188 193 0
126 125 122 0
126 122 123 0
127 190 124 0
127 195 190 0
126 193 129 0
129 193 197 0
129 128 125 0
129 125 126 0
130 195 127 0
130 199 195 0
129 197 132 0
132 197 201 0
132 131 128 0
132 128 129 0
134 199 130 0
134 203 199 0
132 201 135 0
135 201 205 0
137 133 131 0
132 137 131 0
135 137 132 0
137 136 133 0
138 203 134 0
138 208 203 0
205 207 135 0
211 141 207 0
141 135 207 0
141 137 135 0
141 140 136 0
141 136 137 0
213 209 139 0
213 139 143 0
138 139 208 0
208 139 209 0
141 211 145 0
145 211 215 0
147 142 140 0
141 147 140 0
145 147 141 0
147 146 142 0
219 214 144 0
219 144 151 0
143 144 213 0
213 144 214 0
215 217 145 0
145 217 147 0
147 217 218 0
218 223 153 0
218 153 148 0
147 218 148 0
146 147 148 0
154 149 148 0
154 148 153 0
155 150 149 0
155 149 154 0
150 155 227 0
220 150 227 0
152 150 220 0
151 152 219 0
219 152 220 0
223 225 153 0
153 225 154 0
154 225 226 0
154 226 155 0
155 226 228 0
155 228 227 0
230 234 157 0
159 231 157 0
157 231 230 0
161 232 159 0
159 232 231 0
163 233 161 0
161 233 232 0
163 237 233 0
235 239 166 0
235 166 234 0
234 166 157 0
166 165 157 0
165 156 157 0
157 156 158 0
157 158 159 0
159 158 160 0
159 160 161 0
161 160 162 0
161 162 163 0
238 237 163 0
162 238 163 0
164 238 162 0
164 168 238 0
238 168 241 0
166 239 170 0
170 239 243 0
173 167 165 0
166 173 165 0
170 173 166 0
173 171 167 0
242 241 168 0
242 168 169 0
169 174 242 0
242 174 246 0
244 250 176 0
244 176 243 0
176 170 243 0
176 178 170 0
178 177 172 0
173 178 172 0
170 178 173 0
173 172 171 0
248 246 174 0
248 174 175 0
175 179 248 0
248 179 252 0
176 250 181 0
181 250 254 0
176 183 178 0
176 181 183 0
183 182 177 0
183 177 178 0
179 180 185 0
256 179 185 0
252 179 256 0
184 185 180 0
181 254 187 0
187 254 258 0
181 189 183 0
181 187 189 0
189 188 182 0
189 182 183 0
257 256 185 0
260 257 191 0
191 257 186 0
257 185 186 0
185 184 186 0
190 191 186 0
187 258 192 0
192 258 262 0
187 194 189 0
187 192 194 0
194 193 188 0
194 188 189 0
260 191 196 0
260 196 265 0
195 196 190 0
190 196 191 0
262 264 192 0
268 198 264 0
198 192 264 0
198 194 192 0
198 197 193 0
198 193 194 0
265 196 200 0
265 200 270 0
199 200 195 0
195 200 196 0
198 268 202 0
202 268 272 0
202 201 197 0
202 197 198 0
270 200 204 0
270 204 274 0
203 204 199 0
199 204 200 0
202 272 206 0
206 272 276 0
206 205 201 0
206 201 202 0
274 204 210 0
274 210 279 0
208 210 203 0
203 210 204 0
276 278 206 0
278 281 212 0
278 212 207 0
206 278 207 0
205 206 207 0
212 211 207 0
279 210 209 0
213 279 209 0
283 279 213 0
209 210 208 0
212 281 216 0
216 281 285 0
216 215 211 0
216 211 212 0
219 221 214 0
221 287 214 0
287 213 214 0
287 283 213 0
285 286 216 0
286 290 222 0
286 222 217 0
216 286 217 0
215 216 217 0
224 218 217 0
224 217 222 0
224 223 218 0
227 229 220 0
229 296 220 0
220 296 219 0
296 288 219 0
288 221 219 0
221 288 287 0
290 291 222 0
222 291 224 0
224 291 292 0
224 292 223 0
292 225 223 0
292 293 225 0
225 294 226 0
293 294 225 0
226 295 228 0
294 295 226 0
227 228 229 0
228 297 229 0
228 295 297 0
229 297 296 0
302 307 236 0
234 230 236 0
230 302 236 0
230 303 302 0
304 230 231 0
304 303 230 0
305 231 232 0
305 304 231 0
306 232 233 0
306 305 232 0
233 237 306 0
306 237 311 0
308 315 240 0
308 240 307 0
307 240 236 0
240 239 236 0
239 235 236 0
236 235 234 0
313 311 237 0
313 237 238 0
238 241 313 0
313 241 317 0
240 315 245 0
245 315 321 0
245 243 239 0
245 239 240 0
241 242 247 0
324 241 247 0
317 241 324 0
246 247 242 0
319 327 249 0
251 322 249 0
249 322 319 0
322 251 321 0
321 251 245 0
251 250 245 0
250 244 245 0
245 244 243 0
326 324 247 0
330 326 253 0
253 326 248 0
326 247 248 0
247 246 248 0
252 253 248 0
327 329 249 0
333 255 329 0
255 249 329 0
255 251 249 0
255 254 250 0
255 250 251 0
332 330 253 0
253 252 332 0
252 335 332 0
252 256 335 0
255 333 259 0
259 333 337 0
259 258 254 0
259 254 255 0
256 257 261 0
339 256 261 0
335 256 339 0
260 261 257 0
259 337 263 0
263 337 341 0
263 262 258 0
263 258 259 0
339 261 266 0
339 266 343 0
265 266 260 0
260 266 261 0
263 341 267 0
267 341 345 0
269 264 262 0
263 269 262 0
267 269 263 0
269 268 264 0
343 266 271 0
343 271 348 0
270 271 265 0
265 271 266 0
345 347 267 0
350 273 347 0
273 267 347 0
273 269 267 0
273 272 268 0
273 268 269 0
348 271 275 0
348 275 352 0
274 275 270 0
270 275 271 0
273 350 277 0
277 350 354 0
277 276 272 0
277 272 273 0
352 275 280 0
352 280 357 0
279 280 274 0
274 280 275 0
354 356 277 0
356 359 282 0
356 282 278 0
277 356 278 0
276 277 278 0
282 281 278 0
357 280 284 0
357 284 362 0
283 284 279 0
279 284 280 0
359 361 282 0
281 282 361 0
364 281 361 0
285 281 364 0
362 284 289 0
362 289 367 0
287 289 283 0
283 289 284 0
364 366 285 0
285 366 286 0
290 286 366 0
290 366 370 0
373 368 298 0
298 368 367 0
298 367 289 0
296 298 289 0
288 296 289 0
288 289 287 0
370 372 290 0
290 372 291 0
372 376 299 0
292 372 299 0
291 372 292 0
300 293 292 0
300 292 299 0
301 294 293 0
301 293 300 0
294 301 380 0
374 294 380 0
295 294 374 0
298 297 373 0
297 374 373 0
297 295 374 0
297 298 296 0
376 378 299 0
299 378 300 0
300 378 379 0
300 379 301 0
301 379 381 0
301 381 380 0
383 389 309 0
307 302 309 0
302 383 309 0
302 384 383 0
385 302 303 0
385 384 302 0
386 303 304 0
386 385 303 0
392 386 310 0
386 305 310 0
386 304 305 0
306 312 305 0
305 312 310 0
311 312 306 0
387 396 314 0
316 390 314 0
314 390 387 0
390 316 389 0
389 316 309 0
316 315 309 0
315 308 309 0
309 308 307 0
393 392 310 0
393 310 312 0
393 312 394 0
398 394 318 0
318 394 313 0
394 312 313 0
312 311 313 0
317 318 313 0
314 396 320 0
320 396 400 0
314 323 316 0
314 320 323 0
323 321 315 0
323 315 316 0
398 318 325 0
398 325 403 0
324 325 317 0
317 325 318 0
401 406 328 0
401 328 400 0
400 328 320 0
328 327 320 0
327 319 320 0
320 319 322 0
320 322 323 0
323 322 321 0
405 403 325 0
409 405 331 0
331 405 326 0
405 325 326 0
325 324 326 0
330 331 326 0
406 408 328 0
408 413 334 0
408 334 329 0
328 408 329 0
327 328 329 0
334 333 329 0
411 409 331 0
416 411 336 0
336 411 332 0
411 331 332 0
331 330 332 0
335 336 332 0
334 413 338 0
338 413 419 0
338 337 333 0
338 333 334 0
416 336 340 0
416 340 421 0
339 340 335 0
335 340 336 0
338 419 342 0
342 419 423 0
342 341 337 0
342 337 338 0
421 340 344 0
421 344 425 0
343 344 339 0
339 344 340 0
342 423 346 0
346 423 427 0
346 345 341 0
346 341 342 0
425 344 349 0
425 349 429 0
348 349 343 0
343 349 344 0
427 428 346 0
428 431 351 0
428 351 347 0
346 428 347 0
345 346 347 0
351 350 347 0
429 349 353 0
429 353 433 0
352 353 348 0
348 353 349 0
351 431 355 0
355 431 435 0
355 354 350 0
355 350 351 0
433 353 358 0
433 358 437 0
357 358 352 0
352 358 353 0
435 436 355 0
436 439 360 0
436 360 356 0
355 436 356 0
354 355 356 0
360 359 356 0
437 358 363 0
437 363 442 0
362 363 357 0
357 363 358 0
439 441 360 0
441 444 365 0
441 365 361 0
360 441 361 0
359 360 361 0
365 364 361 0
442 363 369 0
442 369 447 0
367 369 362 0
362 369 363 0
444 446 365 0
446 450 371 0
446 371 366 0
365 446 366 0
364 365 366 0
371 370 366 0
453 448 375 0
375 448 447 0
375 447 369 0
373 375 369 0
368 373 369 0
368 369 367 0
450 452 371 0
452 456 377 0
452 377 372 0
371 452 372 0
370 371 372 0
377 376 372 0
459 454 382 0
382 454 453 0
382 453 375 0
380 382 375 0
374 380 375 0
374 375 373 0
456 457 377 0
377 457 376 0
457 378 376 0
457 458 378 0
378 460 379 0
458 460 378 0
382 381 459 0
381 460 459 0
381 379 460 0
381 382 380 0
462 470 388 0
391 463 388 0
388 463 462 0
389 383 391 0
383 463 391 0
383 464 463 0
465 383 384 0
465 464 383 0
466 384 385 0
466 465 384 0
467 385 386 0
467 466 385 0
386 392 467 0
467 392 473 0
468 476 395 0
397 471 395 0
395 471 468 0
471 397 470 0
470 397 388 0
397 396 388 0
396 387 388 0
388 387 390 0
388 390 391 0
391 390 389 0
475 473 392 0
475 392 393 0
479 475 399 0
475 394 399 0
475 393 394 0
398 399 394 0
476 478 395 0
482 402 478 0
402 395 478 0
402 397 395 0
402 400 396 0
402 396 397 0
479 399 404 0
479 404 485 0
403 404 398 0
398 404 399 0
483 488 407 0
483 407 482 0
482 407 402 0
407 406 402 0
406 401 402 0
402 401 400 0
487 485 404 0
490 487 410 0
410 487 405 0
487 404 405 0
404 403 405 0
409 410 405 0
407 488 412 0
412 488 492 0
414 408 406 0
407 414 406 0
412 414 407 0
414 413 408 0
490 410 415 0
490 415 494 0
411 417 409 0
417 410 409 0
417 415 410 0
416 417 411 0
412 492 418 0
418 492 497 0
412 420 414 0
412 418 420 0
420 419 413 0
420 413 414 0
496 494 415 0
422 500 496 0
415 422 496 0
417 422 415 0
421 422 416 0
416 422 417 0
497 499 418 0
502 424 499 0
424 418 499 0
424 420 418 0
424 423 419 0
424 419 420 0
500 422 426 0
500 426 505 0
425 426 421 0
421 426 422 0
502 504 424 0
423 424 504 0
508 423 504 0
427 423 508 0
505 426 430 0
505 430 510 0
429 430 425 0
425 430 426 0
428 427 432 0
427 512 432 0
427 508 512 0
432 431 428 0
510 430 434 0
510 434 514 0
433 434 429 0
429 434 430 0
512 513 432 0
431 432 513 0
516 431 513 0
435 431 516 0
514 434 438 0
514 438 518 0
437 438 433 0
433 438 434 0
436 435 440 0
435 520 440 0
435 516 520 0
440 439 436 0
518 438 443 0
518 443 522 0
442 443 437 0
437 443 438 0
520 521 440 0
521 524 445 0
521 445 441 0
440 521 441 0
439 440 441 0
445 444 441 0
522 443 449 0
522 449 527 0
447 449 442 0
442 449 443 0
524 526 445 0
526 530 451 0
526 451 446 0
445 526 446 0
444 445 446 0
451 450 446 0
534 528 455 0
455 528 527 0
455 527 449 0
453 455 449 0
448 453 449 0
448 449 447 0
530 532 451 0
451 532 450 0
532 452 450 0
532 533 452 0
456 452 533 0
456 533 537 0
540 535 461 0
461 535 534 0
461 534 455 0
459 461 455 0
454 459 455 0
454 455 453 0
537 539 456 0
456 539 457 0
457 541 458 0
539 541 457 0
461 460 540 0
460 541 540 0
460 458 541 0
460 461 459 0
543 550 469 0
472 544 469 0
469 544 543 0
470 462 472 0
462 544 472 0
462 545 544 0
546 462 463 0
546 545 462 0
547 463 464 0
547 546 463 0
548 464 465 0
548 547 464 0
549 465 466 0
549 548 465 0
553 549 474 0
549 467 474 0
549 466 467 0
473 474 467 0
551 556 477 0
551 477 550 0
550 477 469 0
477 476 469 0
476 468 469 0
469 468 471 0
469 471 472 0
472 471 470 0
555 553 474 0
557 555 480 0
480 555 475 0
555 474 475 0
474 473 475 0
479 480 475 0
477 556 481 0
481 556 559 0
484 478 476 0
477 484 476 0
481 484 477 0
484 482 478 0
557 480 486 0
557 486 562 0
485 486 479 0
479 486 480 0
481 559 489 0
489 559 565 0
489 488 483 0
484 489 483 0
481 489 484 0
484 483 482 0
564 562 486 0
568 564 491 0
491 564 487 0
564 486 487 0
486 485 487 0
490 491 487 0
489 565 493 0
493 565 570 0
493 492 488 0
493 488 489 0
568 491 495 0
568 495 572 0
494 495 490 0
490 495 491 0
493 570 498 0
498 570 575 0
498 497 492 0
498 492 493 0
574 572 495 0
577 574 501 0
501 574 496 0
574 495 496 0
495 494 496 0
500 501 496 0
575 576 498 0
576 579 503 0
576 503 499 0
498 576 499 0
497 498 499 0
503 502 499 0
577 501 506 0
577 506 581 0
505 506 500 0
500 506 501 0
503 579 507 0
507 579 583 0
509 504 502 0
503 509 502 0
507 509 503 0
509 508 504 0
581 506 511 0
581 511 587 0
510 511 505 0
505 511 506 0
583 585 507 0
507 585 509 0
509 585 586 0
508 509 586 0
590 508 586 0
512 508 590 0
587 511 515 0
587 515 592 0
514 515 510 0
510 515 511 0
513 512 517 0
512 594 517 0
512 590 594 0
517 516 513 0
592 515 519 0
592 519 598 0
518 519 514 0
514 519 515 0
594 596 517 0
516 517 596 0
600 516 596 0
520 516 600 0
598 519 523 0
598 523 602 0
522 523 518 0
518 523 519 0
521 520 525 0
520 604 525 0
520 600 604 0
525 524 521 0
602 523 529 0
602 529 606 0
527 529 522 0
522 529 523 0
604 605 525 0
605 609 531 0
605 531 526 0
525 605 526 0
524 525 526 0
531 530 526 0
613 607 536 0
536 607 606 0
536 606 529 0
534 536 529 0
528 534 529 0
528 529 527 0
609 610 531 0
531 610 530 0
610 532 530 0
610 612 532 0
612 616 538 0
533 612 538 0
532 612 533 0
538 537 533 0
619 614 542 0
542 614 613 0
542 613 536 0
540 542 536 0
535 540 536 0
535 536 534 0
616 617 538 0
538 617 537 0
617 539 537 0
617 620 539 0
542 541 619 0
541 620 619 0
541 539 620 0
541 542 540 0
622 627 543 0
543 627 550 0
623 543 544 0
623 622 543 0
624 544 545 0
624 623 544 0
625 545 546 0
625 624 545 0
626 546 547 0
626 625 546 0
633 626 552 0
626 548 552 0
626 547 548 0
549 554 548 0
548 554 552 0
553 554 549 0
628 637 551 0
551 637 556 0
551 550 627 0
551 627 628 0
635 633 552 0
635 552 554 0
635 554 636 0
640 636 558 0
558 636 555 0
636 554 555 0
554 553 555 0
557 558 555 0
638 643 560 0
637 638 560 0
559 637 560 0
556 637 559 0
644 641 561 0
561 641 640 0
558 561 640 0
563 561 558 0
562 563 557 0
557 563 558 0
560 643 566 0
566 643 647 0
566 565 559 0
566 559 560 0
646 644 561 0
567 649 646 0
561 567 646 0
563 567 561 0
564 569 562 0
569 563 562 0
569 567 563 0
568 569 564 0
566 647 571 0
571 647 652 0
571 570 565 0
571 565 566 0
651 649 567 0
573 655 651 0
567 573 651 0
569 573 567 0
572 573 568 0
568 573 569 0
652 654 571 0
570 571 654 0
658 570 654 0
575 570 658 0
657 655 573 0
661 657 578 0
578 657 574 0
657 573 574 0
573 572 574 0
577 578 574 0
576 575 580 0
575 663 580 0
575 658 663 0
580 579 576 0
661 578 582 0
661 582 665 0
581 582 577 0
577 582 578 0
580 663 584 0
584 663 667 0
584 583 579 0
584 579 580 0
665 582 588 0
665 588 670 0
587 588 581 0
581 588 582 0
667 669 584 0
669 672 589 0
669 589 585 0
584 669 585 0
583 584 585 0
591 586 585 0
591 585 589 0
591 590 586 0
670 588 593 0
670 593 676 0
592 593 587 0
587 593 588 0
672 674 589 0
679 595 674 0
595 589 674 0
595 591 589 0
595 594 590 0
595 590 591 0
681 677 597 0
597 677 676 0
593 597 676 0
599 597 593 0
598 599 592 0
592 599 593 0
679 680 595 0
680 684 601 0
680 601 596 0
595 680 596 0
594 595 596 0
601 600 596 0
683 681 597 0
603 687 683 0
597 603 683 0
599 603 597 0
602 603 598 0
598 603 599 0
684 685 601 0
600 601 685 0
689 600 685 0
604 600 689 0
687 603 608 0
687 608 694 0
606 608 602 0
602 608 603 0
689 690 604 0
604 690 605 0
691 611 609 0
605 691 609 0
690 691 605 0
697 611 691 0
702 695 615 0
615 695 694 0
615 694 608 0
613 615 608 0
607 613 608 0
607 608 606 0
611 610 609 0
697 698 611 0
698 610 611 0
698 612 610 0
700 618 616 0
612 700 616 0
698 700 612 0
703 621 618 0
703 618 700 0
621 703 702 0
621 702 615 0
619 621 615 0
614 619 615 0
614 615 613 0
618 617 616 0
617 618 620 0
620 618 621 0
620 621 619 0
629 627 622 0
623 630 622 0
622 630 629 0
624 631 623 0
623 631 630 0
625 632 624 0
624 632 631 0
626 634 625 0
625 634 632 0
633 634 626 0
705 711 628 0
628 711 637 0
628 627 629 0
706 628 629 0
705 628 706 0
706 629 630 0
706 630 707 0
707 630 631 0
707 631 708 0
708 631 632 0
708 632 709 0
709 632 634 0
709 634 710 0
717 710 639 0
639 710 635 0
710 634 635 0
634 633 635 0
636 642 635 0
635 642 639 0
640 642 636 0
712 719 638 0
638 719 643 0
638 637 711 0
638 711 712 0
717 639 645 0
717 645 723 0
644 645 641 0
645 642 641 0
645 639 642 0
641 642 640 0
720 726 648 0
719 720 648 0
647 719 648 0
643 719 647 0
725 723 645 0
728 725 650 0
650 725 646 0
725 645 646 0
645 644 646 0
649 650 646 0
648 726 653 0
653 726 731 0
653 652 647 0
653 647 648 0
730 728 650 0
735 730 656 0
656 730 651 0
730 650 651 0
650 649 651 0
655 656 651 0
731 733 653 0
733 737 659 0
733 659 654 0
653 733 654 0
652 653 654 0
659 658 654 0
735 656 660 0
735 660 739 0
657 662 655 0
662 656 655 0
662 660 656 0
661 662 657 0
659 737 664 0
664 737 742 0
664 663 658 0
664 658 659 0
741 739 660 0
666 743 741 0
660 666 741 0
662 666 660 0
665 666 661 0
661 666 662 0
664 742 668 0
668 742 745 0
668 667 663 0
668 663 664 0
743 666 671 0
743 671 747 0
670 671 665 0
665 671 666 0
745 746 668 0
746 750 673 0
746 673 669 0
668 746 669 0
667 668 669 0
673 672 669 0
753 748 675 0
675 748 747 0
671 675 747 0
678 675 671 0
676 678 670 0
670 678 671 0
750 751 673 0
673 751 672 0
751 674 672 0
751 752 674 0
679 674 752 0
679 752 755 0
753 675 682 0
753 682 758 0
681 682 677 0
682 678 677 0
682 675 678 0
677 678 676 0
755 757 679 0
679 757 680 0
684 680 757 0
684 757 760 0
758 682 686 0
758 686 763 0
683 688 681 0
688 682 681 0
688 686 682 0
687 688 683 0
760 761 684 0
684 761 685 0
689 685 761 0
689 761 766 0
771 764 692 0
692 764 763 0
686 692 763 0
693 692 686 0
696 686 688 0
693 686 696 0
694 696 687 0
687 696 688 0
766 767 689 0
689 767 690 0
690 769 691 0
767 769 690 0
772 699 697 0
691 772 697 0
769 772 691 0
699 772 771 0
692 699 771 0
701 699 692 0
704 692 693 0
701 692 704 0
702 704 695 0
704 696 695 0
704 693 696 0
695 696 694 0
699 698 697 0
698 699 700 0
700 699 701 0
700 701 703 0
703 701 704 0
703 704 702 0
774 777 713 0
711 705 713 0
705 774 713 0
705 775 774 0
776 705 706 0
776 775 705 0
781 776 714 0
776 707 714 0
776 706 707 0
708 715 707 0
707 715 714 0
709 716 708 0
708 716 715 0
710 718 709 0
709 718 716 0
717 718 710 0
778 785 721 0
778 721 777 0
777 721 713 0
721 719 713 0
719 712 713 0
713 712 711 0
783 781 714 0
783 714 715 0
783 715 784 0
722 789 784 0
715 722 784 0
716 722 715 0
724 716 718 0
722 716 724 0
723 724 717 0
717 724 718 0
786 793 727 0
786 727 785 0
785 727 721 0
727 726 721 0
726 720 721 0
721 720 719 0
791 789 722 0
791 722 724 0
791 724 792 0
795 792 729 0
729 792 725 0
792 724 725 0
724 723 725 0
728 729 725 0
727 793 732 0
732 793 797 0
732 731 726 0
732 726 727 0
795 729 734 0
795 734 800 0
730 736 728 0
736 729 728 0
736 734 729 0
735 736 730 0
797 799 732 0
799 803 738 0
799 738 733 0
732 799 733 0
731 732 733 0
738 737 733 0
802 800 734 0
740 807 802 0
734 740 802 0
736 740 734 0
739 740 735 0
735 740 736 0
803 805 738 0
737 738 805 0
810 737 805 0
742 737 810 0
809 807 740 0
813 809 744 0
744 809 741 0
809 740 741 0
740 739 741 0
743 744 741 0
810 745 742 0
815 745 810 0
813 744 749 0
813 749 818 0
747 749 743 0
743 749 744 0
815 816 745 0
745 816 746 0
750 746 816 0
750 816 821 0
824 819 754 0
754 819 818 0
754 818 749 0
753 754 749 0
748 753 749 0
748 749 747 0
821 822 750 0
750 822 751 0
822 826 756 0
752 822 756 0
751 822 752 0
756 755 752 0
824 754 759 0
824 759 834 0
758 759 753 0
753 759 754 0
826 827 756 0
756 827 755 0
827 757 755 0
827 828 757 0
830 762 760 0
757 830 760 0
828 830 757 0
836 762 830 0
834 759 765 0
834 765 841 0
763 765 758 0
758 765 759 0
762 761 760 0
837 768 766 0
837 766 761 0
836 837 761 0
762 836 761 0
839 770 768 0
839 768 837 0
842 773 770 0
842 770 839 0
773 842 841 0
773 841 765 0
771 773 765 0
764 771 765 0
764 765 763 0
768 767 766 0
767 768 769 0
769 768 770 0
769 770 772 0
772 770 773 0
772 773 771 0
844 846 779 0
777 774 779 0
774 844 779 0
774 845 844 0
848 845 780 0
845 775 780 0
845 774 775 0
776 782 775 0
775 782 780 0
781 782 776 0
847 852 787 0
847 787 846 0
846 787 779 0
787 785 779 0
785 778 779 0
779 778 777 0
850 848 780 0
850 780 782 0
850 782 851 0
854 851 788 0
788 851 783 0
851 782 783 0
782 781 783 0
784 790 783 0
783 790 788 0
789 790 784 0
787 852 786 0
852 793 786 0
852 858 793 0
787 786 785 0
856 854 788 0
856 788 790 0
856 790 857 0
861 857 794 0
794 857 791 0
857 790 791 0
790 789 791 0
792 796 791 0
791 796 794 0
795 796 792 0
859 864 798 0
858 859 798 0
797 858 798 0
793 858 797 0
863 861 794 0
801 866 863 0
794 801 863 0
796 801 794 0
800 801 795 0
795 801 796 0
864 865 798 0
865 868 804 0
865 804 799 0
798 865 799 0
797 798 799 0
804 803 799 0
866 801 806 0
866 806 871 0
802 808 800 0
808 801 800 0
808 806 801 0
807 808 802 0
868 870 804 0
870 874 811 0
870 811 805 0
804 870 805 0
803 804 805 0
811 810 805 0
873 871 806 0
812 878 873 0
806 812 873 0
808 812 806 0
809 814 807 0
814 808 807 0
814 812 808 0
813 814 809 0
874 876 811 0
810 811 876 0
880 810 876 0
815 810 880 0
878 812 817 0
878 817 884 0
820 812 814 0
817 812 820 0
818 820 813 0
813 820 814 0
880 881 815 0
815 881 816 0
821 816 881 0
821 881 887 0
894 885 823 0
823 885 884 0
817 823 884 0
825 823 817 0
824 825 819 0
825 820 819 0
825 817 820 0
819 820 818 0
887 888 821 0
821 888 822 0
826 822 888 0
826 888 897 0
898 890 829 0
892 831 829 0
892 829 890 0
895 832 831 0
895 831 892 0
832 895 894 0
823 832 894 0
833 832 823 0
835 823 825 0
833 823 835 0
834 835 824 0
824 835 825 0
897 899 826 0
826 899 827 0
829 828 898 0
828 899 898 0
828 827 899 0
828 829 830 0
830 829 831 0
830 831 836 0
831 838 836 0
831 832 838 0
